ply
format ascii 1.0
element vertex 1206
property float x
property float y
property float z
property uchar red
property uchar green
property uchar blue
end_header
-0.0191907 0.0896953 -0.0033045 255 0 0
-0.0175189 0.0896952 -0.0033045 255 0 0
-0.0158470 0.0896951 -0.0033044 255 0 0
-0.0141751 0.0896950 -0.0033043 255 0 0
-0.0125033 0.0896948 -0.0033043 255 0 0
-0.0108315 0.0896947 -0.0033042 255 0 0
-0.0091596 0.0896946 -0.0033041 255 0 0
-0.0074876 0.0896946 -0.0033041 255 0 0
-0.0058157 0.0896945 -0.0033040 255 0 0
-0.0041439 0.0896945 -0.0033039 255 0 0
-0.0024721 0.0896945 -0.0033039 255 0 0
-0.0008002 0.0896944 -0.0033038 255 0 0
0.0008717 0.0896944 -0.0033037 255 0 0
0.0025436 0.0896945 -0.0033036 255 0 0
0.0042155 0.0896946 -0.0033035 255 0 0
0.0058873 0.0896947 -0.0033034 255 0 0
0.0075592 0.0896948 -0.0033032 255 0 0
0.0092312 0.0896948 -0.0033030 255 0 0
0.0109031 0.0896947 -0.0033027 255 0 0
0.0125749 0.0896948 -0.0033023 255 0 0
0.0142468 0.0896945 -0.0033018 255 0 0
0.0159189 0.0896940 -0.0033009 255 0 0
0.0175908 0.0896931 -0.0032999 255 0 0
0.0192627 0.0896921 -0.0032983 255 0 0
0.0209345 0.0896905 -0.0032959 255 0 0
0.0226064 0.0896887 -0.0032930 255 0 0
0.0242783 0.0896861 -0.0032891 255 0 0
0.0259504 0.0896833 -0.0032848 255 0 0
-0.0409259 0.0913491 -0.0032765 255 0 0
-0.0392540 0.0913569 -0.0032881 255 0 0
-0.0375821 0.0913594 -0.0032916 255 0 0
-0.0359099 0.0913612 -0.0032942 255 0 0
-0.0342378 0.0913620 -0.0032958 255 0 0
-0.0325658 0.0913623 -0.0032963 255 0 0
-0.0308939 0.0913623 -0.0032968 255 0 0
-0.0292221 0.0913621 -0.0032972 255 0 0
-0.0275502 0.0913622 -0.0032976 255 0 0
-0.0258783 0.0913620 -0.0032978 255 0 0
-0.0242064 0.0913619 -0.0032978 255 0 0
-0.0225345 0.0913618 -0.0032979 255 0 0
-0.0208627 0.0913617 -0.0032979 255 0 0
-0.0191908 0.0913616 -0.0032979 255 0 0
-0.0175189 0.0913615 -0.0032979 255 0 0
-0.0158470 0.0913614 -0.0032979 255 0 0
-0.0141752 0.0913611 -0.0032979 255 0 0
-0.0125033 0.0913608 -0.0032978 255 0 0
-0.0108315 0.0913606 -0.0032978 255 0 0
-0.0091596 0.0913606 -0.0032977 255 0 0
-0.0074877 0.0913605 -0.0032977 255 0 0
-0.0058157 0.0913604 -0.0032976 255 0 0
-0.0041439 0.0913603 -0.0032976 255 0 0
-0.0024721 0.0913604 -0.0032975 255 0 0
-0.0008002 0.0913605 -0.0032975 255 0 0
0.0008717 0.0913606 -0.0032974 255 0 0
0.0025436 0.0913606 -0.0032973 255 0 0
0.0042154 0.0913609 -0.0032972 255 0 0
0.0058873 0.0913611 -0.0032971 255 0 0
0.0075592 0.0913613 -0.0032969 255 0 0
0.0092311 0.0913614 -0.0032966 255 0 0
0.0109030 0.0913611 -0.0032962 255 0 0
0.0125749 0.0913611 -0.0032957 255 0 0
0.0142468 0.0913604 -0.0032950 255 0 0
0.0159189 0.0913598 -0.0032937 255 0 0
0.0175908 0.0913590 -0.0032922 255 0 0
0.0192627 0.0913569 -0.0032890 255 0 0
0.0209345 0.0913543 -0.0032852 255 0 0
0.0226065 0.0913502 -0.0032794 255 0 0
0.0242786 0.0913448 -0.0032714 255 0 0
0.0259506 0.0913378 -0.0032614 255 0 0
-0.0392542 0.0930219 -0.0032789 255 0 0
-0.0375823 0.0930251 -0.0032843 255 0 0
-0.0359102 0.0930279 -0.0032882 255 0 0
-0.0342381 0.0930295 -0.0032908 255 0 0
-0.0325659 0.0930297 -0.0032916 255 0 0
-0.0308940 0.0930298 -0.0032922 255 0 0
-0.0292221 0.0930301 -0.0032929 255 0 0
-0.0275503 0.0930300 -0.0032934 255 0 0
-0.0258784 0.0930300 -0.0032938 255 0 0
-0.0242064 0.0930297 -0.0032939 255 0 0
-0.0225345 0.0930295 -0.0032940 255 0 0
-0.0208627 0.0930295 -0.0032941 255 0 0
-0.0191909 0.0930294 -0.0032942 255 0 0
-0.0175190 0.0930293 -0.0032942 255 0 0
-0.0158470 0.0930292 -0.0032942 255 0 0
-0.0141751 0.0930291 -0.0032942 255 0 0
-0.0125033 0.0930290 -0.0032942 255 0 0
-0.0108315 0.0930289 -0.0032941 255 0 0
-0.0091596 0.0930288 -0.0032941 255 0 0
-0.0074877 0.0930288 -0.0032941 255 0 0
-0.0058158 0.0930288 -0.0032940 255 0 0
-0.0041440 0.0930287 -0.0032940 255 0 0
-0.0024721 0.0930287 -0.0032939 255 0 0
-0.0008003 0.0930287 -0.0032938 255 0 0
0.0008717 0.0930288 -0.0032938 255 0 0
0.0025436 0.0930288 -0.0032937 255 0 0
0.0042154 0.0930291 -0.0032936 255 0 0
0.0058873 0.0930292 -0.0032934 255 0 0
0.0075592 0.0930292 -0.0032932 255 0 0
0.0092311 0.0930292 -0.0032929 255 0 0
0.0109030 0.0930289 -0.0032923 255 0 0
0.0125749 0.0930285 -0.0032918 255 0 0
0.0142468 0.0930283 -0.0032908 255 0 0
0.0159188 0.0930277 -0.0032892 255 0 0
0.0175908 0.0930264 -0.0032872 255 0 0
0.0192627 0.0930236 -0.0032831 255 0 0
0.0209345 0.0930200 -0.0032778 255 0 0
0.0226067 0.0930145 -0.0032700 255 0 0
0.0242787 0.0930077 -0.0032599 255 0 0
-0.0392543 0.0946865 -0.0032692 255 0 0
-0.0375824 0.0946913 -0.0032770 255 0 0
-0.0359105 0.0946952 -0.0032827 255 0 0
-0.0342381 0.0946973 -0.0032865 255 0 0
-0.0325660 0.0946982 -0.0032879 255 0 0
-0.0308940 0.0946985 -0.0032890 255 0 0
-0.0292221 0.0946986 -0.0032901 255 0 0
-0.0275503 0.0946989 -0.0032908 255 0 0
-0.0258784 0.0946987 -0.0032914 255 0 0
-0.0242064 0.0946987 -0.0032916 255 0 0
-0.0225345 0.0946987 -0.0032918 255 0 0
-0.0208627 0.0946986 -0.0032920 255 0 0
-0.0191908 0.0946985 -0.0032921 255 0 0
-0.0175190 0.0946985 -0.0032922 255 0 0
-0.0158471 0.0946985 -0.0032922 255 0 0
-0.0141752 0.0946984 -0.0032922 255 0 0
-0.0125033 0.0946984 -0.0032922 255 0 0
-0.0108315 0.0946983 -0.0032922 255 0 0
-0.0091596 0.0946982 -0.0032921 255 0 0
-0.0074877 0.0946982 -0.0032921 255 0 0
-0.0058158 0.0946982 -0.0032920 255 0 0
-0.0041440 0.0946982 -0.0032920 255 0 0
-0.0024722 0.0946982 -0.0032919 255 0 0
-0.0008003 0.0946982 -0.0032918 255 0 0
0.0008716 0.0946983 -0.0032917 255 0 0
0.0025436 0.0946982 -0.0032916 255 0 0
0.0042154 0.0946984 -0.0032915 255 0 0
0.0058873 0.0946985 -0.0032913 255 0 0
0.0075592 0.0946984 -0.0032910 255 0 0
0.0092312 0.0946983 -0.0032906 255 0 0
0.0109030 0.0946979 -0.0032899 255 0 0
0.0125749 0.0946978 -0.0032892 255 0 0
0.0142468 0.0946970 -0.0032879 255 0 0
0.0159189 0.0946959 -0.0032858 255 0 0
0.0175908 0.0946937 -0.0032832 255 0 0
0.0192628 0.0946911 -0.0032786 255 0 0
0.0209348 0.0946855 -0.0032707 255 0 0
0.0226068 0.0946793 -0.0032613 255 0 0
-0.0375824 0.0963650 -0.0032806 255 0 0
-0.0359105 0.0963680 -0.0032853 255 0 0
-0.0342382 0.0963702 -0.0032885 255 0 0
-0.0325661 0.0963701 -0.0032899 255 0 0
-0.0308940 0.0963707 -0.0032911 255 0 0
-0.0292221 0.0963710 -0.0032922 255 0 0
-0.0275502 0.0963717 -0.0032931 255 0 0
-0.0258783 0.0963718 -0.0032938 255 0 0
-0.0242064 0.0963718 -0.0032941 255 0 0
-0.0225345 0.0963717 -0.0032943 255 0 0
-0.0208627 0.0963714 -0.0032945 255 0 0
-0.0191908 0.0963713 -0.0032947 255 0 0
-0.0175189 0.0963712 -0.0032948 255 0 0
-0.0158470 0.0963711 -0.0032949 255 0 0
-0.0141752 0.0963710 -0.0032949 255 0 0
-0.0125034 0.0963709 -0.0032949 255 0 0
-0.0108315 0.0963708 -0.0032949 255 0 0
-0.0091597 0.0963708 -0.0032948 255 0 0
-0.0074877 0.0963707 -0.0032948 255 0 0
-0.0058158 0.0963707 -0.0032947 255 0 0
-0.0041440 0.0963707 -0.0032946 255 0 0
-0.0024721 0.0963706 -0.0032945 255 0 0
-0.0008003 0.0963707 -0.0032944 255 0 0
0.0008716 0.0963708 -0.0032943 255 0 0
0.0025436 0.0963707 -0.0032942 255 0 0
0.0042154 0.0963708 -0.0032941 255 0 0
0.0058873 0.0963708 -0.0032938 255 0 0
0.0075592 0.0963707 -0.0032935 255 0 0
0.0092312 0.0963705 -0.0032930 255 0 0
0.0109031 0.0963703 -0.0032922 255 0 0
0.0125749 0.0963702 -0.0032914 255 0 0
0.0142468 0.0963692 -0.0032899 255 0 0
0.0159189 0.0963676 -0.0032876 255 0 0
0.0175908 0.0963656 -0.0032848 255 0 0
0.0192629 0.0963631 -0.0032808 255 0 0
0.0209349 0.0963568 -0.0032715 255 0 0
0.0226069 0.0963505 -0.0032628 255 0 0
-0.0359099 0.0980474 -0.0032967 255 0 0
-0.0342379 0.0980467 -0.0032955 255 0 0
-0.0325660 0.0980448 -0.0032943 255 0 0
-0.0308941 0.0980441 -0.0032934 255 0 0
-0.0292222 0.0980442 -0.0032948 255 0 0
-0.0275502 0.0980448 -0.0032959 255 0 0
-0.0258783 0.0980446 -0.0032967 255 0 0
-0.0242064 0.0980446 -0.0032970 255 0 0
-0.0225344 0.0980443 -0.0032973 255 0 0
-0.0208626 0.0980442 -0.0032976 255 0 0
-0.0191908 0.0980441 -0.0032978 255 0 0
-0.0175189 0.0980441 -0.0032979 255 0 0
-0.0158470 0.0980441 -0.0032980 255 0 0
-0.0141752 0.0980440 -0.0032980 255 0 0
-0.0125033 0.0980439 -0.0032981 255 0 0
-0.0108315 0.0980439 -0.0032981 255 0 0
-0.0091596 0.0980439 -0.0032980 255 0 0
-0.0074877 0.0980438 -0.0032979 255 0 0
-0.0058158 0.0980437 -0.0032978 255 0 0
-0.0041440 0.0980437 -0.0032976 255 0 0
-0.0024722 0.0980436 -0.0032974 255 0 0
-0.0008003 0.0980435 -0.0032972 255 0 0
0.0008717 0.0980435 -0.0032971 255 0 0
0.0025436 0.0980434 -0.0032969 255 0 0
0.0042154 0.0980434 -0.0032967 255 0 0
0.0058873 0.0980432 -0.0032964 255 0 0
0.0075592 0.0980431 -0.0032960 255 0 0
0.0092312 0.0980428 -0.0032955 255 0 0
0.0109031 0.0980424 -0.0032947 255 0 0
0.0125750 0.0980415 -0.0032935 255 0 0
0.0142469 0.0980412 -0.0032920 255 0 0
0.0159189 0.0980401 -0.0032900 255 0 0
0.0175908 0.0980387 -0.0032877 255 0 0
0.0192630 0.0980366 -0.0032846 255 0 0
0.0209349 0.0980337 -0.0032794 255 0 0
-0.0342390 0.0996999 -0.0032725 255 0 0
-0.0325667 0.0997035 -0.0032785 255 0 0
-0.0308947 0.0997065 -0.0032835 255 0 0
-0.0292227 0.0997075 -0.0032865 255 0 0
-0.0275505 0.0997085 -0.0032887 255 0 0
-0.0258785 0.0997093 -0.0032903 255 0 0
-0.0242065 0.0997095 -0.0032910 255 0 0
-0.0225346 0.0997097 -0.0032916 255 0 0
-0.0208627 0.0997096 -0.0032922 255 0 0
-0.0191909 0.0997093 -0.0032927 255 0 0
-0.0175190 0.0997093 -0.0032930 255 0 0
-0.0158471 0.0997092 -0.0032931 255 0 0
-0.0141752 0.0997092 -0.0032932 255 0 0
-0.0125034 0.0997092 -0.0032932 255 0 0
-0.0108315 0.0997092 -0.0032932 255 0 0
-0.0091597 0.0997091 -0.0032931 255 0 0
-0.0074877 0.0997091 -0.0032929 255 0 0
-0.0058158 0.0997090 -0.0032928 255 0 0
-0.0041440 0.0997089 -0.0032925 255 0 0
-0.0024722 0.0997089 -0.0032923 255 0 0
-0.0008004 0.0997089 -0.0032921 255 0 0
0.0008716 0.0997089 -0.0032919 255 0 0
0.0025435 0.0997087 -0.0032916 255 0 0
0.0042154 0.0997088 -0.0032914 255 0 0
0.0058873 0.0997086 -0.0032911 255 0 0
0.0075592 0.0997084 -0.0032904 255 0 0
0.0092311 0.0997081 -0.0032897 255 0 0
0.0109031 0.0997072 -0.0032880 255 0 0
0.0125749 0.0997057 -0.0032863 255 0 0
0.0142469 0.0997037 -0.0032832 255 0 0
0.0159189 0.0997004 -0.0032785 255 0 0
0.0175912 0.0996964 -0.0032728 255 0 0
0.0192633 0.0996930 -0.0032679 255 0 0
0.0209352 0.0996762 -0.0032443 255 0 0
-0.0325674 0.1013670 -0.0032691 255 0 0
-0.0308949 0.1013709 -0.0032761 255 0 0
-0.0292229 0.1013731 -0.0032805 255 0 0
-0.0275510 0.1013749 -0.0032839 255 0 0
-0.0258787 0.1013759 -0.0032862 255 0 0
-0.0242066 0.1013758 -0.0032872 255 0 0
-0.0225347 0.1013760 -0.0032881 255 0 0
-0.0208628 0.1013763 -0.0032889 255 0 0
-0.0191910 0.1013767 -0.0032896 255 0 0
-0.0175191 0.1013767 -0.0032900 255 0 0
-0.0158471 0.1013766 -0.0032902 255 0 0
-0.0141752 0.1013765 -0.0032903 255 0 0
-0.0125034 0.1013765 -0.0032903 255 0 0
-0.0108316 0.1013765 -0.0032903 255 0 0
-0.0091597 0.1013764 -0.0032902 255 0 0
-0.0074878 0.1013763 -0.0032899 255 0 0
-0.0058159 0.1013763 -0.0032897 255 0 0
-0.0041441 0.1013763 -0.0032893 255 0 0
-0.0024723 0.1013763 -0.0032889 255 0 0
-0.0008004 0.1013761 -0.0032886 255 0 0
0.0008715 0.1013761 -0.0032883 255 0 0
0.0025435 0.1013759 -0.0032879 255 0 0
0.0042153 0.1013758 -0.0032877 255 0 0
0.0058872 0.1013755 -0.0032872 255 0 0
0.0075592 0.1013750 -0.0032864 255 0 0
0.0092311 0.1013746 -0.0032854 255 0 0
0.0109032 0.1013732 -0.0032832 255 0 0
0.0125751 0.1013713 -0.0032807 255 0 0
0.0142471 0.1013683 -0.0032765 255 0 0
0.0159193 0.1013637 -0.0032702 255 0 0
0.0175914 0.1013582 -0.0032625 255 0 0
0.0192634 0.1013539 -0.0032566 255 0 0
-0.0308950 0.1030364 -0.0032693 255 0 0
-0.0292231 0.1030364 -0.0032725 255 0 0
-0.0275512 0.1030372 -0.0032756 255 0 0
-0.0258793 0.1030390 -0.0032787 255 0 0
-0.0242069 0.1030411 -0.0032818 255 0 0
-0.0225347 0.1030429 -0.0032844 255 0 0
-0.0208629 0.1030433 -0.0032859 255 0 0
-0.0191910 0.1030438 -0.0032870 255 0 0
-0.0175191 0.1030441 -0.0032877 255 0 0
-0.0158472 0.1030444 -0.0032880 255 0 0
-0.0141753 0.1030445 -0.0032882 255 0 0
-0.0125035 0.1030447 -0.0032883 255 0 0
-0.0108316 0.1030449 -0.0032882 255 0 0
-0.0091598 0.1030449 -0.0032880 255 0 0
-0.0074879 0.1030449 -0.0032875 255 0 0
-0.0058160 0.1030447 -0.0032870 255 0 0
-0.0041442 0.1030445 -0.0032861 255 0 0
-0.0024724 0.1030443 -0.0032854 255 0 0
-0.0008005 0.1030441 -0.0032848 255 0 0
0.0008715 0.1030437 -0.0032843 255 0 0
0.0025435 0.1030433 -0.0032837 255 0 0
0.0042153 0.1030430 -0.0032834 255 0 0
0.0058872 0.1030425 -0.0032828 255 0 0
0.0075592 0.1030414 -0.0032818 255 0 0
0.0092312 0.1030403 -0.0032805 255 0 0
0.0109033 0.1030385 -0.0032778 255 0 0
0.0125752 0.1030349 -0.0032737 255 0 0
0.0142471 0.1030313 -0.0032684 255 0 0
0.0159195 0.1030262 -0.0032612 255 0 0
0.0175915 0.1030205 -0.0032531 255 0 0
-0.0292231 0.1047099 -0.0032744 255 0 0
-0.0275511 0.1047119 -0.0032792 255 0 0
-0.0258790 0.1047136 -0.0032828 255 0 0
-0.0242068 0.1047140 -0.0032849 255 0 0
-0.0225347 0.1047147 -0.0032866 255 0 0
-0.0208629 0.1047151 -0.0032878 255 0 0
-0.0191910 0.1047154 -0.0032888 255 0 0
-0.0175190 0.1047156 -0.0032895 255 0 0
-0.0158471 0.1047158 -0.0032899 255 0 0
-0.0141753 0.1047161 -0.0032901 255 0 0
-0.0125035 0.1047164 -0.0032903 255 0 0
-0.0108316 0.1047167 -0.0032903 255 0 0
-0.0091598 0.1047167 -0.0032900 255 0 0
-0.0074878 0.1047166 -0.0032894 255 0 0
-0.0058159 0.1047164 -0.0032889 255 0 0
-0.0041441 0.1047161 -0.0032878 255 0 0
-0.0024724 0.1047158 -0.0032869 255 0 0
-0.0008005 0.1047155 -0.0032860 255 0 0
0.0008715 0.1047150 -0.0032853 255 0 0
0.0025435 0.1047144 -0.0032844 255 0 0
0.0042153 0.1047138 -0.0032841 255 0 0
0.0058872 0.1047130 -0.0032834 255 0 0
0.0075592 0.1047121 -0.0032823 255 0 0
0.0092313 0.1047111 -0.0032809 255 0 0
0.0109034 0.1047094 -0.0032784 255 0 0
0.0125752 0.1047053 -0.0032736 255 0 0
0.0142472 0.1047013 -0.0032681 255 0 0
0.0159196 0.1046968 -0.0032617 255 0 0
-0.0275494 0.1064119 -0.0033059 255 0 0
-0.0258775 0.1064136 -0.0033098 255 0 0
-0.0242061 0.1064027 -0.0033016 255 0 0
-0.0225346 0.1063933 -0.0032948 255 0 0
-0.0208627 0.1063907 -0.0032930 255 0 0
-0.0191909 0.1063889 -0.0032919 255 0 0
-0.0175189 0.1063876 -0.0032914 255 0 0
-0.0158470 0.1063876 -0.0032916 255 0 0
-0.0141751 0.1063878 -0.0032919 255 0 0
-0.0125032 0.1063885 -0.0032927 255 0 0
-0.0108313 0.1063887 -0.0032933 255 0 0
-0.0091593 0.1063887 -0.0032938 255 0 0
-0.0074874 0.1063883 -0.0032943 255 0 0
-0.0058154 0.1063881 -0.0032942 255 0 0
-0.0041436 0.1063875 -0.0032940 255 0 0
-0.0024718 0.1063870 -0.0032930 255 0 0
-0.0007999 0.1063866 -0.0032914 255 0 0
0.0008720 0.1063862 -0.0032888 255 0 0
0.0025440 0.1063861 -0.0032868 255 0 0
0.0042156 0.1063862 -0.0032867 255 0 0
0.0058874 0.1063863 -0.0032866 255 0 0
0.0075593 0.1063867 -0.0032864 255 0 0
0.0092313 0.1063870 -0.0032863 255 0 0
0.0109034 0.1063860 -0.0032846 255 0 0
0.0125751 0.1063868 -0.0032846 255 0 0
0.0142470 0.1063852 -0.0032816 255 0 0
-0.0242091 0.1080105 -0.0032425 255 0 0
-0.0225359 0.1080327 -0.0032642 255 0 0
-0.0208640 0.1080386 -0.0032713 255 0 0
-0.0191920 0.1080433 -0.0032766 255 0 0
-0.0175195 0.1080468 -0.0032801 255 0 0
-0.0158474 0.1080488 -0.0032816 255 0 0
-0.0141756 0.1080498 -0.0032823 255 0 0
-0.0125038 0.1080519 -0.0032829 255 0 0
-0.0108320 0.1080532 -0.0032824 255 0 0
-0.0091601 0.1080536 -0.0032808 255 0 0
-0.0074883 0.1080532 -0.0032780 255 0 0
-0.0058164 0.1080526 -0.0032754 255 0 0
-0.0041448 0.1080515 -0.0032707 255 0 0
-0.0024730 0.1080501 -0.0032670 255 0 0
-0.0008011 0.1080488 -0.0032641 255 0 0
0.0008710 0.1080464 -0.0032622 255 0 0
0.0025432 0.1080439 -0.0032601 255 0 0
0.0042150 0.1080406 -0.0032600 255 0 0
0.0058870 0.1080372 -0.0032588 255 0 0
0.0075591 0.1080328 -0.0032562 255 0 0
0.0092315 0.1080290 -0.0032528 255 0 0
0.0109036 0.1080259 -0.0032498 255 0 0
0.0125759 0.1080105 -0.0032336 255 0 0
-0.0225363 0.1096852 -0.0032480 255 0 0
-0.0208641 0.1096968 -0.0032585 255 0 0
-0.0191922 0.1097038 -0.0032663 255 0 0
-0.0175200 0.1097094 -0.0032716 255 0 0
-0.0158477 0.1097117 -0.0032738 255 0 0
-0.0141758 0.1097140 -0.0032747 255 0 0
-0.0125040 0.1097176 -0.0032758 255 0 0
-0.0108322 0.1097194 -0.0032752 255 0 0
-0.0091603 0.1097205 -0.0032730 255 0 0
-0.0074885 0.1097200 -0.0032691 255 0 0
-0.0058166 0.1097189 -0.0032651 255 0 0
-0.0041450 0.1097168 -0.0032582 255 0 0
-0.0024732 0.1097143 -0.0032525 255 0 0
-0.0008013 0.1097121 -0.0032478 255 0 0
0.0008706 0.1097086 -0.0032442 255 0 0
0.0025431 0.1097049 -0.0032406 255 0 0
0.0042149 0.1096999 -0.0032409 255 0 0
0.0058869 0.1096949 -0.0032397 255 0 0
0.0075591 0.1096890 -0.0032367 255 0 0
0.0092314 0.1096833 -0.0032324 255 0 0
-0.0191923 0.1113684 -0.0032592 255 0 0
-0.0175204 0.1113745 -0.0032649 255 0 0
-0.0158478 0.1113775 -0.0032675 255 0 0
-0.0141760 0.1113800 -0.0032680 255 0 0
-0.0125042 0.1113848 -0.0032701 255 0 0
-0.0108324 0.1113877 -0.0032690 255 0 0
-0.0091606 0.1113892 -0.0032651 255 0 0
-0.0074888 0.1113890 -0.0032576 255 0 0
-0.0058169 0.1113880 -0.0032510 255 0 0
-0.0041454 0.1113853 -0.0032428 255 0 0
-0.0024736 0.1113821 -0.0032363 255 0 0
-0.0008016 0.1113783 -0.0032314 255 0 0
0.0008705 0.1113740 -0.0032282 255 0 0
0.0025431 0.1113696 -0.0032249 255 0 0
0.0042149 0.1113628 -0.0032261 255 0 0
-0.0125028 0.1130536 -0.0032696 255 0 0
-0.0108307 0.1130574 -0.0032716 255 0 0
-0.0091586 0.1130586 -0.0032718 255 0 0
-0.0074867 0.1130576 -0.0032701 255 0 0
-0.0058147 0.1130559 -0.0032663 255 0 0
-0.0041430 0.1130518 -0.0032612 255 0 0
-0.0091590 0.0328867 -0.0016982 255 0 0
-0.0191902 0.0345586 -0.0016982 255 0 0
-0.0175183 0.0345586 -0.0016982 255 0 0
-0.0158464 0.0345586 -0.0016982 255 0 0
-0.0141746 0.0345586 -0.0016982 255 0 0
-0.0125027 0.0345586 -0.0016982 255 0 0
-0.0108308 0.0345586 -0.0016982 255 0 0
-0.0091590 0.0345586 -0.0016982 255 0 0
-0.0074871 0.0345586 -0.0016982 255 0 0
-0.0058153 0.0345586 -0.0016982 255 0 0
-0.0041434 0.0345586 -0.0016982 255 0 0
-0.0024715 0.0345586 -0.0016982 255 0 0
-0.0007997 0.0345586 -0.0016982 255 0 0
0.0008722 0.0345586 -0.0016982 255 0 0
-0.0242057 0.0362304 -0.0016982 255 0 0
-0.0225339 0.0362304 -0.0016982 255 0 0
-0.0208620 0.0362304 -0.0016982 255 0 0
-0.0191902 0.0362304 -0.0016982 255 0 0
-0.0175183 0.0362304 -0.0016982 255 0 0
-0.0158464 0.0362304 -0.0016982 255 0 0
-0.0141746 0.0362304 -0.0016982 255 0 0
-0.0125027 0.0362304 -0.0016982 255 0 0
-0.0108308 0.0362304 -0.0016982 255 0 0
-0.0091590 0.0362304 -0.0016982 255 0 0
-0.0074871 0.0362304 -0.0016982 255 0 0
-0.0058153 0.0362304 -0.0016982 255 0 0
-0.0041434 0.0362304 -0.0016982 255 0 0
-0.0024715 0.0362304 -0.0016982 255 0 0
-0.0007997 0.0362304 -0.0016982 255 0 0
0.0008722 0.0362304 -0.0016982 255 0 0
0.0025441 0.0362304 -0.0016982 255 0 0
0.0042159 0.0362304 -0.0016982 255 0 0
-0.0275495 0.0379023 -0.0016982 255 0 0
-0.0258776 0.0379023 -0.0016982 255 0 0
-0.0242057 0.0379023 -0.0016982 255 0 0
-0.0225339 0.0379023 -0.0016982 255 0 0
-0.0208620 0.0379023 -0.0016982 255 0 0
-0.0191902 0.0379023 -0.0016982 255 0 0
-0.0175183 0.0379023 -0.0016982 255 0 0
-0.0158464 0.0379023 -0.0016982 255 0 0
-0.0141746 0.0379023 -0.0016982 255 0 0
-0.0125027 0.0379023 -0.0016982 255 0 0
-0.0108308 0.0379023 -0.0016982 255 0 0
-0.0091590 0.0379023 -0.0016982 255 0 0
-0.0074871 0.0379023 -0.0016982 255 0 0
-0.0058153 0.0379023 -0.0016982 255 0 0
-0.0041434 0.0379023 -0.0016982 255 0 0
-0.0024715 0.0379023 -0.0016982 255 0 0
-0.0007997 0.0379023 -0.0016982 255 0 0
0.0008722 0.0379023 -0.0016982 255 0 0
0.0025441 0.0379023 -0.0016982 255 0 0
0.0042159 0.0379023 -0.0016982 255 0 0
0.0058878 0.0379023 -0.0016982 255 0 0
0.0075596 0.0379023 -0.0016982 255 0 0
-0.0292213 0.0395742 -0.0016982 255 0 0
-0.0275495 0.0395742 -0.0016982 255 0 0
-0.0258776 0.0395742 -0.0016982 255 0 0
-0.0242057 0.0395742 -0.0016982 255 0 0
-0.0225339 0.0395742 -0.0016982 255 0 0
-0.0208620 0.0395742 -0.0016982 255 0 0
-0.0191902 0.0395742 -0.0016982 255 0 0
-0.0175183 0.0395742 -0.0016982 255 0 0
-0.0158464 0.0395742 -0.0016982 255 0 0
-0.0141746 0.0395742 -0.0016982 255 0 0
-0.0125027 0.0395742 -0.0016982 255 0 0
-0.0108308 0.0395742 -0.0016982 255 0 0
-0.0091590 0.0395742 -0.0016982 255 0 0
-0.0074871 0.0395742 -0.0016982 255 0 0
-0.0058153 0.0395742 -0.0016982 255 0 0
-0.0041434 0.0395742 -0.0016982 255 0 0
-0.0024715 0.0395742 -0.0016982 255 0 0
-0.0007997 0.0395742 -0.0016982 255 0 0
0.0008722 0.0395742 -0.0016982 255 0 0
0.0025441 0.0395742 -0.0016982 255 0 0
0.0042159 0.0395742 -0.0016982 255 0 0
0.0058878 0.0395742 -0.0016982 255 0 0
0.0075596 0.0395742 -0.0016982 255 0 0
0.0092315 0.0395742 -0.0016982 255 0 0
-0.0325651 0.0412460 -0.0016982 255 0 0
-0.0308932 0.0412460 -0.0016982 255 0 0
-0.0292213 0.0412460 -0.0016982 255 0 0
-0.0275495 0.0412460 -0.0016982 255 0 0
-0.0258776 0.0412460 -0.0016982 255 0 0
-0.0242057 0.0412460 -0.0016982 255 0 0
-0.0225339 0.0412460 -0.0016982 255 0 0
-0.0208620 0.0412460 -0.0016982 255 0 0
-0.0191902 0.0412460 -0.0016982 255 0 0
-0.0175183 0.0412460 -0.0016982 255 0 0
-0.0158464 0.0412460 -0.0016982 255 0 0
-0.0141746 0.0412460 -0.0016982 255 0 0
-0.0125027 0.0412460 -0.0016982 255 0 0
-0.0108308 0.0412460 -0.0016982 255 0 0
-0.0091590 0.0412460 -0.0016982 255 0 0
-0.0074871 0.0412460 -0.0016982 255 0 0
-0.0058153 0.0412460 -0.0016982 255 0 0
-0.0041434 0.0412460 -0.0016982 255 0 0
-0.0024715 0.0412460 -0.0016982 255 0 0
-0.0007997 0.0412460 -0.0016982 255 0 0
0.0008722 0.0412460 -0.0016982 255 0 0
0.0025441 0.0412460 -0.0016982 255 0 0
0.0042159 0.0412460 -0.0016982 255 0 0
0.0058878 0.0412460 -0.0016982 255 0 0
0.0075596 0.0412460 -0.0016982 255 0 0
0.0092315 0.0412460 -0.0016982 255 0 0
0.0109034 0.0412460 -0.0016982 255 0 0
-0.0342369 0.0429179 -0.0016982 255 0 0
-0.0325651 0.0429179 -0.0016982 255 0 0
-0.0308932 0.0429179 -0.0016982 255 0 0
-0.0292213 0.0429179 -0.0016982 255 0 0
-0.0275495 0.0429179 -0.0016982 255 0 0
-0.0258776 0.0429179 -0.0016982 255 0 0
-0.0242057 0.0429179 -0.0016982 255 0 0
-0.0225339 0.0429179 -0.0016982 255 0 0
-0.0208620 0.0429179 -0.0016982 255 0 0
-0.0191902 0.0429179 -0.0016982 255 0 0
-0.0175183 0.0429179 -0.0016982 255 0 0
-0.0158464 0.0429179 -0.0016982 255 0 0
-0.0141746 0.0429179 -0.0016982 255 0 0
-0.0125027 0.0429179 -0.0016982 255 0 0
-0.0108308 0.0429179 -0.0016982 255 0 0
-0.0091590 0.0429179 -0.0016982 255 0 0
-0.0074871 0.0429179 -0.0016982 255 0 0
-0.0058153 0.0429179 -0.0016982 255 0 0
-0.0041434 0.0429179 -0.0016982 255 0 0
-0.0024715 0.0429179 -0.0016982 255 0 0
-0.0007997 0.0429179 -0.0016982 255 0 0
0.0008722 0.0429179 -0.0016982 255 0 0
0.0025441 0.0429179 -0.0016982 255 0 0
0.0042159 0.0429179 -0.0016982 255 0 0
0.0058878 0.0429179 -0.0016982 255 0 0
0.0075596 0.0429179 -0.0016982 255 0 0
0.0092315 0.0429179 -0.0016982 255 0 0
0.0109034 0.0429179 -0.0016982 255 0 0
0.0125752 0.0429179 -0.0016982 255 0 0
0.0142471 0.0429179 -0.0016982 255 0 0
-0.0359088 0.0445897 -0.0016982 255 0 0
-0.0342369 0.0445897 -0.0016982 255 0 0
-0.0325651 0.0445897 -0.0016982 255 0 0
-0.0308932 0.0445897 -0.0016982 255 0 0
-0.0292213 0.0445897 -0.0016982 255 0 0
-0.0275495 0.0445897 -0.0016982 255 0 0
-0.0258776 0.0445897 -0.0016982 255 0 0
-0.0242057 0.0445897 -0.0016982 255 0 0
-0.0225339 0.0445897 -0.0016982 255 0 0
-0.0208620 0.0445897 -0.0016982 255 0 0
-0.0191902 0.0445897 -0.0016982 255 0 0
-0.0175183 0.0445897 -0.0016982 255 0 0
-0.0158464 0.0445897 -0.0016982 255 0 0
-0.0141746 0.0445897 -0.0016982 255 0 0
-0.0125027 0.0445897 -0.0016982 255 0 0
-0.0108308 0.0445897 -0.0016982 255 0 0
-0.0091590 0.0445897 -0.0016982 255 0 0
-0.0074871 0.0445897 -0.0016982 255 0 0
-0.0058153 0.0445897 -0.0016982 255 0 0
-0.0041434 0.0445897 -0.0016982 255 0 0
-0.0024715 0.0445897 -0.0016982 255 0 0
-0.0007997 0.0445897 -0.0016982 255 0 0
0.0008722 0.0445897 -0.0016982 255 0 0
0.0025441 0.0445897 -0.0016982 255 0 0
0.0042159 0.0445897 -0.0016982 255 0 0
0.0058878 0.0445897 -0.0016982 255 0 0
0.0075596 0.0445897 -0.0016982 255 0 0
0.0092315 0.0445897 -0.0016982 255 0 0
0.0109034 0.0445897 -0.0016982 255 0 0
0.0125752 0.0445897 -0.0016982 255 0 0
0.0142471 0.0445897 -0.0016982 255 0 0
0.0159190 0.0445897 -0.0016982 255 0 0
-0.0375807 0.0462616 -0.0016982 255 0 0
-0.0359088 0.0462616 -0.0016982 255 0 0
-0.0342369 0.0462616 -0.0016982 255 0 0
-0.0325651 0.0462616 -0.0016982 255 0 0
-0.0308932 0.0462616 -0.0016982 255 0 0
-0.0292213 0.0462616 -0.0016982 255 0 0
-0.0275495 0.0462616 -0.0016982 255 0 0
-0.0258776 0.0462616 -0.0016982 255 0 0
-0.0242057 0.0462616 -0.0016982 255 0 0
-0.0225339 0.0462616 -0.0016982 255 0 0
-0.0208620 0.0462616 -0.0016982 255 0 0
-0.0191902 0.0462616 -0.0016982 255 0 0
-0.0175183 0.0462616 -0.0016982 255 0 0
-0.0158464 0.0462616 -0.0016982 255 0 0
-0.0141746 0.0462616 -0.0016982 255 0 0
-0.0125027 0.0462616 -0.0016982 255 0 0
-0.0108308 0.0462616 -0.0016982 255 0 0
-0.0091590 0.0462616 -0.0016982 255 0 0
-0.0074871 0.0462616 -0.0016982 255 0 0
-0.0058153 0.0462616 -0.0016982 255 0 0
-0.0041434 0.0462616 -0.0016982 255 0 0
-0.0024715 0.0462616 -0.0016982 255 0 0
-0.0007997 0.0462616 -0.0016982 255 0 0
0.0008722 0.0462616 -0.0016982 255 0 0
0.0025441 0.0462616 -0.0016982 255 0 0
0.0042159 0.0462616 -0.0016982 255 0 0
0.0058878 0.0462616 -0.0016982 255 0 0
0.0075596 0.0462616 -0.0016982 255 0 0
0.0092315 0.0462616 -0.0016982 255 0 0
0.0109034 0.0462616 -0.0016982 255 0 0
0.0125752 0.0462616 -0.0016982 255 0 0
0.0142471 0.0462616 -0.0016982 255 0 0
0.0159190 0.0462616 -0.0016981 255 0 0
0.0175908 0.0462616 -0.0016981 255 0 0
-0.0392525 0.0479335 -0.0016982 255 0 0
-0.0375807 0.0479335 -0.0016982 255 0 0
-0.0359088 0.0479335 -0.0016982 255 0 0
-0.0342369 0.0479335 -0.0016982 255 0 0
-0.0325651 0.0479335 -0.0016982 255 0 0
-0.0308932 0.0479335 -0.0016982 255 0 0
-0.0292213 0.0479335 -0.0016982 255 0 0
-0.0275495 0.0479335 -0.0016982 255 0 0
-0.0258776 0.0479335 -0.0016982 255 0 0
-0.0242057 0.0479335 -0.0016982 255 0 0
-0.0225339 0.0479335 -0.0016982 255 0 0
-0.0208620 0.0479335 -0.0016982 255 0 0
-0.0191902 0.0479335 -0.0016982 255 0 0
-0.0175183 0.0479335 -0.0016982 255 0 0
-0.0158464 0.0479335 -0.0016982 255 0 0
-0.0141746 0.0479335 -0.0016982 255 0 0
-0.0125027 0.0479335 -0.0016981 255 0 0
-0.0108308 0.0479335 -0.0016981 255 0 0
-0.0091590 0.0479335 -0.0016981 255 0 0
-0.0074871 0.0479335 -0.0016981 255 0 0
-0.0058153 0.0479335 -0.0016981 255 0 0
-0.0041434 0.0479335 -0.0016981 255 0 0
-0.0024715 0.0479335 -0.0016981 255 0 0
-0.0007997 0.0479335 -0.0016981 255 0 0
0.0008722 0.0479335 -0.0016981 255 0 0
0.0025441 0.0479335 -0.0016981 255 0 0
0.0042159 0.0479335 -0.0016981 255 0 0
0.0058878 0.0479335 -0.0016981 255 0 0
0.0075596 0.0479335 -0.0016981 255 0 0
0.0092315 0.0479335 -0.0016981 255 0 0
0.0109034 0.0479335 -0.0016981 255 0 0
0.0125752 0.0479335 -0.0016981 255 0 0
0.0142471 0.0479335 -0.0016981 255 0 0
0.0159190 0.0479335 -0.0016981 255 0 0
0.0175908 0.0479335 -0.0016981 255 0 0
0.0192627 0.0479335 -0.0016981 255 0 0
-0.0392525 0.0496053 -0.0016981 255 0 0
-0.0375807 0.0496053 -0.0016981 255 0 0
-0.0359088 0.0496053 -0.0016981 255 0 0
-0.0342369 0.0496053 -0.0016981 255 0 0
-0.0325651 0.0496053 -0.0016981 255 0 0
-0.0308932 0.0496053 -0.0016981 255 0 0
-0.0292213 0.0496053 -0.0016981 255 0 0
-0.0275495 0.0496053 -0.0016981 255 0 0
-0.0258776 0.0496053 -0.0016981 255 0 0
-0.0242057 0.0496053 -0.0016981 255 0 0
-0.0225339 0.0496053 -0.0016981 255 0 0
-0.0208620 0.0496053 -0.0016981 255 0 0
-0.0191902 0.0496053 -0.0016981 255 0 0
-0.0175183 0.0496053 -0.0016981 255 0 0
-0.0158464 0.0496053 -0.0016981 255 0 0
-0.0141746 0.0496053 -0.0016981 255 0 0
-0.0125027 0.0496053 -0.0016981 255 0 0
-0.0108308 0.0496053 -0.0016981 255 0 0
-0.0091590 0.0496053 -0.0016981 255 0 0
-0.0074871 0.0496053 -0.0016981 255 0 0
-0.0058153 0.0496053 -0.0016981 255 0 0
-0.0041434 0.0496053 -0.0016981 255 0 0
-0.0024715 0.0496053 -0.0016981 255 0 0
-0.0007997 0.0496053 -0.0016981 255 0 0
0.0008722 0.0496053 -0.0016981 255 0 0
0.0025441 0.0496053 -0.0016981 255 0 0
0.0042159 0.0496053 -0.0016981 255 0 0
0.0058878 0.0496053 -0.0016981 255 0 0
0.0075596 0.0496053 -0.0016981 255 0 0
0.0092315 0.0496053 -0.0016981 255 0 0
0.0109034 0.0496053 -0.0016981 255 0 0
0.0125752 0.0496053 -0.0016981 255 0 0
0.0142471 0.0496053 -0.0016981 255 0 0
0.0159190 0.0496053 -0.0016981 255 0 0
0.0175908 0.0496053 -0.0016981 255 0 0
0.0192627 0.0496053 -0.0016981 255 0 0
-0.0409244 0.0512772 -0.0016981 255 0 0
-0.0392525 0.0512772 -0.0016981 255 0 0
-0.0375807 0.0512772 -0.0016981 255 0 0
-0.0359088 0.0512772 -0.0016981 255 0 0
-0.0342369 0.0512772 -0.0016981 255 0 0
-0.0325651 0.0512772 -0.0016981 255 0 0
-0.0308932 0.0512772 -0.0016981 255 0 0
-0.0292213 0.0512772 -0.0016981 255 0 0
-0.0275495 0.0512772 -0.0016981 255 0 0
-0.0258776 0.0512772 -0.0016981 255 0 0
-0.0242057 0.0512772 -0.0016981 255 0 0
-0.0225339 0.0512772 -0.0016981 255 0 0
-0.0208620 0.0512772 -0.0016981 255 0 0
-0.0191902 0.0512772 -0.0016981 255 0 0
-0.0175183 0.0512772 -0.0016981 255 0 0
-0.0158464 0.0512772 -0.0016981 255 0 0
-0.0141746 0.0512772 -0.0016981 255 0 0
-0.0125027 0.0512772 -0.0016981 255 0 0
-0.0108308 0.0512772 -0.0016981 255 0 0
-0.0091590 0.0512772 -0.0016981 255 0 0
-0.0074871 0.0512772 -0.0016981 255 0 0
-0.0058153 0.0512772 -0.0016981 255 0 0
-0.0041434 0.0512772 -0.0016981 255 0 0
-0.0024715 0.0512772 -0.0016981 255 0 0
-0.0007997 0.0512772 -0.0016981 255 0 0
0.0008722 0.0512772 -0.0016981 255 0 0
0.0025441 0.0512772 -0.0016981 255 0 0
0.0042159 0.0512772 -0.0016981 255 0 0
0.0058878 0.0512772 -0.0016981 255 0 0
0.0075596 0.0512772 -0.0016980 255 0 0
0.0092315 0.0512772 -0.0016980 255 0 0
0.0109034 0.0512772 -0.0016980 255 0 0
0.0125752 0.0512772 -0.0016980 255 0 0
0.0142471 0.0512772 -0.0016980 255 0 0
0.0159190 0.0512772 -0.0016980 255 0 0
0.0175908 0.0512772 -0.0016980 255 0 0
0.0192627 0.0512772 -0.0016980 255 0 0
0.0209345 0.0512772 -0.0016979 255 0 0
-0.0425962 0.0529490 -0.0016980 255 0 0
-0.0409244 0.0529491 -0.0016980 255 0 0
-0.0392525 0.0529491 -0.0016980 255 0 0
-0.0375807 0.0529491 -0.0016980 255 0 0
-0.0359088 0.0529491 -0.0016980 255 0 0
-0.0342369 0.0529491 -0.0016980 255 0 0
-0.0325651 0.0529491 -0.0016980 255 0 0
-0.0308932 0.0529491 -0.0016980 255 0 0
-0.0292213 0.0529491 -0.0016980 255 0 0
-0.0275495 0.0529491 -0.0016980 255 0 0
-0.0258776 0.0529491 -0.0016980 255 0 0
-0.0242057 0.0529491 -0.0016980 255 0 0
-0.0225339 0.0529491 -0.0016980 255 0 0
-0.0208620 0.0529491 -0.0016980 255 0 0
-0.0191902 0.0529491 -0.0016980 255 0 0
-0.0175183 0.0529491 -0.0016980 255 0 0
-0.0158464 0.0529491 -0.0016980 255 0 0
-0.0141746 0.0529491 -0.0016980 255 0 0
-0.0125027 0.0529491 -0.0016980 255 0 0
-0.0108308 0.0529491 -0.0016980 255 0 0
-0.0091590 0.0529491 -0.0016980 255 0 0
-0.0074871 0.0529491 -0.0016980 255 0 0
-0.0058153 0.0529491 -0.0016980 255 0 0
-0.0041434 0.0529491 -0.0016980 255 0 0
-0.0024715 0.0529491 -0.0016980 255 0 0
-0.0007997 0.0529491 -0.0016980 255 0 0
0.0008722 0.0529491 -0.0016980 255 0 0
0.0025441 0.0529491 -0.0016980 255 0 0
0.0042159 0.0529491 -0.0016980 255 0 0
0.0058878 0.0529491 -0.0016980 255 0 0
0.0075596 0.0529491 -0.0016980 255 0 0
0.0092315 0.0529491 -0.0016979 255 0 0
0.0109034 0.0529491 -0.0016979 255 0 0
0.0125752 0.0529491 -0.0016979 255 0 0
0.0142471 0.0529491 -0.0016979 255 0 0
0.0159190 0.0529491 -0.0016979 255 0 0
0.0175908 0.0529490 -0.0016979 255 0 0
0.0192627 0.0529489 -0.0016979 255 0 0
0.0209345 0.0529489 -0.0016978 255 0 0
0.0226064 0.0529489 -0.0016978 255 0 0
-0.0442681 0.0546209 -0.0016979 255 0 0
-0.0425962 0.0546209 -0.0016980 255 0 0
-0.0409244 0.0546209 -0.0016980 255 0 0
-0.0392525 0.0546209 -0.0016980 255 0 0
-0.0375807 0.0546209 -0.0016980 255 0 0
-0.0359088 0.0546209 -0.0016980 255 0 0
-0.0342369 0.0546209 -0.0016980 255 0 0
-0.0325651 0.0546209 -0.0016980 255 0 0
-0.0308932 0.0546209 -0.0016980 255 0 0
-0.0292213 0.0546209 -0.0016980 255 0 0
-0.0275495 0.0546209 -0.0016980 255 0 0
-0.0258776 0.0546209 -0.0016980 255 0 0
-0.0242057 0.0546209 -0.0016980 255 0 0
-0.0225339 0.0546209 -0.0016979 255 0 0
-0.0208620 0.0546209 -0.0016979 255 0 0
-0.0191902 0.0546208 -0.0016979 255 0 0
-0.0175183 0.0546208 -0.0016979 255 0 0
-0.0158464 0.0546208 -0.0016979 255 0 0
-0.0141746 0.0546208 -0.0016979 255 0 0
-0.0125027 0.0546208 -0.0016979 255 0 0
-0.0108308 0.0546208 -0.0016979 255 0 0
-0.0091590 0.0546208 -0.0016979 255 0 0
-0.0074871 0.0546208 -0.0016979 255 0 0
-0.0058153 0.0546208 -0.0016979 255 0 0
-0.0041434 0.0546208 -0.0016979 255 0 0
-0.0024715 0.0546208 -0.0016979 255 0 0
-0.0007997 0.0546208 -0.0016979 255 0 0
0.0008722 0.0546208 -0.0016979 255 0 0
0.0025441 0.0546208 -0.0016979 255 0 0
0.0042159 0.0546208 -0.0016979 255 0 0
0.0058878 0.0546208 -0.0016979 255 0 0
0.0075596 0.0546208 -0.0016979 255 0 0
0.0092315 0.0546208 -0.0016978 255 0 0
0.0109034 0.0546208 -0.0016978 255 0 0
0.0125752 0.0546208 -0.0016978 255 0 0
0.0142471 0.0546207 -0.0016978 255 0 0
0.0159190 0.0546207 -0.0016978 255 0 0
0.0175908 0.0546207 -0.0016978 255 0 0
0.0192627 0.0546207 -0.0016978 255 0 0
0.0209345 0.0546207 -0.0016977 255 0 0
0.0226064 0.0546207 -0.0016976 255 0 0
-0.0442681 0.0562927 -0.0016978 255 0 0
-0.0425962 0.0562927 -0.0016978 255 0 0
-0.0409244 0.0562927 -0.0016978 255 0 0
-0.0392525 0.0562927 -0.0016978 255 0 0
-0.0375807 0.0562927 -0.0016978 255 0 0
-0.0359088 0.0562927 -0.0016978 255 0 0
-0.0342369 0.0562927 -0.0016978 255 0 0
-0.0325651 0.0562927 -0.0016978 255 0 0
-0.0308932 0.0562927 -0.0016978 255 0 0
-0.0292213 0.0562927 -0.0016978 255 0 0
-0.0275495 0.0562927 -0.0016978 255 0 0
-0.0258776 0.0562927 -0.0016978 255 0 0
-0.0242057 0.0562927 -0.0016978 255 0 0
-0.0225339 0.0562927 -0.0016978 255 0 0
-0.0208620 0.0562927 -0.0016978 255 0 0
-0.0191902 0.0562927 -0.0016978 255 0 0
-0.0175183 0.0562926 -0.0016977 255 0 0
-0.0158464 0.0562926 -0.0016977 255 0 0
-0.0141746 0.0562926 -0.0016977 255 0 0
-0.0125027 0.0562926 -0.0016977 255 0 0
-0.0108308 0.0562926 -0.0016977 255 0 0
-0.0091590 0.0562926 -0.0016977 255 0 0
-0.0074871 0.0562926 -0.0016977 255 0 0
-0.0058153 0.0562926 -0.0016977 255 0 0
-0.0041434 0.0562926 -0.0016977 255 0 0
-0.0024715 0.0562926 -0.0016977 255 0 0
-0.0007997 0.0562926 -0.0016977 255 0 0
0.0008722 0.0562926 -0.0016977 255 0 0
0.0025441 0.0562926 -0.0016977 255 0 0
0.0042159 0.0562926 -0.0016976 255 0 0
0.0058878 0.0562926 -0.0016976 255 0 0
0.0075596 0.0562926 -0.0016976 255 0 0
0.0092315 0.0562926 -0.0016976 255 0 0
0.0109034 0.0562926 -0.0016976 255 0 0
0.0125752 0.0562926 -0.0016976 255 0 0
0.0142471 0.0562926 -0.0016976 255 0 0
0.0159190 0.0562926 -0.0016976 255 0 0
0.0175908 0.0562926 -0.0016975 255 0 0
0.0192627 0.0562926 -0.0016975 255 0 0
0.0209345 0.0562926 -0.0016974 255 0 0
0.0226064 0.0562925 -0.0016973 255 0 0
0.0242783 0.0562924 -0.0016972 255 0 0
-0.0442681 0.0579645 -0.0016977 255 0 0
-0.0425962 0.0579645 -0.0016977 255 0 0
-0.0409244 0.0579645 -0.0016977 255 0 0
-0.0392525 0.0579645 -0.0016977 255 0 0
-0.0375807 0.0579645 -0.0016977 255 0 0
-0.0359088 0.0579645 -0.0016977 255 0 0
-0.0342369 0.0579645 -0.0016977 255 0 0
-0.0325651 0.0579645 -0.0016977 255 0 0
-0.0308932 0.0579645 -0.0016977 255 0 0
-0.0292213 0.0579645 -0.0016977 255 0 0
-0.0275495 0.0579645 -0.0016976 255 0 0
-0.0258776 0.0579645 -0.0016976 255 0 0
-0.0242057 0.0579645 -0.0016976 255 0 0
-0.0225339 0.0579645 -0.0016976 255 0 0
-0.0208620 0.0579645 -0.0016976 255 0 0
-0.0191902 0.0579645 -0.0016976 255 0 0
-0.0175183 0.0579645 -0.0016976 255 0 0
-0.0158464 0.0579645 -0.0016976 255 0 0
-0.0141746 0.0579645 -0.0016975 255 0 0
-0.0125027 0.0579645 -0.0016975 255 0 0
-0.0108308 0.0579645 -0.0016975 255 0 0
-0.0091590 0.0579645 -0.0016975 255 0 0
-0.0074871 0.0579645 -0.0016975 255 0 0
-0.0058153 0.0579645 -0.0016975 255 0 0
-0.0041434 0.0579645 -0.0016975 255 0 0
-0.0024715 0.0579645 -0.0016975 255 0 0
-0.0007997 0.0579645 -0.0016974 255 0 0
0.0008722 0.0579644 -0.0016974 255 0 0
0.0025441 0.0579644 -0.0016974 255 0 0
0.0042159 0.0579644 -0.0016974 255 0 0
0.0058878 0.0579644 -0.0016974 255 0 0
0.0075596 0.0579644 -0.0016974 255 0 0
0.0092315 0.0579644 -0.0016974 255 0 0
0.0109034 0.0579644 -0.0016974 255 0 0
0.0125752 0.0579643 -0.0016974 255 0 0
0.0142471 0.0579643 -0.0016973 255 0 0
0.0159190 0.0579643 -0.0016973 255 0 0
0.0175908 0.0579643 -0.0016973 255 0 0
0.0192627 0.0579642 -0.0016972 255 0 0
0.0209345 0.0579641 -0.0016972 255 0 0
0.0226064 0.0579640 -0.0016971 255 0 0
0.0242783 0.0579639 -0.0016970 255 0 0
-0.0459400 0.0596361 -0.0016974 255 0 0
-0.0442681 0.0596361 -0.0016975 255 0 0
-0.0425962 0.0596361 -0.0016975 255 0 0
-0.0409244 0.0596361 -0.0016975 255 0 0
-0.0392525 0.0596361 -0.0016975 255 0 0
-0.0375807 0.0596361 -0.0016975 255 0 0
-0.0359088 0.0596361 -0.0016975 255 0 0
-0.0342369 0.0596361 -0.0016974 255 0 0
-0.0325651 0.0596361 -0.0016974 255 0 0
-0.0308932 0.0596361 -0.0016974 255 0 0
-0.0292213 0.0596360 -0.0016974 255 0 0
-0.0275495 0.0596360 -0.0016974 255 0 0
-0.0258776 0.0596360 -0.0016974 255 0 0
-0.0242057 0.0596360 -0.0016973 255 0 0
-0.0225339 0.0596360 -0.0016973 255 0 0
-0.0208620 0.0596360 -0.0016973 255 0 0
-0.0191902 0.0596360 -0.0016973 255 0 0
-0.0175183 0.0596360 -0.0016973 255 0 0
-0.0158464 0.0596360 -0.0016972 255 0 0
-0.0141746 0.0596360 -0.0016972 255 0 0
-0.0125027 0.0596359 -0.0016972 255 0 0
-0.0108308 0.0596359 -0.0016972 255 0 0
-0.0091590 0.0596359 -0.0016972 255 0 0
-0.0074871 0.0596359 -0.0016972 255 0 0
-0.0058153 0.0596359 -0.0016971 255 0 0
-0.0041434 0.0596359 -0.0016971 255 0 0
-0.0024715 0.0596359 -0.0016971 255 0 0
-0.0007997 0.0596359 -0.0016971 255 0 0
0.0008722 0.0596359 -0.0016971 255 0 0
0.0025441 0.0596359 -0.0016971 255 0 0
0.0042159 0.0596359 -0.0016971 255 0 0
0.0058878 0.0596359 -0.0016970 255 0 0
0.0075596 0.0596358 -0.0016970 255 0 0
0.0092315 0.0596358 -0.0016970 255 0 0
0.0109034 0.0596358 -0.0016970 255 0 0
0.0125752 0.0596358 -0.0016970 255 0 0
0.0142471 0.0596358 -0.0016970 255 0 0
0.0159190 0.0596358 -0.0016969 255 0 0
0.0175908 0.0596358 -0.0016969 255 0 0
0.0192627 0.0596358 -0.0016968 255 0 0
0.0209345 0.0596356 -0.0016967 255 0 0
0.0226064 0.0596356 -0.0016966 255 0 0
0.0242783 0.0596355 -0.0016965 255 0 0
0.0259501 0.0596355 -0.0016964 255 0 0
-0.0459400 0.0613078 -0.0016971 255 0 0
-0.0442681 0.0613078 -0.0016971 255 0 0
-0.0425962 0.0613078 -0.0016971 255 0 0
-0.0409244 0.0613078 -0.0016971 255 0 0
-0.0392525 0.0613078 -0.0016971 255 0 0
-0.0375807 0.0613078 -0.0016971 255 0 0
-0.0359088 0.0613077 -0.0016971 255 0 0
-0.0342369 0.0613077 -0.0016970 255 0 0
-0.0325651 0.0613077 -0.0016970 255 0 0
-0.0308932 0.0613077 -0.0016970 255 0 0
-0.0292213 0.0613077 -0.0016970 255 0 0
-0.0275495 0.0613077 -0.0016969 255 0 0
-0.0258776 0.0613077 -0.0016969 255 0 0
-0.0242057 0.0613077 -0.0016969 255 0 0
-0.0225339 0.0613076 -0.0016969 255 0 0
-0.0208620 0.0613076 -0.0016968 255 0 0
-0.0191902 0.0613076 -0.0016968 255 0 0
-0.0175183 0.0613076 -0.0016968 255 0 0
-0.0158464 0.0613076 -0.0016967 255 0 0
-0.0141746 0.0613076 -0.0016967 255 0 0
-0.0125027 0.0613075 -0.0016967 255 0 0
-0.0108308 0.0613075 -0.0016967 255 0 0
-0.0091590 0.0613075 -0.0016966 255 0 0
-0.0074871 0.0613075 -0.0016966 255 0 0
-0.0058153 0.0613075 -0.0016966 255 0 0
-0.0041434 0.0613075 -0.0016966 255 0 0
-0.0024715 0.0613075 -0.0016966 255 0 0
-0.0007997 0.0613075 -0.0016965 255 0 0
0.0008722 0.0613074 -0.0016965 255 0 0
0.0025440 0.0613074 -0.0016965 255 0 0
0.0042159 0.0613074 -0.0016965 255 0 0
0.0058878 0.0613074 -0.0016965 255 0 0
0.0075596 0.0613074 -0.0016964 255 0 0
0.0092315 0.0613074 -0.0016964 255 0 0
0.0109034 0.0613074 -0.0016964 255 0 0
0.0125752 0.0613074 -0.0016964 255 0 0
0.0142471 0.0613074 -0.0016963 255 0 0
0.0159190 0.0613073 -0.0016963 255 0 0
0.0175908 0.0613073 -0.0016963 255 0 0
0.0192627 0.0613072 -0.0016962 255 0 0
0.0209345 0.0613071 -0.0016961 255 0 0
0.0226064 0.0613071 -0.0016960 255 0 0
0.0242783 0.0613068 -0.0016958 255 0 0
0.0259501 0.0613067 -0.0016956 255 0 0
-0.0459400 0.0629967 -0.0016967 255 0 0
-0.0442681 0.0629967 -0.0016967 255 0 0
-0.0425962 0.0629967 -0.0016967 255 0 0
-0.0409244 0.0629967 -0.0016967 255 0 0
-0.0392525 0.0629967 -0.0016967 255 0 0
-0.0375807 0.0629967 -0.0016967 255 0 0
-0.0359088 0.0629966 -0.0016966 255 0 0
-0.0342369 0.0629966 -0.0016966 255 0 0
-0.0325651 0.0629966 -0.0016966 255 0 0
-0.0308932 0.0629966 -0.0016966 255 0 0
-0.0292213 0.0629965 -0.0016965 255 0 0
-0.0275495 0.0629965 -0.0016965 255 0 0
-0.0258776 0.0629965 -0.0016964 255 0 0
-0.0242057 0.0629964 -0.0016964 255 0 0
-0.0225339 0.0629964 -0.0016964 255 0 0
-0.0208620 0.0629964 -0.0016963 255 0 0
-0.0191902 0.0629964 -0.0016963 255 0 0
-0.0175183 0.0629963 -0.0016963 255 0 0
-0.0158464 0.0629963 -0.0016962 255 0 0
-0.0141746 0.0629963 -0.0016962 255 0 0
-0.0125027 0.0629962 -0.0016962 255 0 0
-0.0108308 0.0629962 -0.0016961 255 0 0
-0.0091590 0.0629962 -0.0016961 255 0 0
-0.0074871 0.0629962 -0.0016961 255 0 0
-0.0058153 0.0629961 -0.0016961 255 0 0
-0.0041434 0.0629961 -0.0016960 255 0 0
-0.0024715 0.0629961 -0.0016960 255 0 0
-0.0007997 0.0629961 -0.0016960 255 0 0
0.0008722 0.0629960 -0.0016960 255 0 0
0.0025440 0.0629960 -0.0016959 255 0 0
0.0042159 0.0629960 -0.0016959 255 0 0
0.0058878 0.0629960 -0.0016959 255 0 0
0.0075596 0.0629959 -0.0016959 255 0 0
0.0092315 0.0629959 -0.0016958 255 0 0
0.0109034 0.0629959 -0.0016958 255 0 0
0.0125752 0.0629959 -0.0016958 255 0 0
0.0142471 0.0629959 -0.0016957 255 0 0
0.0159190 0.0629958 -0.0016957 255 0 0
0.0175908 0.0629958 -0.0016956 255 0 0
0.0192627 0.0629958 -0.0016955 255 0 0
0.0209345 0.0629957 -0.0016954 255 0 0
0.0226064 0.0629957 -0.0016953 255 0 0
0.0242783 0.0629955 -0.0016950 255 0 0
0.0259501 0.0629951 -0.0016947 255 0 0
0.0276220 0.0629947 -0.0016946 255 0 0
-0.0459400 0.0646677 -0.0016961 255 0 0
-0.0442681 0.0646677 -0.0016961 255 0 0
-0.0425962 0.0646677 -0.0016961 255 0 0
-0.0409244 0.0646677 -0.0016961 255 0 0
-0.0392525 0.0646677 -0.0016960 255 0 0
-0.0375807 0.0646679 -0.0016960 255 0 0
-0.0359088 0.0646679 -0.0016960 255 0 0
-0.0342369 0.0646679 -0.0016959 255 0 0
-0.0325651 0.0646679 -0.0016959 255 0 0
-0.0308932 0.0646678 -0.0016959 255 0 0
-0.0292213 0.0646678 -0.0016958 255 0 0
-0.0275495 0.0646678 -0.0016958 255 0 0
-0.0258776 0.0646677 -0.0016957 255 0 0
-0.0242057 0.0646677 -0.0016957 255 0 0
-0.0225339 0.0646677 -0.0016957 255 0 0
-0.0208620 0.0646677 -0.0016956 255 0 0
-0.0191902 0.0646676 -0.0016956 255 0 0
-0.0175183 0.0646676 -0.0016955 255 0 0
-0.0158464 0.0646676 -0.0016955 255 0 0
-0.0141746 0.0646675 -0.0016955 255 0 0
-0.0125027 0.0646675 -0.0016954 255 0 0
-0.0108308 0.0646675 -0.0016954 255 0 0
-0.0091590 0.0646675 -0.0016953 255 0 0
-0.0074871 0.0646674 -0.0016953 255 0 0
-0.0058153 0.0646674 -0.0016953 255 0 0
-0.0041434 0.0646674 -0.0016952 255 0 0
-0.0024715 0.0646674 -0.0016952 255 0 0
-0.0007997 0.0646674 -0.0016952 255 0 0
0.0008722 0.0646673 -0.0016951 255 0 0
0.0025440 0.0646673 -0.0016951 255 0 0
0.0042159 0.0646673 -0.0016951 255 0 0
0.0058878 0.0646673 -0.0016950 255 0 0
0.0075596 0.0646672 -0.0016950 255 0 0
0.0092315 0.0646672 -0.0016950 255 0 0
0.0109034 0.0646672 -0.0016950 255 0 0
0.0125752 0.0646670 -0.0016949 255 0 0
0.0142471 0.0646669 -0.0016949 255 0 0
0.0159190 0.0646669 -0.0016948 255 0 0
0.0175908 0.0646668 -0.0016947 255 0 0
0.0192627 0.0646668 -0.0016946 255 0 0
0.0209345 0.0646667 -0.0016945 255 0 0
0.0226064 0.0646662 -0.0016943 255 0 0
0.0242783 0.0646660 -0.0016939 255 0 0
0.0259501 0.0646659 -0.0016935 255 0 0
0.0276220 0.0646658 -0.0016934 255 0 0
-0.0459400 0.0663389 -0.0016951 255 0 0
-0.0442681 0.0663389 -0.0016951 255 0 0
-0.0425962 0.0663389 -0.0016951 255 0 0
-0.0409244 0.0663389 -0.0016951 255 0 0
-0.0392525 0.0663389 -0.0016950 255 0 0
-0.0375807 0.0663388 -0.0016950 255 0 0
-0.0359088 0.0663388 -0.0016949 255 0 0
-0.0342369 0.0663388 -0.0016948 255 0 0
-0.0325651 0.0663388 -0.0016948 255 0 0
-0.0308932 0.0663387 -0.0016947 255 0 0
-0.0292213 0.0663387 -0.0016946 255 0 0
-0.0275495 0.0663386 -0.0016946 255 0 0
-0.0258776 0.0663386 -0.0016945 255 0 0
-0.0242057 0.0663385 -0.0016945 255 0 0
-0.0225339 0.0663385 -0.0016944 255 0 0
-0.0208620 0.0663385 -0.0016943 255 0 0
-0.0191902 0.0663384 -0.0016942 255 0 0
-0.0175183 0.0663384 -0.0016942 255 0 0
-0.0158464 0.0663384 -0.0016941 255 0 0
-0.0141746 0.0663383 -0.0016941 255 0 0
-0.0125027 0.0663383 -0.0016940 255 0 0
-0.0108308 0.0663382 -0.0016939 255 0 0
-0.0091590 0.0663382 -0.0016939 255 0 0
-0.0074871 0.0663382 -0.0016938 255 0 0
-0.0058153 0.0663381 -0.0016938 255 0 0
-0.0041434 0.0663381 -0.0016937 255 0 0
-0.0024716 0.0663381 -0.0016937 255 0 0
-0.0007997 0.0663380 -0.0016936 255 0 0
0.0008722 0.0663380 -0.0016936 255 0 0
0.0025440 0.0663380 -0.0016936 255 0 0
0.0042159 0.0663379 -0.0016935 255 0 0
0.0058878 0.0663378 -0.0016934 255 0 0
0.0075596 0.0663378 -0.0016934 255 0 0
0.0092315 0.0663377 -0.0016934 255 0 0
0.0109034 0.0663376 -0.0016933 255 0 0
0.0125752 0.0663376 -0.0016933 255 0 0
0.0142471 0.0663375 -0.0016932 255 0 0
0.0159190 0.0663375 -0.0016931 255 0 0
0.0175908 0.0663374 -0.0016930 255 0 0
0.0192627 0.0663373 -0.0016929 255 0 0
0.0209345 0.0663372 -0.0016927 255 0 0
0.0226064 0.0663370 -0.0016925 255 0 0
0.0242783 0.0663368 -0.0016921 255 0 0
0.0259501 0.0663361 -0.0016916 255 0 0
0.0276220 0.0663358 -0.0016914 255 0 0
-0.0459400 0.0680095 -0.0016939 255 0 0
-0.0442681 0.0680095 -0.0016939 255 0 0
-0.0425962 0.0680095 -0.0016938 255 0 0
-0.0409244 0.0680094 -0.0016938 255 0 0
-0.0392525 0.0680094 -0.0016937 255 0 0
-0.0375807 0.0680094 -0.0016936 255 0 0
-0.0359088 0.0680093 -0.0016936 255 0 0
-0.0342369 0.0680093 -0.0016935 255 0 0
-0.0325651 0.0680092 -0.0016934 255 0 0
-0.0308932 0.0680092 -0.0016933 255 0 0
-0.0292213 0.0680091 -0.0016932 255 0 0
-0.0275495 0.0680090 -0.0016931 255 0 0
-0.0258776 0.0680089 -0.0016931 255 0 0
-0.0242057 0.0680089 -0.0016930 255 0 0
-0.0225339 0.0680088 -0.0016929 255 0 0
-0.0208620 0.0680088 -0.0016928 255 0 0
-0.0191902 0.0680087 -0.0016927 255 0 0
-0.0175183 0.0680086 -0.0016926 255 0 0
-0.0158464 0.0680086 -0.0016926 255 0 0
-0.0141746 0.0680086 -0.0016925 255 0 0
-0.0125027 0.0680085 -0.0016924 255 0 0
-0.0108309 0.0680084 -0.0016923 255 0 0
-0.0091590 0.0680084 -0.0016922 255 0 0
-0.0074871 0.0680083 -0.0016922 255 0 0
-0.0058153 0.0680083 -0.0016921 255 0 0
-0.0041434 0.0680082 -0.0016920 255 0 0
-0.0024716 0.0680082 -0.0016920 255 0 0
-0.0007997 0.0680081 -0.0016919 255 0 0
0.0008721 0.0680081 -0.0016918 255 0 0
0.0025440 0.0680081 -0.0016918 255 0 0
0.0042159 0.0680080 -0.0016917 255 0 0
0.0058878 0.0680079 -0.0016917 255 0 0
0.0075596 0.0680079 -0.0016916 255 0 0
0.0092315 0.0680079 -0.0016916 255 0 0
0.0109034 0.0680078 -0.0016915 255 0 0
0.0125752 0.0680078 -0.0016914 255 0 0
0.0142471 0.0680077 -0.0016913 255 0 0
0.0159190 0.0680077 -0.0016912 255 0 0
0.0175908 0.0680076 -0.0016911 255 0 0
0.0192627 0.0680076 -0.0016910 255 0 0
0.0209345 0.0680075 -0.0016908 255 0 0
0.0226064 0.0680074 -0.0016905 255 0 0
0.0242783 0.0680069 -0.0016900 255 0 0
0.0259501 0.0680067 -0.0016894 255 0 0
0.0276220 0.0680065 -0.0016891 255 0 0
-0.0459400 0.0696804 -0.0016922 255 0 0
-0.0442681 0.0696804 -0.0016922 255 0 0
-0.0425962 0.0696804 -0.0016922 255 0 0
-0.0409244 0.0696803 -0.0016921 255 0 0
-0.0392525 0.0696803 -0.0016920 255 0 0
-0.0375807 0.0696802 -0.0016919 255 0 0
-0.0359088 0.0696802 -0.0016918 255 0 0
-0.0342369 0.0696801 -0.0016917 255 0 0
-0.0325651 0.0696801 -0.0016916 255 0 0
-0.0308932 0.0696800 -0.0016915 255 0 0
-0.0292213 0.0696799 -0.0016914 255 0 0
-0.0275495 0.0696798 -0.0016913 255 0 0
-0.0258776 0.0696797 -0.0016912 255 0 0
-0.0242057 0.0696797 -0.0016911 255 0 0
-0.0225339 0.0696796 -0.0016910 255 0 0
-0.0208620 0.0696795 -0.0016909 255 0 0
-0.0191902 0.0696795 -0.0016907 255 0 0
-0.0175183 0.0696794 -0.0016906 255 0 0
-0.0158464 0.0696793 -0.0016906 255 0 0
-0.0141746 0.0696793 -0.0016905 255 0 0
-0.0125027 0.0696792 -0.0016904 255 0 0
-0.0108309 0.0696792 -0.0016903 255 0 0
-0.0091590 0.0696791 -0.0016902 255 0 0
-0.0074872 0.0696790 -0.0016901 255 0 0
-0.0058153 0.0696790 -0.0016900 255 0 0
-0.0041435 0.0696789 -0.0016899 255 0 0
-0.0024716 0.0696789 -0.0016898 255 0 0
-0.0007997 0.0696788 -0.0016898 255 0 0
0.0008721 0.0696788 -0.0016897 255 0 0
0.0025440 0.0696788 -0.0016896 255 0 0
