ply
format ascii 1.0
element vertex 1232
property float x
property float y
property float z
property uchar red
property uchar green
property uchar blue
end_header
-0.0024717 0.0495722 0.0384539 255 0 0
-0.0007997 0.0495717 0.0384547 255 0 0
0.0008723 0.0495714 0.0384557 255 0 0
0.0025444 0.0495709 0.0384576 255 0 0
0.0042166 0.0495697 0.0384599 255 0 0
0.0058885 0.0495679 0.0384634 255 0 0
0.0075604 0.0495659 0.0384684 255 0 0
-0.0392525 0.0512394 0.0384674 255 0 0
-0.0375807 0.0512407 0.0384620 255 0 0
-0.0359088 0.0512422 0.0384589 255 0 0
-0.0342369 0.0512432 0.0384565 255 0 0
-0.0325651 0.0512440 0.0384558 255 0 0
-0.0308932 0.0512441 0.0384547 255 0 0
-0.0292213 0.0512446 0.0384543 255 0 0
-0.0275495 0.0512447 0.0384539 255 0 0
-0.0258776 0.0512447 0.0384535 255 0 0
-0.0242057 0.0512447 0.0384533 255 0 0
-0.0225339 0.0512447 0.0384532 255 0 0
-0.0208620 0.0512447 0.0384531 255 0 0
-0.0191902 0.0512448 0.0384530 255 0 0
-0.0175183 0.0512448 0.0384529 255 0 0
-0.0158464 0.0512448 0.0384529 255 0 0
-0.0141746 0.0512448 0.0384530 255 0 0
-0.0125027 0.0512448 0.0384531 255 0 0
-0.0108308 0.0512447 0.0384532 255 0 0
-0.0091590 0.0512447 0.0384534 255 0 0
-0.0074873 0.0512446 0.0384535 255 0 0
-0.0058154 0.0512446 0.0384538 255 0 0
-0.0041435 0.0512446 0.0384542 255 0 0
-0.0024717 0.0512445 0.0384545 255 0 0
-0.0007997 0.0512441 0.0384551 255 0 0
0.0008723 0.0512435 0.0384560 255 0 0
0.0025444 0.0512426 0.0384576 255 0 0
0.0042159 0.0512417 0.0384593 255 0 0
0.0058885 0.0512406 0.0384624 255 0 0
0.0075604 0.0512387 0.0384669 255 0 0
0.0092333 0.0512370 0.0384760 255 0 0
-0.0392525 0.0529120 0.0384665 255 0 0
-0.0375807 0.0529140 0.0384620 255 0 0
-0.0359088 0.0529153 0.0384590 255 0 0
-0.0342369 0.0529156 0.0384568 255 0 0
-0.0325651 0.0529159 0.0384558 255 0 0
-0.0308932 0.0529162 0.0384550 255 0 0
-0.0292213 0.0529164 0.0384545 255 0 0
-0.0275495 0.0529165 0.0384541 255 0 0
-0.0258776 0.0529165 0.0384537 255 0 0
-0.0242057 0.0529165 0.0384536 255 0 0
-0.0225339 0.0529166 0.0384535 255 0 0
-0.0208620 0.0529167 0.0384535 255 0 0
-0.0191902 0.0529167 0.0384534 255 0 0
-0.0175183 0.0529167 0.0384534 255 0 0
-0.0158464 0.0529167 0.0384534 255 0 0
-0.0141746 0.0529167 0.0384534 255 0 0
-0.0125027 0.0529167 0.0384535 255 0 0
-0.0108308 0.0529166 0.0384535 255 0 0
-0.0091590 0.0529166 0.0384536 255 0 0
-0.0074873 0.0529165 0.0384537 255 0 0
-0.0058154 0.0529164 0.0384539 255 0 0
-0.0041435 0.0529163 0.0384541 255 0 0
-0.0024717 0.0529163 0.0384546 255 0 0
-0.0007997 0.0529162 0.0384551 255 0 0
0.0008723 0.0529160 0.0384558 255 0 0
0.0025444 0.0529153 0.0384576 255 0 0
0.0042159 0.0529145 0.0384588 255 0 0
0.0058885 0.0529135 0.0384619 255 0 0
0.0075604 0.0529118 0.0384658 255 0 0
0.0092333 0.0529100 0.0384748 255 0 0
-0.0392525 0.0545845 0.0384656 255 0 0
-0.0375807 0.0545863 0.0384611 255 0 0
-0.0359088 0.0545875 0.0384581 255 0 0
-0.0342369 0.0545887 0.0384562 255 0 0
-0.0325651 0.0545892 0.0384556 255 0 0
-0.0308932 0.0545893 0.0384550 255 0 0
-0.0292213 0.0545894 0.0384541 255 0 0
-0.0275495 0.0545895 0.0384537 255 0 0
-0.0258776 0.0545896 0.0384534 255 0 0
-0.0242057 0.0545896 0.0384533 255 0 0
-0.0225339 0.0545896 0.0384533 255 0 0
-0.0208620 0.0545896 0.0384532 255 0 0
-0.0191902 0.0545896 0.0384531 255 0 0
-0.0175183 0.0545896 0.0384531 255 0 0
-0.0158464 0.0545896 0.0384531 255 0 0
-0.0141746 0.0545896 0.0384531 255 0 0
-0.0125027 0.0545896 0.0384532 255 0 0
-0.0108308 0.0545896 0.0384532 255 0 0
-0.0091590 0.0545896 0.0384533 255 0 0
-0.0074872 0.0545896 0.0384534 255 0 0
-0.0058154 0.0545896 0.0384536 255 0 0
-0.0041435 0.0545895 0.0384537 255 0 0
-0.0024717 0.0545893 0.0384539 255 0 0
-0.0007997 0.0545893 0.0384545 255 0 0
0.0008723 0.0545892 0.0384555 255 0 0
0.0025444 0.0545883 0.0384567 255 0 0
0.0042159 0.0545876 0.0384580 255 0 0
0.0058878 0.0545866 0.0384603 255 0 0
0.0075605 0.0545846 0.0384640 255 0 0
0.0092332 0.0545830 0.0384689 255 0 0
-0.0392525 0.0562582 0.0384643 255 0 0
-0.0375807 0.0562590 0.0384601 255 0 0
-0.0359088 0.0562601 0.0384573 255 0 0
-0.0342369 0.0562612 0.0384552 255 0 0
-0.0325651 0.0562614 0.0384546 255 0 0
-0.0308932 0.0562615 0.0384542 255 0 0
-0.0292213 0.0562618 0.0384535 255 0 0
-0.0275495 0.0562619 0.0384528 255 0 0
-0.0258776 0.0562620 0.0384526 255 0 0
-0.0242057 0.0562620 0.0384525 255 0 0
-0.0225339 0.0562621 0.0384525 255 0 0
-0.0208620 0.0562621 0.0384524 255 0 0
-0.0191902 0.0562621 0.0384524 255 0 0
-0.0175183 0.0562622 0.0384523 255 0 0
-0.0158464 0.0562622 0.0384523 255 0 0
-0.0141746 0.0562622 0.0384524 255 0 0
-0.0125027 0.0562622 0.0384524 255 0 0
-0.0108308 0.0562622 0.0384524 255 0 0
-0.0091590 0.0562621 0.0384525 255 0 0
-0.0074872 0.0562620 0.0384525 255 0 0
-0.0058153 0.0562619 0.0384527 255 0 0
-0.0041435 0.0562618 0.0384528 255 0 0
-0.0024716 0.0562617 0.0384531 255 0 0
-0.0007998 0.0562615 0.0384538 255 0 0
0.0008722 0.0562614 0.0384544 255 0 0
0.0025444 0.0562612 0.0384553 255 0 0
0.0042159 0.0562609 0.0384566 255 0 0
0.0058878 0.0562593 0.0384590 255 0 0
0.0075605 0.0562582 0.0384618 255 0 0
0.0092318 0.0562572 0.0384661 255 0 0
0.0109052 0.0562567 0.0384681 255 0 0
-0.0392525 0.0579297 0.0384690 255 0 0
-0.0375807 0.0579310 0.0384638 255 0 0
-0.0359088 0.0579326 0.0384599 255 0 0
-0.0342369 0.0579334 0.0384576 255 0 0
-0.0325651 0.0579336 0.0384570 255 0 0
-0.0308932 0.0579338 0.0384560 255 0 0
-0.0292213 0.0579337 0.0384555 255 0 0
-0.0275495 0.0579338 0.0384552 255 0 0
-0.0258776 0.0579338 0.0384550 255 0 0
-0.0242057 0.0579338 0.0384549 255 0 0
-0.0225339 0.0579338 0.0384548 255 0 0
-0.0208620 0.0579338 0.0384547 255 0 0
-0.0191902 0.0579338 0.0384546 255 0 0
-0.0175183 0.0579338 0.0384546 255 0 0
-0.0158464 0.0579338 0.0384546 255 0 0
-0.0141746 0.0579338 0.0384546 255 0 0
-0.0125027 0.0579338 0.0384546 255 0 0
-0.0108308 0.0579338 0.0384546 255 0 0
-0.0091590 0.0579338 0.0384547 255 0 0
-0.0074872 0.0579338 0.0384548 255 0 0
-0.0058153 0.0579338 0.0384550 255 0 0
-0.0041435 0.0579338 0.0384551 255 0 0
-0.0024716 0.0579338 0.0384553 255 0 0
-0.0007998 0.0579338 0.0384556 255 0 0
0.0008722 0.0579338 0.0384560 255 0 0
0.0025444 0.0579332 0.0384574 255 0 0
0.0042159 0.0579327 0.0384584 255 0 0
0.0058878 0.0579323 0.0384606 255 0 0
0.0075604 0.0579305 0.0384645 255 0 0
0.0092317 0.0579294 0.0384686 255 0 0
0.0109052 0.0579290 0.0384712 255 0 0
-0.0392525 0.0596018 0.0384731 255 0 0
-0.0375807 0.0596029 0.0384666 255 0 0
-0.0359088 0.0596045 0.0384624 255 0 0
-0.0342369 0.0596056 0.0384597 255 0 0
-0.0325651 0.0596061 0.0384590 255 0 0
-0.0308932 0.0596061 0.0384583 255 0 0
-0.0292213 0.0596061 0.0384573 255 0 0
-0.0275495 0.0596061 0.0384569 255 0 0
-0.0258776 0.0596061 0.0384566 255 0 0
-0.0242057 0.0596062 0.0384565 255 0 0
-0.0225339 0.0596062 0.0384563 255 0 0
-0.0208620 0.0596062 0.0384561 255 0 0
-0.0191902 0.0596062 0.0384561 255 0 0
-0.0175183 0.0596062 0.0384560 255 0 0
-0.0158464 0.0596062 0.0384560 255 0 0
-0.0141746 0.0596062 0.0384560 255 0 0
-0.0125027 0.0596062 0.0384560 255 0 0
-0.0108308 0.0596062 0.0384561 255 0 0
-0.0091590 0.0596062 0.0384562 255 0 0
-0.0074872 0.0596062 0.0384562 255 0 0
-0.0058154 0.0596062 0.0384565 255 0 0
-0.0041435 0.0596063 0.0384568 255 0 0
-0.0024716 0.0596063 0.0384570 255 0 0
-0.0007998 0.0596063 0.0384574 255 0 0
0.0008722 0.0596061 0.0384581 255 0 0
0.0025444 0.0596061 0.0384593 255 0 0
0.0042159 0.0596051 0.0384601 255 0 0
0.0058878 0.0596045 0.0384622 255 0 0
0.0075603 0.0596032 0.0384659 255 0 0
0.0092317 0.0596021 0.0384703 255 0 0
0.0109053 0.0596017 0.0384734 255 0 0
-0.0392525 0.0612746 0.0384800 255 0 0
-0.0375807 0.0612767 0.0384696 255 0 0
-0.0359088 0.0612771 0.0384650 255 0 0
-0.0342369 0.0612780 0.0384617 255 0 0
-0.0325651 0.0612781 0.0384605 255 0 0
-0.0308932 0.0612783 0.0384597 255 0 0
-0.0292213 0.0612785 0.0384589 255 0 0
-0.0275495 0.0612786 0.0384577 255 0 0
-0.0258776 0.0612786 0.0384573 255 0 0
-0.0242057 0.0612787 0.0384572 255 0 0
-0.0225339 0.0612787 0.0384571 255 0 0
-0.0208620 0.0612787 0.0384569 255 0 0
-0.0191902 0.0612787 0.0384569 255 0 0
-0.0175183 0.0612788 0.0384569 255 0 0
-0.0158464 0.0612788 0.0384568 255 0 0
-0.0141746 0.0612788 0.0384568 255 0 0
-0.0125027 0.0612788 0.0384568 255 0 0
-0.0108308 0.0612788 0.0384569 255 0 0
-0.0091590 0.0612788 0.0384570 255 0 0
-0.0074872 0.0612788 0.0384571 255 0 0
-0.0058153 0.0612788 0.0384573 255 0 0
-0.0041435 0.0612788 0.0384574 255 0 0
-0.0024716 0.0612787 0.0384576 255 0 0
-0.0007998 0.0612787 0.0384583 255 0 0
0.0008722 0.0612786 0.0384593 255 0 0
0.0025444 0.0612784 0.0384606 255 0 0
0.0042159 0.0612779 0.0384617 255 0 0
0.0058878 0.0612772 0.0384640 255 0 0
0.0075598 0.0612769 0.0384677 255 0 0
0.0092317 0.0612756 0.0384722 255 0 0
0.0109053 0.0612752 0.0384759 255 0 0
-0.0392525 0.0629840 0.0384801 255 0 0
-0.0375807 0.0629839 0.0384699 255 0 0
-0.0359088 0.0629844 0.0384650 255 0 0
-0.0342369 0.0629861 0.0384620 255 0 0
-0.0325651 0.0629863 0.0384606 255 0 0
-0.0308932 0.0629869 0.0384595 255 0 0
-0.0292213 0.0629873 0.0384586 255 0 0
-0.0275495 0.0629876 0.0384581 255 0 0
-0.0258776 0.0629874 0.0384575 255 0 0
-0.0242057 0.0629874 0.0384573 255 0 0
-0.0225339 0.0629874 0.0384572 255 0 0
-0.0208620 0.0629874 0.0384572 255 0 0
-0.0191902 0.0629874 0.0384571 255 0 0
-0.0175183 0.0629874 0.0384571 255 0 0
-0.0158464 0.0629874 0.0384571 255 0 0
-0.0141746 0.0629874 0.0384571 255 0 0
-0.0125027 0.0629874 0.0384571 255 0 0
-0.0108308 0.0629873 0.0384571 255 0 0
-0.0091590 0.0629872 0.0384572 255 0 0
-0.0074872 0.0629872 0.0384572 255 0 0
-0.0058153 0.0629871 0.0384574 255 0 0
-0.0041435 0.0629870 0.0384575 255 0 0
-0.0024716 0.0629869 0.0384580 255 0 0
-0.0007998 0.0629868 0.0384585 255 0 0
0.0008722 0.0629866 0.0384589 255 0 0
0.0025444 0.0629856 0.0384603 255 0 0
0.0042159 0.0629858 0.0384617 255 0 0
0.0058878 0.0629849 0.0384638 255 0 0
0.0075600 0.0629843 0.0384675 255 0 0
0.0092318 0.0629848 0.0384723 255 0 0
0.0109053 0.0629849 0.0384757 255 0 0
-0.0375807 0.0646577 0.0384688 255 0 0
-0.0359088 0.0646575 0.0384645 255 0 0
-0.0342369 0.0646589 0.0384620 255 0 0
-0.0325651 0.0646596 0.0384602 255 0 0
-0.0308932 0.0646601 0.0384593 255 0 0
-0.0292213 0.0646608 0.0384584 255 0 0
-0.0275495 0.0646609 0.0384574 255 0 0
-0.0258776 0.0646609 0.0384567 255 0 0
-0.0242057 0.0646609 0.0384566 255 0 0
-0.0225339 0.0646610 0.0384565 255 0 0
-0.0208620 0.0646610 0.0384563 255 0 0
-0.0191902 0.0646610 0.0384563 255 0 0
-0.0175183 0.0646609 0.0384562 255 0 0
-0.0158464 0.0646609 0.0384562 255 0 0
-0.0141746 0.0646609 0.0384563 255 0 0
-0.0125027 0.0646610 0.0384563 255 0 0
-0.0108308 0.0646610 0.0384563 255 0 0
-0.0091590 0.0646610 0.0384563 255 0 0
-0.0074872 0.0646610 0.0384564 255 0 0
-0.0058153 0.0646610 0.0384565 255 0 0
-0.0041435 0.0646610 0.0384567 255 0 0
-0.0024716 0.0646609 0.0384570 255 0 0
-0.0007997 0.0646609 0.0384579 255 0 0
0.0008723 0.0646605 0.0384588 255 0 0
0.0025444 0.0646594 0.0384600 255 0 0
0.0042159 0.0646586 0.0384615 255 0 0
0.0058879 0.0646578 0.0384635 255 0 0
0.0075604 0.0646578 0.0384672 255 0 0
0.0092318 0.0646579 0.0384721 255 0 0
0.0109053 0.0646574 0.0384756 255 0 0
-0.0375807 0.0663315 0.0384834 255 0 0
-0.0359088 0.0663311 0.0384723 255 0 0
-0.0342369 0.0663315 0.0384664 255 0 0
-0.0325651 0.0663321 0.0384641 255 0 0
-0.0308932 0.0663321 0.0384625 255 0 0
-0.0292213 0.0663323 0.0384611 255 0 0
-0.0275495 0.0663325 0.0384601 255 0 0
-0.0258776 0.0663327 0.0384597 255 0 0
-0.0242057 0.0663329 0.0384595 255 0 0
-0.0225339 0.0663329 0.0384593 255 0 0
-0.0208620 0.0663329 0.0384591 255 0 0
-0.0191902 0.0663328 0.0384590 255 0 0
-0.0175183 0.0663328 0.0384590 255 0 0
-0.0158464 0.0663328 0.0384590 255 0 0
-0.0141745 0.0663328 0.0384590 255 0 0
-0.0125027 0.0663327 0.0384590 255 0 0
-0.0108308 0.0663326 0.0384590 255 0 0
-0.0091590 0.0663326 0.0384591 255 0 0
-0.0074872 0.0663326 0.0384591 255 0 0
-0.0058153 0.0663325 0.0384593 255 0 0
-0.0041434 0.0663325 0.0384596 255 0 0
-0.0024716 0.0663323 0.0384598 255 0 0
-0.0007997 0.0663322 0.0384604 255 0 0
0.0008723 0.0663320 0.0384612 255 0 0
0.0025444 0.0663316 0.0384630 255 0 0
0.0042160 0.0663320 0.0384647 255 0 0
0.0058879 0.0663313 0.0384676 255 0 0
0.0075604 0.0663308 0.0384722 255 0 0
0.0092319 0.0663320 0.0384782 255 0 0
0.0109054 0.0663322 0.0384846 255 0 0
-0.0359088 0.0680052 0.0384810 255 0 0
-0.0342369 0.0680047 0.0384709 255 0 0
-0.0325651 0.0680047 0.0384679 255 0 0
-0.0308932 0.0680050 0.0384653 255 0 0
-0.0292213 0.0680054 0.0384639 255 0 0
-0.0275495 0.0680054 0.0384626 255 0 0
-0.0258776 0.0680054 0.0384619 255 0 0
-0.0242057 0.0680055 0.0384616 255 0 0
-0.0225339 0.0680056 0.0384613 255 0 0
-0.0208620 0.0680056 0.0384611 255 0 0
-0.0191902 0.0680056 0.0384610 255 0 0
-0.0175183 0.0680056 0.0384609 255 0 0
-0.0158464 0.0680056 0.0384609 255 0 0
-0.0141745 0.0680055 0.0384609 255 0 0
-0.0125027 0.0680055 0.0384609 255 0 0
-0.0108308 0.0680055 0.0384609 255 0 0
-0.0091589 0.0680054 0.0384610 255 0 0
-0.0074872 0.0680054 0.0384612 255 0 0
-0.0058153 0.0680052 0.0384614 255 0 0
-0.0041434 0.0680052 0.0384616 255 0 0
-0.0024716 0.0680051 0.0384622 255 0 0
-0.0007997 0.0680050 0.0384629 255 0 0
0.0008723 0.0680051 0.0384638 255 0 0
0.0025444 0.0680046 0.0384656 255 0 0
0.0042160 0.0680045 0.0384675 255 0 0
0.0058879 0.0680044 0.0384706 255 0 0
0.0075604 0.0680055 0.0384760 255 0 0
0.0092330 0.0680042 0.0384854 255 0 0
0.0109056 0.0680042 0.0384897 255 0 0
-0.0359088 0.0696779 0.0384876 255 0 0
-0.0342369 0.0696768 0.0384757 255 0 0
-0.0325651 0.0696772 0.0384712 255 0 0
-0.0308932 0.0696777 0.0384681 255 0 0
-0.0292213 0.0696777 0.0384659 255 0 0
-0.0275495 0.0696780 0.0384647 255 0 0
-0.0258776 0.0696780 0.0384637 255 0 0
-0.0242057 0.0696780 0.0384632 255 0 0
-0.0225339 0.0696779 0.0384628 255 0 0
-0.0208620 0.0696778 0.0384624 255 0 0
-0.0191902 0.0696777 0.0384622 255 0 0
-0.0175183 0.0696777 0.0384621 255 0 0
-0.0158464 0.0696775 0.0384620 255 0 0
-0.0141745 0.0696775 0.0384621 255 0 0
-0.0125027 0.0696775 0.0384621 255 0 0
-0.0108308 0.0696774 0.0384622 255 0 0
-0.0091589 0.0696774 0.0384624 255 0 0
-0.0074872 0.0696774 0.0384626 255 0 0
-0.0058153 0.0696774 0.0384630 255 0 0
-0.0041434 0.0696774 0.0384635 255 0 0
-0.0024715 0.0696775 0.0384640 255 0 0
-0.0007997 0.0696775 0.0384649 255 0 0
0.0008723 0.0696779 0.0384659 255 0 0
0.0025444 0.0696779 0.0384681 255 0 0
0.0042160 0.0696775 0.0384703 255 0 0
0.0058880 0.0696771 0.0384741 255 0 0
0.0075604 0.0696778 0.0384830 255 0 0
0.0092331 0.0696784 0.0384905 255 0 0
0.0109057 0.0696786 0.0384949 255 0 0
-0.0359088 0.0713511 0.0384875 255 0 0
-0.0342369 0.0713501 0.0384767 255 0 0
-0.0325651 0.0713494 0.0384716 255 0 0
-0.0308932 0.0713496 0.0384683 255 0 0
-0.0292213 0.0713504 0.0384661 255 0 0
-0.0275495 0.0713507 0.0384647 255 0 0
-0.0258776 0.0713504 0.0384637 255 0 0
-0.0242057 0.0713504 0.0384631 255 0 0
-0.0225339 0.0713504 0.0384627 255 0 0
-0.0208620 0.0713505 0.0384624 255 0 0
-0.0191902 0.0713504 0.0384623 255 0 0
-0.0175183 0.0713504 0.0384622 255 0 0
-0.0158464 0.0713504 0.0384622 255 0 0
-0.0141745 0.0713504 0.0384622 255 0 0
-0.0125027 0.0713504 0.0384622 255 0 0
-0.0108308 0.0713504 0.0384623 255 0 0
-0.0091589 0.0713504 0.0384624 255 0 0
-0.0074871 0.0713504 0.0384626 255 0 0
-0.0058152 0.0713504 0.0384629 255 0 0
-0.0041434 0.0713503 0.0384633 255 0 0
-0.0024715 0.0713502 0.0384641 255 0 0
-0.0007997 0.0713502 0.0384650 255 0 0
0.0008724 0.0713498 0.0384659 255 0 0
0.0025445 0.0713497 0.0384684 255 0 0
0.0042161 0.0713499 0.0384711 255 0 0
0.0058880 0.0713502 0.0384757 255 0 0
0.0075607 0.0713514 0.0384844 255 0 0
0.0092331 0.0713508 0.0384922 255 0 0
-0.0359088 0.0730223 0.0384825 255 0 0
-0.0342369 0.0730225 0.0384756 255 0 0
-0.0325651 0.0730215 0.0384707 255 0 0
-0.0308932 0.0730227 0.0384673 255 0 0
-0.0292213 0.0730229 0.0384657 255 0 0
-0.0275495 0.0730231 0.0384641 255 0 0
-0.0258776 0.0730237 0.0384635 255 0 0
-0.0242057 0.0730238 0.0384631 255 0 0
-0.0225339 0.0730237 0.0384627 255 0 0
-0.0208620 0.0730236 0.0384624 255 0 0
-0.0191902 0.0730234 0.0384621 255 0 0
-0.0175183 0.0730233 0.0384619 255 0 0
-0.0158464 0.0730233 0.0384619 255 0 0
-0.0141745 0.0730233 0.0384619 255 0 0
-0.0125027 0.0730233 0.0384619 255 0 0
-0.0108308 0.0730234 0.0384620 255 0 0
-0.0091589 0.0730235 0.0384622 255 0 0
-0.0074872 0.0730236 0.0384624 255 0 0
-0.0058152 0.0730237 0.0384628 255 0 0
-0.0041434 0.0730236 0.0384634 255 0 0
-0.0024715 0.0730233 0.0384642 255 0 0
-0.0007996 0.0730224 0.0384651 255 0 0
0.0008724 0.0730223 0.0384666 255 0 0
0.0025446 0.0730223 0.0384686 255 0 0
0.0042161 0.0730220 0.0384715 255 0 0
0.0058885 0.0730228 0.0384764 255 0 0
0.0075608 0.0730234 0.0384844 255 0 0
0.0092335 0.0730238 0.0384913 255 0 0
-0.0342369 0.0746980 0.0384944 255 0 0
-0.0325651 0.0746974 0.0384850 255 0 0
-0.0308932 0.0746953 0.0384751 255 0 0
-0.0292213 0.0746953 0.0384713 255 0 0
-0.0275495 0.0746953 0.0384685 255 0 0
-0.0258776 0.0746945 0.0384664 255 0 0
-0.0242057 0.0746946 0.0384658 255 0 0
-0.0225339 0.0746946 0.0384652 255 0 0
-0.0208620 0.0746945 0.0384648 255 0 0
-0.0191902 0.0746944 0.0384645 255 0 0
-0.0175183 0.0746944 0.0384643 255 0 0
-0.0158464 0.0746943 0.0384643 255 0 0
-0.0141745 0.0746943 0.0384643 255 0 0
-0.0125027 0.0746943 0.0384643 255 0 0
-0.0108308 0.0746943 0.0384645 255 0 0
-0.0091589 0.0746942 0.0384647 255 0 0
-0.0074871 0.0746942 0.0384650 255 0 0
-0.0058152 0.0746943 0.0384657 255 0 0
-0.0041434 0.0746945 0.0384665 255 0 0
-0.0024715 0.0746944 0.0384676 255 0 0
-0.0007996 0.0746949 0.0384693 255 0 0
0.0008725 0.0746950 0.0384713 255 0 0
0.0025447 0.0746951 0.0384750 255 0 0
0.0042162 0.0746959 0.0384826 255 0 0
0.0058886 0.0746976 0.0384895 255 0 0
0.0075610 0.0746971 0.0384988 255 0 0
-0.0342369 0.0763698 0.0385053 255 0 0
-0.0325651 0.0763692 0.0384939 255 0 0
-0.0308932 0.0763693 0.0384831 255 0 0
-0.0292213 0.0763682 0.0384761 255 0 0
-0.0275495 0.0763671 0.0384722 255 0 0
-0.0258776 0.0763676 0.0384695 255 0 0
-0.0242057 0.0763677 0.0384686 255 0 0
-0.0225339 0.0763674 0.0384680 255 0 0
-0.0208620 0.0763674 0.0384671 255 0 0
-0.0191902 0.0763673 0.0384665 255 0 0
-0.0175183 0.0763671 0.0384661 255 0 0
-0.0158464 0.0763671 0.0384661 255 0 0
-0.0141745 0.0763670 0.0384661 255 0 0
-0.0125026 0.0763670 0.0384661 255 0 0
-0.0108308 0.0763670 0.0384663 255 0 0
-0.0091589 0.0763670 0.0384667 255 0 0
-0.0074871 0.0763671 0.0384672 255 0 0
-0.0058152 0.0763673 0.0384682 255 0 0
-0.0041434 0.0763675 0.0384691 255 0 0
-0.0024715 0.0763677 0.0384707 255 0 0
-0.0007995 0.0763673 0.0384726 255 0 0
0.0008726 0.0763682 0.0384759 255 0 0
0.0025447 0.0763686 0.0384823 255 0 0
0.0042167 0.0763692 0.0384898 255 0 0
0.0058889 0.0763701 0.0384988 255 0 0
0.0075611 0.0763706 0.0385087 255 0 0
-0.0325651 0.0780437 0.0385058 255 0 0
-0.0308935 0.0780424 0.0384961 255 0 0
-0.0292213 0.0780407 0.0384863 255 0 0
-0.0275495 0.0780396 0.0384779 255 0 0
-0.0258776 0.0780394 0.0384734 255 0 0
-0.0242057 0.0780398 0.0384719 255 0 0
-0.0225339 0.0780398 0.0384707 255 0 0
-0.0208620 0.0780398 0.0384698 255 0 0
-0.0191902 0.0780397 0.0384690 255 0 0
-0.0175183 0.0780394 0.0384686 255 0 0
-0.0158464 0.0780390 0.0384685 255 0 0
-0.0141745 0.0780389 0.0384685 255 0 0
-0.0125026 0.0780388 0.0384686 255 0 0
-0.0108308 0.0780388 0.0384688 255 0 0
-0.0091589 0.0780389 0.0384694 255 0 0
-0.0074871 0.0780394 0.0384700 255 0 0
-0.0058152 0.0780399 0.0384713 255 0 0
-0.0041434 0.0780395 0.0384726 255 0 0
-0.0024715 0.0780397 0.0384749 255 0 0
-0.0007995 0.0780394 0.0384783 255 0 0
0.0008726 0.0780403 0.0384836 255 0 0
0.0025448 0.0780418 0.0384890 255 0 0
0.0042167 0.0780421 0.0384993 255 0 0
0.0058891 0.0780419 0.0385094 255 0 0
-0.0308932 0.0797136 0.0384878 255 0 0
-0.0292213 0.0797133 0.0384822 255 0 0
-0.0275495 0.0797119 0.0384785 255 0 0
-0.0258776 0.0797116 0.0384734 255 0 0
-0.0242057 0.0797115 0.0384719 255 0 0
-0.0225339 0.0797113 0.0384708 255 0 0
-0.0208620 0.0797114 0.0384699 255 0 0
-0.0191902 0.0797115 0.0384693 255 0 0
-0.0175183 0.0797113 0.0384685 255 0 0
-0.0158464 0.0797113 0.0384684 255 0 0
-0.0141745 0.0797111 0.0384684 255 0 0
-0.0125026 0.0797111 0.0384688 255 0 0
-0.0108308 0.0797111 0.0384694 255 0 0
-0.0091589 0.0797109 0.0384701 255 0 0
-0.0074871 0.0797111 0.0384708 255 0 0
-0.0058152 0.0797114 0.0384721 255 0 0
-0.0041433 0.0797117 0.0384741 255 0 0
-0.0024714 0.0797119 0.0384768 255 0 0
-0.0007994 0.0797126 0.0384815 255 0 0
0.0008728 0.0797136 0.0384852 255 0 0
0.0025451 0.0797134 0.0384905 255 0 0
0.0042171 0.0797138 0.0385014 255 0 0
-0.0308951 0.0813844 0.0384437 255 0 0
-0.0292214 0.0813843 0.0384582 255 0 0
-0.0275495 0.0813847 0.0384671 255 0 0
-0.0258776 0.0813833 0.0384708 255 0 0
-0.0242058 0.0813823 0.0384711 255 0 0
-0.0225339 0.0813813 0.0384715 255 0 0
-0.0208621 0.0813813 0.0384705 255 0 0
-0.0191902 0.0813811 0.0384699 255 0 0
-0.0175184 0.0813806 0.0384696 255 0 0
-0.0158465 0.0813799 0.0384696 255 0 0
-0.0141746 0.0813792 0.0384696 255 0 0
-0.0125027 0.0813795 0.0384701 255 0 0
-0.0108308 0.0813797 0.0384707 255 0 0
-0.0091589 0.0813799 0.0384712 255 0 0
-0.0074870 0.0813798 0.0384720 255 0 0
-0.0058146 0.0813796 0.0384732 255 0 0
-0.0041432 0.0813810 0.0384746 255 0 0
-0.0024704 0.0813817 0.0384779 255 0 0
-0.0007986 0.0813835 0.0384796 255 0 0
0.0008738 0.0813844 0.0384822 255 0 0
0.0025463 0.0813854 0.0384863 255 0 0
-0.0275501 0.0830620 0.0385141 255 0 0
-0.0258776 0.0830616 0.0384945 255 0 0
-0.0242057 0.0830617 0.0384897 255 0 0
-0.0225338 0.0830618 0.0384858 255 0 0
-0.0208620 0.0830602 0.0384832 255 0 0
-0.0191901 0.0830594 0.0384797 255 0 0
-0.0175183 0.0830585 0.0384786 255 0 0
-0.0158464 0.0830585 0.0384781 255 0 0
-0.0141745 0.0830589 0.0384782 255 0 0
-0.0125025 0.0830588 0.0384787 255 0 0
-0.0108306 0.0830595 0.0384797 255 0 0
-0.0091588 0.0830599 0.0384823 255 0 0
-0.0074871 0.0830612 0.0384844 255 0 0
-0.0058151 0.0830623 0.0384876 255 0 0
-0.0041433 0.0830607 0.0384926 255 0 0
-0.0024720 0.0830606 0.0384995 255 0 0
-0.0007999 0.0830590 0.0385061 255 0 0
-0.0258779 0.0847373 0.0385099 255 0 0
-0.0242057 0.0847363 0.0385028 255 0 0
-0.0225338 0.0847364 0.0384958 255 0 0
-0.0208619 0.0847350 0.0384918 255 0 0
-0.0191901 0.0847339 0.0384889 255 0 0
-0.0175182 0.0847333 0.0384871 255 0 0
-0.0158464 0.0847330 0.0384866 255 0 0
-0.0141746 0.0847332 0.0384868 255 0 0
-0.0125026 0.0847327 0.0384873 255 0 0
-0.0108306 0.0847329 0.0384888 255 0 0
-0.0091587 0.0847335 0.0384910 255 0 0
-0.0074870 0.0847357 0.0384940 255 0 0
-0.0058151 0.0847363 0.0384996 255 0 0
-0.0041434 0.0847353 0.0385062 255 0 0
-0.0024720 0.0847343 0.0385143 255 0 0
-0.0242057 0.0864159 0.0385187 255 0 0
-0.0225336 0.0864199 0.0385149 255 0 0
-0.0208619 0.0864069 0.0385083 255 0 0
-0.0191899 0.0864039 0.0385043 255 0 0
-0.0175180 0.0864096 0.0385024 255 0 0
-0.0158460 0.0864248 0.0385033 255 0 0
-0.0141742 0.0864339 0.0385052 255 0 0
-0.0125023 0.0864216 0.0385032 255 0 0
-0.0108305 0.0864168 0.0385037 255 0 0
-0.0091586 0.0864174 0.0385064 255 0 0
-0.0074865 0.0864265 0.0385117 255 0 0
-0.0058145 0.0864343 0.0385178 255 0 0
-0.0175189 0.0880721 0.0385026 255 0 0
-0.0158467 0.0880709 0.0385024 255 0 0
-0.0141748 0.0880713 0.0385029 255 0 0
-0.0125028 0.0880691 0.0385039 255 0 0
-0.0208620 0.0345252 0.0401225 255 0 0
-0.0191902 0.0345255 0.0401220 255 0 0
-0.0175183 0.0345256 0.0401220 255 0 0
-0.0158464 0.0345255 0.0401223 255 0 0
-0.0141746 0.0345251 0.0401227 255 0 0
-0.0125027 0.0345247 0.0401232 255 0 0
-0.0108308 0.0345245 0.0401243 255 0 0
-0.0242057 0.0361982 0.0401221 255 0 0
-0.0225339 0.0361983 0.0401210 255 0 0
-0.0208620 0.0361983 0.0401204 255 0 0
-0.0191902 0.0361985 0.0401201 255 0 0
-0.0175183 0.0361985 0.0401200 255 0 0
-0.0158464 0.0361984 0.0401202 255 0 0
-0.0141746 0.0361983 0.0401206 255 0 0
-0.0125027 0.0361981 0.0401209 255 0 0
-0.0108308 0.0361979 0.0401215 255 0 0
-0.0091590 0.0361975 0.0401225 255 0 0
-0.0074872 0.0361970 0.0401239 255 0 0
-0.0275495 0.0378691 0.0401228 255 0 0
-0.0258776 0.0378701 0.0401216 255 0 0
-0.0242057 0.0378704 0.0401207 255 0 0
-0.0225339 0.0378707 0.0401198 255 0 0
-0.0208620 0.0378709 0.0401193 255 0 0
-0.0191902 0.0378712 0.0401191 255 0 0
-0.0175183 0.0378712 0.0401190 255 0 0
-0.0158464 0.0378712 0.0401191 255 0 0
-0.0141746 0.0378710 0.0401193 255 0 0
-0.0125027 0.0378708 0.0401196 255 0 0
-0.0108308 0.0378707 0.0401202 255 0 0
-0.0091590 0.0378705 0.0401213 255 0 0
-0.0074872 0.0378700 0.0401220 255 0 0
-0.0058154 0.0378692 0.0401232 255 0 0
-0.0041435 0.0378677 0.0401262 255 0 0
-0.0292213 0.0395410 0.0401224 255 0 0
-0.0275495 0.0395419 0.0401213 255 0 0
-0.0258776 0.0395425 0.0401201 255 0 0
-0.0242057 0.0395429 0.0401197 255 0 0
-0.0225339 0.0395434 0.0401191 255 0 0
-0.0208620 0.0395437 0.0401187 255 0 0
-0.0191902 0.0395436 0.0401185 255 0 0
-0.0175183 0.0395436 0.0401185 255 0 0
-0.0158464 0.0395435 0.0401185 255 0 0
-0.0141746 0.0395434 0.0401188 255 0 0
-0.0125027 0.0395434 0.0401191 255 0 0
-0.0108308 0.0395432 0.0401195 255 0 0
-0.0091590 0.0395425 0.0401199 255 0 0
-0.0074872 0.0395421 0.0401208 255 0 0
-0.0058154 0.0395419 0.0401215 255 0 0
-0.0041435 0.0395406 0.0401237 255 0 0
-0.0024712 0.0395399 0.0401255 255 0 0
-0.0308932 0.0412137 0.0401227 255 0 0
-0.0292213 0.0412141 0.0401210 255 0 0
-0.0275495 0.0412147 0.0401201 255 0 0
-0.0258776 0.0412151 0.0401193 255 0 0
-0.0242057 0.0412152 0.0401189 255 0 0
-0.0225339 0.0412154 0.0401183 255 0 0
-0.0208620 0.0412157 0.0401182 255 0 0
-0.0191902 0.0412158 0.0401182 255 0 0
-0.0175183 0.0412158 0.0401182 255 0 0
-0.0158464 0.0412157 0.0401183 255 0 0
-0.0141746 0.0412157 0.0401183 255 0 0
-0.0125027 0.0412157 0.0401185 255 0 0
-0.0108308 0.0412156 0.0401186 255 0 0
-0.0091590 0.0412151 0.0401189 255 0 0
-0.0074872 0.0412147 0.0401197 255 0 0
-0.0058153 0.0412142 0.0401204 255 0 0
-0.0041435 0.0412137 0.0401217 255 0 0
-0.0024713 0.0412128 0.0401233 255 0 0
-0.0007994 0.0412124 0.0401252 255 0 0
0.0008727 0.0412113 0.0401271 255 0 0
-0.0325651 0.0428849 0.0401235 255 0 0
-0.0308932 0.0428858 0.0401213 255 0 0
-0.0292213 0.0428868 0.0401203 255 0 0
-0.0275495 0.0428872 0.0401193 255 0 0
-0.0258776 0.0428874 0.0401185 255 0 0
-0.0242057 0.0428874 0.0401182 255 0 0
-0.0225339 0.0428875 0.0401180 255 0 0
-0.0208620 0.0428878 0.0401179 255 0 0
-0.0191902 0.0428879 0.0401177 255 0 0
-0.0175183 0.0428879 0.0401176 255 0 0
-0.0158464 0.0428879 0.0401176 255 0 0
-0.0141746 0.0428878 0.0401177 255 0 0
-0.0125027 0.0428877 0.0401180 255 0 0
-0.0108308 0.0428876 0.0401182 255 0 0
-0.0091590 0.0428873 0.0401185 255 0 0
-0.0074872 0.0428872 0.0401189 255 0 0
-0.0058153 0.0428870 0.0401194 255 0 0
-0.0041435 0.0428866 0.0401205 255 0 0
-0.0024713 0.0428858 0.0401217 255 0 0
-0.0007995 0.0428850 0.0401230 255 0 0
0.0008725 0.0428839 0.0401249 255 0 0
0.0025448 0.0428834 0.0401264 255 0 0
-0.0342369 0.0445570 0.0401239 255 0 0
-0.0325651 0.0445572 0.0401219 255 0 0
-0.0308932 0.0445583 0.0401206 255 0 0
-0.0292213 0.0445591 0.0401192 255 0 0
-0.0275495 0.0445594 0.0401189 255 0 0
-0.0258776 0.0445596 0.0401181 255 0 0
-0.0242057 0.0445597 0.0401179 255 0 0
-0.0225339 0.0445598 0.0401178 255 0 0
-0.0208620 0.0445600 0.0401177 255 0 0
-0.0191902 0.0445600 0.0401177 255 0 0
-0.0175183 0.0445600 0.0401176 255 0 0
-0.0158464 0.0445600 0.0401177 255 0 0
-0.0141746 0.0445600 0.0401177 255 0 0
-0.0125027 0.0445599 0.0401178 255 0 0
-0.0108308 0.0445599 0.0401180 255 0 0
-0.0091590 0.0445597 0.0401182 255 0 0
-0.0074871 0.0445595 0.0401183 255 0 0
-0.0058153 0.0445593 0.0401190 255 0 0
-0.0041434 0.0445590 0.0401196 255 0 0
-0.0024716 0.0445585 0.0401203 255 0 0
-0.0007996 0.0445574 0.0401216 255 0 0
0.0008724 0.0445570 0.0401229 255 0 0
0.0025444 0.0445567 0.0401244 255 0 0
0.0042167 0.0445545 0.0401294 255 0 0
-0.0359088 0.0462277 0.0401257 255 0 0
-0.0342369 0.0462296 0.0401228 255 0 0
-0.0325651 0.0462304 0.0401211 255 0 0
-0.0308932 0.0462309 0.0401197 255 0 0
-0.0292213 0.0462311 0.0401190 255 0 0
-0.0275495 0.0462317 0.0401183 255 0 0
-0.0258776 0.0462318 0.0401179 255 0 0
-0.0242057 0.0462319 0.0401178 255 0 0
-0.0225339 0.0462321 0.0401176 255 0 0
-0.0208620 0.0462321 0.0401176 255 0 0
-0.0191902 0.0462321 0.0401175 255 0 0
-0.0175183 0.0462321 0.0401175 255 0 0
-0.0158464 0.0462321 0.0401175 255 0 0
-0.0141746 0.0462321 0.0401176 255 0 0
-0.0125027 0.0462320 0.0401176 255 0 0
-0.0108308 0.0462320 0.0401178 255 0 0
-0.0091590 0.0462320 0.0401179 255 0 0
-0.0074871 0.0462318 0.0401181 255 0 0
-0.0058153 0.0462315 0.0401185 255 0 0
-0.0041434 0.0462314 0.0401189 255 0 0
-0.0024716 0.0462308 0.0401196 255 0 0
-0.0007996 0.0462303 0.0401206 255 0 0
0.0008724 0.0462297 0.0401219 255 0 0
0.0025444 0.0462290 0.0401231 255 0 0
0.0042167 0.0462275 0.0401269 255 0 0
-0.0359088 0.0479008 0.0401241 255 0 0
-0.0342369 0.0479016 0.0401217 255 0 0
-0.0325651 0.0479029 0.0401203 255 0 0
-0.0308932 0.0479031 0.0401191 255 0 0
-0.0292213 0.0479034 0.0401184 255 0 0
-0.0275495 0.0479038 0.0401182 255 0 0
-0.0258776 0.0479040 0.0401180 255 0 0
-0.0242057 0.0479041 0.0401177 255 0 0
-0.0225339 0.0479041 0.0401175 255 0 0
-0.0208620 0.0479041 0.0401174 255 0 0
-0.0191902 0.0479041 0.0401173 255 0 0
-0.0175183 0.0479042 0.0401172 255 0 0
-0.0158464 0.0479042 0.0401172 255 0 0
-0.0141746 0.0479042 0.0401173 255 0 0
-0.0125027 0.0479042 0.0401174 255 0 0
-0.0108308 0.0479041 0.0401175 255 0 0
-0.0091590 0.0479041 0.0401177 255 0 0
-0.0074871 0.0479040 0.0401179 255 0 0
-0.0058153 0.0479038 0.0401184 255 0 0
-0.0041434 0.0479037 0.0401186 255 0 0
-0.0024716 0.0479031 0.0401190 255 0 0
-0.0007997 0.0479025 0.0401198 255 0 0
0.0008723 0.0479024 0.0401207 255 0 0
0.0025444 0.0479013 0.0401223 255 0 0
0.0042166 0.0479004 0.0401252 255 0 0
0.0058886 0.0478987 0.0401282 255 0 0
-0.0375807 0.0495724 0.0401264 255 0 0
-0.0359088 0.0495731 0.0401231 255 0 0
-0.0342369 0.0495740 0.0401212 255 0 0
-0.0325651 0.0495747 0.0401199 255 0 0
-0.0308932 0.0495752 0.0401194 255 0 0
-0.0292213 0.0495753 0.0401186 255 0 0
-0.0275495 0.0495758 0.0401184 255 0 0
-0.0258776 0.0495759 0.0401181 255 0 0
-0.0242057 0.0495759 0.0401180 255 0 0
-0.0225339 0.0495759 0.0401179 255 0 0
-0.0208620 0.0495758 0.0401177 255 0 0
-0.0191902 0.0495758 0.0401177 255 0 0
-0.0175183 0.0495758 0.0401176 255 0 0
-0.0158464 0.0495758 0.0401176 255 0 0
-0.0141746 0.0495758 0.0401177 255 0 0
-0.0125027 0.0495757 0.0401177 255 0 0
-0.0108308 0.0495757 0.0401178 255 0 0
-0.0091590 0.0495757 0.0401179 255 0 0
-0.0074871 0.0495757 0.0401181 255 0 0
-0.0058153 0.0495757 0.0401184 255 0 0
-0.0041434 0.0495757 0.0401187 255 0 0
-0.0024716 0.0495753 0.0401190 255 0 0
-0.0007997 0.0495749 0.0401199 255 0 0
0.0008723 0.0495745 0.0401204 255 0 0
0.0025444 0.0495734 0.0401221 255 0 0
0.0042159 0.0495729 0.0401240 255 0 0
0.0058886 0.0495715 0.0401269 255 0 0
0.0075605 0.0495698 0.0401306 255 0 0
-0.0375807 0.0512443 0.0401256 255 0 0
-0.0359088 0.0512459 0.0401229 255 0 0
-0.0342369 0.0512464 0.0401208 255 0 0
-0.0325651 0.0512467 0.0401198 255 0 0
-0.0308932 0.0512473 0.0401193 255 0 0
-0.0292213 0.0512475 0.0401188 255 0 0
-0.0275495 0.0512479 0.0401183 255 0 0
-0.0258776 0.0512478 0.0401180 255 0 0
-0.0242057 0.0512478 0.0401178 255 0 0
-0.0225339 0.0512478 0.0401178 255 0 0
-0.0208620 0.0512478 0.0401177 255 0 0
-0.0191902 0.0512478 0.0401177 255 0 0
-0.0175183 0.0512478 0.0401176 255 0 0
-0.0158464 0.0512478 0.0401177 255 0 0
-0.0141746 0.0512478 0.0401177 255 0 0
-0.0125027 0.0512478 0.0401177 255 0 0
-0.0108308 0.0512479 0.0401178 255 0 0
-0.0091590 0.0512479 0.0401178 255 0 0
-0.0074871 0.0512478 0.0401179 255 0 0
-0.0058153 0.0512478 0.0401182 255 0 0
-0.0041434 0.0512478 0.0401185 255 0 0
-0.0024716 0.0512474 0.0401189 255 0 0
-0.0007997 0.0512470 0.0401196 255 0 0
0.0008723 0.0512464 0.0401201 255 0 0
0.0025444 0.0512461 0.0401215 255 0 0
0.0042159 0.0512453 0.0401236 255 0 0
0.0058880 0.0512443 0.0401259 255 0 0
0.0075605 0.0512423 0.0401296 255 0 0
-0.0392525 0.0529154 0.0401293 255 0 0
-0.0375807 0.0529170 0.0401253 255 0 0
-0.0359088 0.0529177 0.0401228 255 0 0
-0.0342369 0.0529187 0.0401210 255 0 0
-0.0325651 0.0529191 0.0401202 255 0 0
-0.0308932 0.0529195 0.0401197 255 0 0
-0.0292213 0.0529198 0.0401191 255 0 0
-0.0275495 0.0529198 0.0401188 255 0 0
-0.0258776 0.0529200 0.0401184 255 0 0
-0.0242057 0.0529200 0.0401183 255 0 0
-0.0225339 0.0529200 0.0401182 255 0 0
-0.0208620 0.0529200 0.0401180 255 0 0
-0.0191902 0.0529200 0.0401180 255 0 0
-0.0175183 0.0529200 0.0401180 255 0 0
-0.0158464 0.0529200 0.0401180 255 0 0
-0.0141746 0.0529200 0.0401180 255 0 0
-0.0125027 0.0529200 0.0401180 255 0 0
-0.0108308 0.0529200 0.0401181 255 0 0
-0.0091590 0.0529200 0.0401182 255 0 0
-0.0074871 0.0529200 0.0401184 255 0 0
-0.0058153 0.0529200 0.0401187 255 0 0
-0.0041434 0.0529199 0.0401189 255 0 0
-0.0024716 0.0529198 0.0401192 255 0 0
-0.0007997 0.0529194 0.0401197 255 0 0
0.0008722 0.0529188 0.0401204 255 0 0
0.0025444 0.0529181 0.0401217 255 0 0
0.0042159 0.0529174 0.0401228 255 0 0
0.0058878 0.0529165 0.0401252 255 0 0
0.0075605 0.0529154 0.0401286 255 0 0
-0.0392525 0.0545885 0.0401287 255 0 0
-0.0375807 0.0545895 0.0401249 255 0 0
-0.0359088 0.0545903 0.0401222 255 0 0
-0.0342369 0.0545908 0.0401204 255 0 0
-0.0325651 0.0545918 0.0401198 255 0 0
-0.0308932 0.0545922 0.0401193 255 0 0
-0.0292213 0.0545922 0.0401188 255 0 0
-0.0275495 0.0545921 0.0401184 255 0 0
-0.0258776 0.0545922 0.0401182 255 0 0
-0.0242057 0.0545922 0.0401181 255 0 0
-0.0225339 0.0545922 0.0401180 255 0 0
-0.0208620 0.0545922 0.0401179 255 0 0
-0.0191902 0.0545922 0.0401178 255 0 0
-0.0175183 0.0545922 0.0401178 255 0 0
-0.0158464 0.0545922 0.0401178 255 0 0
-0.0141746 0.0545922 0.0401178 255 0 0
-0.0125027 0.0545922 0.0401178 255 0 0
-0.0108308 0.0545922 0.0401179 255 0 0
-0.0091590 0.0545922 0.0401180 255 0 0
-0.0074871 0.0545921 0.0401182 255 0 0
-0.0058153 0.0545921 0.0401183 255 0 0
-0.0041434 0.0545921 0.0401184 255 0 0
-0.0024716 0.0545921 0.0401188 255 0 0
-0.0007997 0.0545920 0.0401191 255 0 0
0.0008722 0.0545919 0.0401198 255 0 0
0.0025441 0.0545905 0.0401208 255 0 0
0.0042159 0.0545897 0.0401224 255 0 0
0.0058878 0.0545896 0.0401242 255 0 0
0.0075605 0.0545890 0.0401274 255 0 0
0.0092316 0.0545869 0.0401309 255 0 0
-0.0392525 0.0562604 0.0401280 255 0 0
-0.0375807 0.0562620 0.0401242 255 0 0
-0.0359088 0.0562631 0.0401218 255 0 0
-0.0342369 0.0562640 0.0401200 255 0 0
-0.0325651 0.0562644 0.0401193 255 0 0
-0.0308932 0.0562646 0.0401188 255 0 0
-0.0292213 0.0562647 0.0401183 255 0 0
-0.0275495 0.0562647 0.0401180 255 0 0
-0.0258776 0.0562645 0.0401179 255 0 0
-0.0242057 0.0562645 0.0401178 255 0 0
-0.0225339 0.0562644 0.0401177 255 0 0
-0.0208620 0.0562645 0.0401177 255 0 0
-0.0191902 0.0562645 0.0401177 255 0 0
-0.0175183 0.0562645 0.0401176 255 0 0
-0.0158464 0.0562645 0.0401176 255 0 0
-0.0141746 0.0562645 0.0401177 255 0 0
-0.0125027 0.0562644 0.0401177 255 0 0
-0.0108308 0.0562645 0.0401177 255 0 0
-0.0091590 0.0562646 0.0401178 255 0 0
-0.0074871 0.0562646 0.0401178 255 0 0
-0.0058153 0.0562646 0.0401180 255 0 0
-0.0041434 0.0562647 0.0401181 255 0 0
-0.0024716 0.0562647 0.0401183 255 0 0
-0.0007997 0.0562648 0.0401185 255 0 0
0.0008722 0.0562646 0.0401191 255 0 0
0.0025440 0.0562640 0.0401201 255 0 0
0.0042159 0.0562629 0.0401212 255 0 0
0.0058878 0.0562627 0.0401231 255 0 0
0.0075598 0.0562613 0.0401258 255 0 0
0.0092316 0.0562602 0.0401288 255 0 0
-0.0392525 0.0579325 0.0401314 255 0 0
-0.0375807 0.0579337 0.0401267 255 0 0
-0.0359088 0.0579344 0.0401238 255 0 0
-0.0342369 0.0579359 0.0401215 255 0 0
-0.0325651 0.0579365 0.0401208 255 0 0
-0.0308932 0.0579367 0.0401201 255 0 0
-0.0292213 0.0579366 0.0401197 255 0 0
-0.0275495 0.0579366 0.0401193 255 0 0
-0.0258776 0.0579367 0.0401189 255 0 0
-0.0242057 0.0579367 0.0401187 255 0 0
-0.0225339 0.0579368 0.0401186 255 0 0
-0.0208620 0.0579368 0.0401185 255 0 0
-0.0191902 0.0579368 0.0401185 255 0 0
-0.0175183 0.0579368 0.0401185 255 0 0
-0.0158464 0.0579369 0.0401185 255 0 0
-0.0141746 0.0579368 0.0401185 255 0 0
-0.0125027 0.0579368 0.0401185 255 0 0
-0.0108308 0.0579368 0.0401185 255 0 0
-0.0091590 0.0579368 0.0401186 255 0 0
-0.0074871 0.0579368 0.0401187 255 0 0
-0.0058153 0.0579367 0.0401188 255 0 0
-0.0041434 0.0579367 0.0401190 255 0 0
-0.0024716 0.0579366 0.0401194 255 0 0
-0.0007997 0.0579366 0.0401199 255 0 0
0.0008722 0.0579366 0.0401202 255 0 0
0.0025440 0.0579361 0.0401213 255 0 0
0.0042159 0.0579350 0.0401223 255 0 0
0.0058878 0.0579341 0.0401244 255 0 0
0.0075597 0.0579338 0.0401270 255 0 0
0.0092316 0.0579324 0.0401303 255 0 0
0.0109036 0.0579325 0.0401317 255 0 0
-0.0392525 0.0596044 0.0401341 255 0 0
-0.0375807 0.0596059 0.0401293 255 0 0
-0.0359088 0.0596068 0.0401256 255 0 0
-0.0342369 0.0596079 0.0401228 255 0 0
-0.0325651 0.0596084 0.0401218 255 0 0
-0.0308932 0.0596087 0.0401213 255 0 0
-0.0292213 0.0596088 0.0401208 255 0 0
-0.0275495 0.0596088 0.0401202 255 0 0
-0.0258776 0.0596088 0.0401198 255 0 0
-0.0242057 0.0596088 0.0401196 255 0 0
-0.0225339 0.0596088 0.0401195 255 0 0
-0.0208620 0.0596088 0.0401194 255 0 0
-0.0191902 0.0596088 0.0401193 255 0 0
-0.0175183 0.0596088 0.0401193 255 0 0
-0.0158464 0.0596088 0.0401193 255 0 0
-0.0141746 0.0596088 0.0401193 255 0 0
-0.0125027 0.0596088 0.0401193 255 0 0
-0.0108308 0.0596088 0.0401193 255 0 0
-0.0091590 0.0596088 0.0401194 255 0 0
-0.0074871 0.0596088 0.0401195 255 0 0
-0.0058153 0.0596088 0.0401197 255 0 0
-0.0041434 0.0596088 0.0401199 255 0 0
-0.0024716 0.0596088 0.0401202 255 0 0
-0.0007997 0.0596088 0.0401207 255 0 0
0.0008722 0.0596089 0.0401212 255 0 0
0.0025440 0.0596080 0.0401220 255 0 0
0.0042160 0.0596075 0.0401232 255 0 0
0.0058878 0.0596069 0.0401253 255 0 0
0.0075597 0.0596059 0.0401283 255 0 0
0.0092316 0.0596053 0.0401317 255 0 0
0.0109036 0.0596047 0.0401328 255 0 0
-0.0375807 0.0612780 0.0401316 255 0 0
-0.0359088 0.0612791 0.0401268 255 0 0
-0.0342369 0.0612800 0.0401241 255 0 0
-0.0325651 0.0612806 0.0401234 255 0 0
-0.0308932 0.0612810 0.0401225 255 0 0
-0.0292213 0.0612812 0.0401215 255 0 0
-0.0275495 0.0612813 0.0401210 255 0 0
-0.0258776 0.0612812 0.0401207 255 0 0
-0.0242057 0.0612812 0.0401205 255 0 0
-0.0225339 0.0612812 0.0401204 255 0 0
-0.0208620 0.0612812 0.0401203 255 0 0
-0.0191902 0.0612813 0.0401202 255 0 0
-0.0175183 0.0612813 0.0401202 255 0 0
-0.0158464 0.0612813 0.0401202 255 0 0
-0.0141746 0.0612813 0.0401202 255 0 0
-0.0125027 0.0612813 0.0401202 255 0 0
-0.0108308 0.0612813 0.0401203 255 0 0
-0.0091590 0.0612813 0.0401203 255 0 0
-0.0074871 0.0612813 0.0401204 255 0 0
-0.0058152 0.0612813 0.0401205 255 0 0
-0.0041434 0.0612813 0.0401207 255 0 0
-0.0024716 0.0612813 0.0401209 255 0 0
-0.0007997 0.0612814 0.0401214 255 0 0
0.0008722 0.0612811 0.0401221 255 0 0
0.0025440 0.0612805 0.0401235 255 0 0
0.0042160 0.0612797 0.0401242 255 0 0
0.0058879 0.0612794 0.0401263 255 0 0
0.0075598 0.0612787 0.0401293 255 0 0
0.0092316 0.0612780 0.0401333 255 0 0
-0.0375807 0.0629860 0.0401318 255 0 0
-0.0359088 0.0629880 0.0401278 255 0 0
-0.0342369 0.0629888 0.0401247 255 0 0
-0.0325651 0.0629888 0.0401233 255 0 0
-0.0308932 0.0629886 0.0401224 255 0 0
-0.0292213 0.0629886 0.0401218 255 0 0
-0.0275495 0.0629886 0.0401212 255 0 0
-0.0258776 0.0629885 0.0401209 255 0 0
-0.0242057 0.0629885 0.0401207 255 0 0
-0.0225339 0.0629885 0.0401206 255 0 0
-0.0208620 0.0629885 0.0401205 255 0 0
-0.0191902 0.0629885 0.0401204 255 0 0
-0.0175183 0.0629885 0.0401204 255 0 0
-0.0158464 0.0629885 0.0401204 255 0 0
-0.0141746 0.0629885 0.0401204 255 0 0
-0.0125027 0.0629885 0.0401204 255 0 0
-0.0108308 0.0629885 0.0401204 255 0 0
-0.0091590 0.0629885 0.0401205 255 0 0
-0.0074871 0.0629885 0.0401206 255 0 0
-0.0058152 0.0629885 0.0401208 255 0 0
-0.0041434 0.0629885 0.0401209 255 0 0
-0.0024716 0.0629885 0.0401212 255 0 0
-0.0007997 0.0629885 0.0401216 255 0 0
0.0008722 0.0629886 0.0401222 255 0 0
0.0025441 0.0629889 0.0401230 255 0 0
0.0042160 0.0629890 0.0401243 255 0 0
0.0058879 0.0629885 0.0401262 255 0 0
0.0075598 0.0629869 0.0401296 255 0 0
0.0092317 0.0629854 0.0401336 255 0 0
-0.0375807 0.0646590 0.0401312 255 0 0
-0.0359088 0.0646603 0.0401277 255 0 0
-0.0342369 0.0646611 0.0401249 255 0 0
-0.0325651 0.0646613 0.0401236 255 0 0
-0.0308932 0.0646612 0.0401222 255 0 0
-0.0292213 0.0646610 0.0401215 255 0 0
-0.0275495 0.0646608 0.0401209 255 0 0
-0.0258776 0.0646607 0.0401206 255 0 0
-0.0242057 0.0646606 0.0401205 255 0 0
-0.0225339 0.0646605 0.0401205 255 0 0
-0.0208620 0.0646604 0.0401204 255 0 0
-0.0191902 0.0646604 0.0401203 255 0 0
-0.0175183 0.0646604 0.0401203 255 0 0
-0.0158464 0.0646604 0.0401203 255 0 0
-0.0141746 0.0646604 0.0401203 255 0 0
-0.0125027 0.0646604 0.0401204 255 0 0
-0.0108308 0.0646604 0.0401204 255 0 0
-0.0091590 0.0646605 0.0401205 255 0 0
-0.0074871 0.0646605 0.0401205 255 0 0
-0.0058152 0.0646606 0.0401206 255 0 0
-0.0041434 0.0646606 0.0401207 255 0 0
-0.0024716 0.0646608 0.0401209 255 0 0
-0.0007997 0.0646609 0.0401212 255 0 0
0.0008723 0.0646611 0.0401219 255 0 0
0.0025441 0.0646614 0.0401232 255 0 0
0.0042160 0.0646616 0.0401245 255 0 0
0.0058879 0.0646609 0.0401265 255 0 0
0.0075598 0.0646601 0.0401301 255 0 0
0.0092317 0.0646584 0.0401342 255 0 0
-0.0359088 0.0663322 0.0401329 255 0 0
-0.0342369 0.0663339 0.0401283 255 0 0
-0.0325651 0.0663343 0.0401263 255 0 0
-0.0308932 0.0663338 0.0401244 255 0 0
-0.0292213 0.0663336 0.0401233 255 0 0
-0.0275495 0.0663335 0.0401227 255 0 0
-0.0258776 0.0663335 0.0401220 255 0 0
-0.0242057 0.0663335 0.0401218 255 0 0
-0.0225339 0.0663336 0.0401216 255 0 0
-0.0208620 0.0663336 0.0401215 255 0 0
-0.0191902 0.0663337 0.0401213 255 0 0
-0.0175183 0.0663338 0.0401213 255 0 0
-0.0158464 0.0663338 0.0401213 255 0 0
-0.0141746 0.0663338 0.0401213 255 0 0
-0.0125027 0.0663338 0.0401213 255 0 0
-0.0108308 0.0663338 0.0401213 255 0 0
-0.0091590 0.0663338 0.0401214 255 0 0
-0.0074871 0.0663336 0.0401215 255 0 0
-0.0058152 0.0663336 0.0401217 255 0 0
-0.0041434 0.0663335 0.0401219 255 0 0
-0.0024716 0.0663336 0.0401223 255 0 0
-0.0007997 0.0663336 0.0401231 255 0 0
0.0008723 0.0663338 0.0401236 255 0 0
0.0025441 0.0663339 0.0401250 255 0 0
0.0042160 0.0663339 0.0401266 255 0 0
0.0058879 0.0663335 0.0401289 255 0 0
0.0075599 0.0663314 0.0401330 255 0 0
0.0092317 0.0663312 0.0401382 255 0 0
-0.0359088 0.0680042 0.0401379 255 0 0
-0.0342369 0.0680059 0.0401316 255 0 0
-0.0325651 0.0680058 0.0401288 255 0 0
-0.0308932 0.0680061 0.0401260 255 0 0
-0.0292213 0.0680061 0.0401248 255 0 0
-0.0275495 0.0680058 0.0401240 255 0 0
-0.0258776 0.0680056 0.0401232 255 0 0
-0.0242057 0.0680055 0.0401228 255 0 0
-0.0225339 0.0680055 0.0401226 255 0 0
-0.0208620 0.0680054 0.0401224 255 0 0
-0.0191902 0.0680054 0.0401224 255 0 0
-0.0175183 0.0680054 0.0401223 255 0 0
-0.0158464 0.0680054 0.0401223 255 0 0
-0.0141746 0.0680054 0.0401223 255 0 0
-0.0125027 0.0680054 0.0401223 255 0 0
-0.0108308 0.0680054 0.0401224 255 0 0
-0.0091590 0.0680054 0.0401224 255 0 0
-0.0074871 0.0680054 0.0401226 255 0 0
-0.0058152 0.0680055 0.0401228 255 0 0
-0.0041433 0.0680056 0.0401231 255 0 0
-0.0024716 0.0680058 0.0401236 255 0 0
-0.0007997 0.0680060 0.0401244 255 0 0
0.0008723 0.0680062 0.0401251 255 0 0
0.0025441 0.0680062 0.0401266 255 0 0
0.0042160 0.0680061 0.0401288 255 0 0
0.0058879 0.0680061 0.0401315 255 0 0
0.0075599 0.0680042 0.0401359 255 0 0
0.0092318 0.0680035 0.0401414 255 0 0
-0.0359088 0.0696756 0.0401432 255 0 0
-0.0342369 0.0696784 0.0401349 255 0 0
-0.0325651 0.0696782 0.0401309 255 0 0
-0.0308932 0.0696786 0.0401278 255 0 0
-0.0292213 0.0696786 0.0401266 255 0 0
-0.0275495 0.0696781 0.0401251 255 0 0
-0.0258776 0.0696779 0.0401245 255 0 0
-0.0242057 0.0696777 0.0401241 255 0 0
-0.0225339 0.0696778 0.0401238 255 0 0
-0.0208620 0.0696780 0.0401236 255 0 0
-0.0191902 0.0696781 0.0401234 255 0 0
-0.0175183 0.0696781 0.0401233 255 0 0
-0.0158464 0.0696781 0.0401233 255 0 0
-0.0141746 0.0696781 0.0401233 255 0 0
-0.0125027 0.0696781 0.0401233 255 0 0
-0.0108308 0.0696781 0.0401234 255 0 0
-0.0091590 0.0696781 0.0401235 255 0 0
-0.0074871 0.0696780 0.0401237 255 0 0
-0.0058152 0.0696777 0.0401240 255 0 0
-0.0041433 0.0696775 0.0401243 255 0 0
-0.0024716 0.0696776 0.0401248 255 0 0
-0.0007997 0.0696778 0.0401255 255 0 0
0.0008723 0.0696782 0.0401266 255 0 0
0.0025442 0.0696783 0.0401284 255 0 0
0.0042161 0.0696787 0.0401308 255 0 0
0.0058880 0.0696780 0.0401345 255 0 0
0.0075604 0.0696765 0.0401398 255 0 0
0.0092319 0.0696759 0.0401457 255 0 0
-0.0359088 0.0713481 0.0401436 255 0 0
-0.0342369 0.0713500 0.0401364 255 0 0
-0.0325651 0.0713506 0.0401324 255 0 0
-0.0308932 0.0713508 0.0401288 255 0 0
-0.0292213 0.0713503 0.0401269 255 0 0
-0.0275495 0.0713501 0.0401256 255 0 0
-0.0258776 0.0713499 0.0401246 255 0 0
-0.0242057 0.0713498 0.0401244 255 0 0
-0.0225339 0.0713497 0.0401242 255 0 0
-0.0208620 0.0713496 0.0401240 255 0 0
-0.0191902 0.0713495 0.0401237 255 0 0
-0.0175183 0.0713494 0.0401236 255 0 0
-0.0158464 0.0713494 0.0401236 255 0 0
-0.0141746 0.0713494 0.0401236 255 0 0
-0.0125027 0.0713494 0.0401236 255 0 0
-0.0108308 0.0713494 0.0401237 255 0 0
-0.0091590 0.0713495 0.0401239 255 0 0
-0.0074871 0.0713496 0.0401240 255 0 0
-0.0058152 0.0713497 0.0401244 255 0 0
-0.0041433 0.0713498 0.0401246 255 0 0
-0.0024715 0.0713500 0.0401250 255 0 0
-0.0007997 0.0713504 0.0401259 255 0 0
0.0008723 0.0713507 0.0401272 255 0 0
0.0025444 0.0713509 0.0401294 255 0 0
0.0042161 0.0713504 0.0401322 255 0 0
0.0058880 0.0713495 0.0401359 255 0 0
0.0075605 0.0713487 0.0401411 255 0 0
-0.0342369 0.0730222 0.0401351 255 0 0
-0.0325651 0.0730224 0.0401314 255 0 0
-0.0308932 0.0730222 0.0401281 255 0 0
-0.0292213 0.0730226 0.0401267 255 0 0
-0.0275495 0.0730224 0.0401258 255 0 0
-0.0258776 0.0730221 0.0401249 255 0 0
-0.0242057 0.0730219 0.0401242 255 0 0
-0.0225339 0.0730218 0.0401240 255 0 0
-0.0208620 0.0730216 0.0401237 255 0 0
-0.0191902 0.0730215 0.0401236 255 0 0
-0.0175183 0.0730214 0.0401234 255 0 0
-0.0158464 0.0730214 0.0401234 255 0 0
-0.0141746 0.0730214 0.0401234 255 0 0
-0.0125027 0.0730215 0.0401235 255 0 0
-0.0108308 0.0730215 0.0401236 255 0 0
-0.0091590 0.0730216 0.0401237 255 0 0
-0.0074871 0.0730217 0.0401238 255 0 0
-0.0058152 0.0730219 0.0401242 255 0 0
-0.0041433 0.0730222 0.0401251 255 0 0
-0.0024715 0.0730225 0.0401260 255 0 0
-0.0007996 0.0730228 0.0401269 255 0 0
0.0008723 0.0730232 0.0401277 255 0 0
0.0025444 0.0730226 0.0401299 255 0 0
0.0042161 0.0730222 0.0401332 255 0 0
0.0058880 0.0730216 0.0401367 255 0 0
0.0075606 0.0730207 0.0401424 255 0 0
-0.0325651 0.0746941 0.0401418 255 0 0
-0.0308932 0.0746954 0.0401349 255 0 0
-0.0292213 0.0746952 0.0401313 255 0 0
-0.0275495 0.0746954 0.0401292 255 0 0
-0.0258776 0.0746947 0.0401273 255 0 0
-0.0242057 0.0746944 0.0401269 255 0 0
-0.0225339 0.0746942 0.0401261 255 0 0
-0.0208620 0.0746940 0.0401257 255 0 0
-0.0191902 0.0746940 0.0401253 255 0 0
-0.0175183 0.0746939 0.0401252 255 0 0
-0.0158464 0.0746938 0.0401251 255 0 0
-0.0141746 0.0746938 0.0401252 255 0 0
-0.0125027 0.0746937 0.0401252 255 0 0
-0.0108308 0.0746937 0.0401253 255 0 0
-0.0091590 0.0746937 0.0401255 255 0 0
-0.0074870 0.0746938 0.0401258 255 0 0
-0.0058152 0.0746939 0.0401265 255 0 0
-0.0041433 0.0746941 0.0401271 255 0 0
-0.0024715 0.0746947 0.0401279 255 0 0
-0.0007996 0.0746952 0.0401298 255 0 0
0.0008724 0.0746948 0.0401313 255 0 0
0.0025444 0.0746946 0.0401347 255 0 0
0.0042162 0.0746935 0.0401405 255 0 0
0.0058883 0.0746941 0.0401469 255 0 0
-0.0325651 0.0763674 0.0401500 255 0 0
-0.0308932 0.0763672 0.0401392 255 0 0
-0.0292213 0.0763675 0.0401350 255 0 0
-0.0275495 0.0763667 0.0401317 255 0 0
-0.0258776 0.0763673 0.0401292 255 0 0
-0.0242057 0.0763671 0.0401284 255 0 0
-0.0225339 0.0763669 0.0401277 255 0 0
-0.0208620 0.0763669 0.0401271 255 0 0
-0.0191902 0.0763669 0.0401267 255 0 0
-0.0175183 0.0763667 0.0401265 255 0 0
-0.0158464 0.0763667 0.0401264 255 0 0
-0.0141746 0.0763667 0.0401265 255 0 0
-0.0125027 0.0763668 0.0401265 255 0 0
-0.0108308 0.0763669 0.0401267 255 0 0
-0.0091590 0.0763669 0.0401271 255 0 0
-0.0074870 0.0763668 0.0401275 255 0 0
-0.0058152 0.0763670 0.0401285 255 0 0
