ply
format ascii 1.0
element vertex 1231
property float x
property float y
property float z
property uchar red
property uchar green
property uchar blue
end_header
-0.0359088 0.0512648 0.0400983 255 0 0
-0.0342369 0.0512648 0.0400983 255 0 0
-0.0325651 0.0512648 0.0400983 255 0 0
-0.0308932 0.0512648 0.0400983 255 0 0
-0.0292213 0.0512648 0.0400983 255 0 0
-0.0275495 0.0512648 0.0400983 255 0 0
-0.0258776 0.0512648 0.0400983 255 0 0
-0.0242057 0.0512648 0.0400983 255 0 0
-0.0225339 0.0512648 0.0400983 255 0 0
-0.0208620 0.0512648 0.0400983 255 0 0
-0.0191902 0.0512648 0.0400983 255 0 0
-0.0175183 0.0512648 0.0400983 255 0 0
-0.0158464 0.0512648 0.0400983 255 0 0
-0.0141746 0.0512648 0.0400983 255 0 0
-0.0125027 0.0512648 0.0400983 255 0 0
-0.0108308 0.0512648 0.0400983 255 0 0
-0.0091590 0.0512648 0.0400983 255 0 0
-0.0074871 0.0512648 0.0400983 255 0 0
-0.0058153 0.0512648 0.0400983 255 0 0
-0.0041434 0.0512648 0.0400983 255 0 0
-0.0024715 0.0512648 0.0400983 255 0 0
-0.0007997 0.0512648 0.0400983 255 0 0
0.0008722 0.0512648 0.0400983 255 0 0
0.0025441 0.0512648 0.0400983 255 0 0
0.0042159 0.0512648 0.0400983 255 0 0
0.0058878 0.0512648 0.0400983 255 0 0
0.0075596 0.0512648 0.0400983 255 0 0
-0.0392525 0.0529366 0.0400983 255 0 0
-0.0375807 0.0529366 0.0400983 255 0 0
-0.0359088 0.0529366 0.0400983 255 0 0
-0.0342369 0.0529366 0.0400983 255 0 0
-0.0325651 0.0529366 0.0400983 255 0 0
-0.0308932 0.0529366 0.0400983 255 0 0
-0.0292213 0.0529366 0.0400983 255 0 0
-0.0275495 0.0529366 0.0400983 255 0 0
-0.0258776 0.0529366 0.0400983 255 0 0
-0.0242057 0.0529366 0.0400983 255 0 0
-0.0225339 0.0529366 0.0400983 255 0 0
-0.0208620 0.0529366 0.0400983 255 0 0
-0.0191902 0.0529366 0.0400983 255 0 0
-0.0175183 0.0529366 0.0400983 255 0 0
-0.0158464 0.0529366 0.0400983 255 0 0
-0.0141746 0.0529366 0.0400983 255 0 0
-0.0125027 0.0529366 0.0400983 255 0 0
-0.0108308 0.0529366 0.0400983 255 0 0
-0.0091590 0.0529366 0.0400983 255 0 0
-0.0074871 0.0529366 0.0400983 255 0 0
-0.0058153 0.0529366 0.0400983 255 0 0
-0.0041434 0.0529366 0.0400983 255 0 0
-0.0024715 0.0529366 0.0400983 255 0 0
-0.0007997 0.0529366 0.0400983 255 0 0
0.0008722 0.0529366 0.0400983 255 0 0
0.0025441 0.0529366 0.0400983 255 0 0
0.0042159 0.0529366 0.0400983 255 0 0
0.0058878 0.0529366 0.0400983 255 0 0
0.0075596 0.0529366 0.0400983 255 0 0
-0.0392525 0.0546085 0.0400983 255 0 0
-0.0375807 0.0546085 0.0400983 255 0 0
-0.0359088 0.0546085 0.0400983 255 0 0
-0.0342369 0.0546085 0.0400983 255 0 0
-0.0325651 0.0546085 0.0400983 255 0 0
-0.0308932 0.0546085 0.0400983 255 0 0
-0.0292213 0.0546085 0.0400983 255 0 0
-0.0275495 0.0546085 0.0400983 255 0 0
-0.0258776 0.0546085 0.0400983 255 0 0
-0.0242057 0.0546085 0.0400983 255 0 0
-0.0225339 0.0546085 0.0400983 255 0 0
-0.0208620 0.0546085 0.0400983 255 0 0
-0.0191902 0.0546085 0.0400983 255 0 0
-0.0175183 0.0546085 0.0400983 255 0 0
-0.0158464 0.0546085 0.0400983 255 0 0
-0.0141746 0.0546085 0.0400983 255 0 0
-0.0125027 0.0546085 0.0400983 255 0 0
-0.0108308 0.0546085 0.0400983 255 0 0
-0.0091590 0.0546085 0.0400983 255 0 0
-0.0074871 0.0546085 0.0400983 255 0 0
-0.0058153 0.0546085 0.0400983 255 0 0
-0.0041434 0.0546085 0.0400983 255 0 0
-0.0024715 0.0546085 0.0400983 255 0 0
-0.0007997 0.0546085 0.0400983 255 0 0
0.0008722 0.0546085 0.0400983 255 0 0
0.0025441 0.0546085 0.0400983 255 0 0
0.0042159 0.0546085 0.0400983 255 0 0
0.0058878 0.0546085 0.0400983 255 0 0
0.0075596 0.0546085 0.0400983 255 0 0
0.0092315 0.0546085 0.0400983 255 0 0
-0.0392525 0.0562804 0.0400983 255 0 0
-0.0375807 0.0562804 0.0400983 255 0 0
-0.0359088 0.0562804 0.0400983 255 0 0
-0.0342369 0.0562804 0.0400983 255 0 0
-0.0325651 0.0562804 0.0400983 255 0 0
-0.0308932 0.0562804 0.0400983 255 0 0
-0.0292213 0.0562804 0.0400983 255 0 0
-0.0275495 0.0562804 0.0400983 255 0 0
-0.0258776 0.0562804 0.0400983 255 0 0
-0.0242057 0.0562804 0.0400983 255 0 0
-0.0225339 0.0562804 0.0400983 255 0 0
-0.0208620 0.0562804 0.0400983 255 0 0
-0.0191902 0.0562804 0.0400983 255 0 0
-0.0175183 0.0562804 0.0400983 255 0 0
-0.0158464 0.0562804 0.0400983 255 0 0
-0.0141746 0.0562804 0.0400983 255 0 0
-0.0125027 0.0562804 0.0400983 255 0 0
-0.0108308 0.0562804 0.0400983 255 0 0
-0.0091590 0.0562804 0.0400983 255 0 0
-0.0074871 0.0562804 0.0400983 255 0 0
-0.0058153 0.0562804 0.0400983 255 0 0
-0.0041434 0.0562804 0.0400983 255 0 0
-0.0024715 0.0562804 0.0400983 255 0 0
-0.0007997 0.0562804 0.0400983 255 0 0
0.0008722 0.0562804 0.0400983 255 0 0
0.0025441 0.0562804 0.0400983 255 0 0
0.0042159 0.0562804 0.0400983 255 0 0
0.0058878 0.0562804 0.0400983 255 0 0
0.0075596 0.0562804 0.0400983 255 0 0
0.0092315 0.0562804 0.0400983 255 0 0
-0.0392525 0.0579522 0.0400983 255 0 0
-0.0375807 0.0579522 0.0400983 255 0 0
-0.0359088 0.0579522 0.0400983 255 0 0
-0.0342369 0.0579522 0.0400983 255 0 0
-0.0325651 0.0579522 0.0400983 255 0 0
-0.0308932 0.0579522 0.0400983 255 0 0
-0.0292213 0.0579522 0.0400983 255 0 0
-0.0275495 0.0579522 0.0400983 255 0 0
-0.0258776 0.0579522 0.0400983 255 0 0
-0.0242057 0.0579522 0.0400983 255 0 0
-0.0225339 0.0579522 0.0400983 255 0 0
-0.0208620 0.0579522 0.0400983 255 0 0
-0.0191902 0.0579522 0.0400983 255 0 0
-0.0175183 0.0579522 0.0400983 255 0 0
-0.0158464 0.0579522 0.0400983 255 0 0
-0.0141746 0.0579522 0.0400983 255 0 0
-0.0125027 0.0579522 0.0400983 255 0 0
-0.0108308 0.0579522 0.0400983 255 0 0
-0.0091590 0.0579522 0.0400983 255 0 0
-0.0074871 0.0579522 0.0400983 255 0 0
-0.0058153 0.0579522 0.0400983 255 0 0
-0.0041434 0.0579522 0.0400983 255 0 0
-0.0024715 0.0579522 0.0400983 255 0 0
-0.0007997 0.0579522 0.0400983 255 0 0
0.0008722 0.0579522 0.0400983 255 0 0
0.0025441 0.0579522 0.0400983 255 0 0
0.0042159 0.0579522 0.0400983 255 0 0
0.0058878 0.0579522 0.0400983 255 0 0
0.0075596 0.0579522 0.0400983 255 0 0
0.0092315 0.0579522 0.0400983 255 0 0
0.0109034 0.0579522 0.0400983 255 0 0
-0.0392525 0.0596241 0.0400983 255 0 0
-0.0375807 0.0596241 0.0400983 255 0 0
-0.0359088 0.0596241 0.0400983 255 0 0
-0.0342369 0.0596241 0.0400983 255 0 0
-0.0325651 0.0596241 0.0400983 255 0 0
-0.0308932 0.0596241 0.0400983 255 0 0
-0.0292213 0.0596241 0.0400983 255 0 0
-0.0275495 0.0596241 0.0400983 255 0 0
-0.0258776 0.0596241 0.0400983 255 0 0
-0.0242057 0.0596241 0.0400983 255 0 0
-0.0225339 0.0596241 0.0400983 255 0 0
-0.0208620 0.0596241 0.0400983 255 0 0
-0.0191902 0.0596241 0.0400983 255 0 0
-0.0175183 0.0596241 0.0400983 255 0 0
-0.0158464 0.0596241 0.0400983 255 0 0
-0.0141746 0.0596241 0.0400983 255 0 0
-0.0125027 0.0596241 0.0400983 255 0 0
-0.0108308 0.0596241 0.0400983 255 0 0
-0.0091590 0.0596241 0.0400983 255 0 0
-0.0074871 0.0596241 0.0400983 255 0 0
-0.0058153 0.0596241 0.0400983 255 0 0
-0.0041434 0.0596241 0.0400983 255 0 0
-0.0024715 0.0596241 0.0400983 255 0 0
-0.0007997 0.0596241 0.0400983 255 0 0
0.0008722 0.0596241 0.0400983 255 0 0
0.0025441 0.0596241 0.0400983 255 0 0
0.0042159 0.0596241 0.0400983 255 0 0
0.0058878 0.0596241 0.0400983 255 0 0
0.0075596 0.0596241 0.0400983 255 0 0
0.0092315 0.0596241 0.0400983 255 0 0
0.0109034 0.0596241 0.0400983 255 0 0
-0.0375807 0.0612959 0.0400983 255 0 0
-0.0359088 0.0612959 0.0400983 255 0 0
-0.0342369 0.0612959 0.0400983 255 0 0
-0.0325651 0.0612959 0.0400983 255 0 0
-0.0308932 0.0612959 0.0400983 255 0 0
-0.0292213 0.0612959 0.0400983 255 0 0
-0.0275495 0.0612959 0.0400983 255 0 0
-0.0258776 0.0612959 0.0400983 255 0 0
-0.0242057 0.0612959 0.0400983 255 0 0
-0.0225339 0.0612959 0.0400983 255 0 0
-0.0208620 0.0612959 0.0400983 255 0 0
-0.0191902 0.0612959 0.0400983 255 0 0
-0.0175183 0.0612959 0.0400983 255 0 0
-0.0158464 0.0612959 0.0400983 255 0 0
-0.0141746 0.0612959 0.0400983 255 0 0
-0.0125027 0.0612959 0.0400983 255 0 0
-0.0108308 0.0612959 0.0400983 255 0 0
-0.0091590 0.0612959 0.0400983 255 0 0
-0.0074871 0.0612959 0.0400983 255 0 0
-0.0058153 0.0612959 0.0400983 255 0 0
-0.0041434 0.0612959 0.0400983 255 0 0
-0.0024715 0.0612959 0.0400983 255 0 0
-0.0007997 0.0612959 0.0400983 255 0 0
0.0008722 0.0612959 0.0400983 255 0 0
0.0025441 0.0612959 0.0400983 255 0 0
0.0042159 0.0612959 0.0400983 255 0 0
0.0058878 0.0612959 0.0400983 255 0 0
0.0075596 0.0612959 0.0400983 255 0 0
0.0092315 0.0612959 0.0400983 255 0 0
-0.0375807 0.0629988 0.0400983 255 0 0
-0.0359088 0.0629988 0.0400983 255 0 0
-0.0342369 0.0629988 0.0400983 255 0 0
-0.0325651 0.0629988 0.0400983 255 0 0
-0.0308932 0.0629988 0.0400983 255 0 0
-0.0292213 0.0629988 0.0400983 255 0 0
-0.0275495 0.0629988 0.0400983 255 0 0
-0.0258776 0.0629988 0.0400983 255 0 0
-0.0242057 0.0629988 0.0400983 255 0 0
-0.0225339 0.0629988 0.0400983 255 0 0
-0.0208620 0.0629988 0.0400983 255 0 0
-0.0191902 0.0629988 0.0400983 255 0 0
-0.0175183 0.0629988 0.0400983 255 0 0
-0.0158464 0.0629988 0.0400983 255 0 0
-0.0141746 0.0629988 0.0400983 255 0 0
-0.0125027 0.0629988 0.0400983 255 0 0
-0.0108308 0.0629988 0.0400983 255 0 0
-0.0091590 0.0629988 0.0400983 255 0 0
-0.0074871 0.0629988 0.0400983 255 0 0
-0.0058153 0.0629988 0.0400983 255 0 0
-0.0041434 0.0629988 0.0400983 255 0 0
-0.0024715 0.0629988 0.0400983 255 0 0
-0.0007997 0.0629988 0.0400983 255 0 0
0.0008722 0.0629988 0.0400983 255 0 0
0.0025441 0.0629988 0.0400983 255 0 0
0.0042159 0.0629988 0.0400983 255 0 0
0.0058878 0.0629988 0.0400983 255 0 0
0.0075596 0.0629988 0.0400983 255 0 0
0.0092315 0.0629988 0.0400983 255 0 0
-0.0375807 0.0646707 0.0400983 255 0 0
-0.0359088 0.0646707 0.0400983 255 0 0
-0.0342369 0.0646707 0.0400983 255 0 0
-0.0325651 0.0646707 0.0400983 255 0 0
-0.0308932 0.0646707 0.0400983 255 0 0
-0.0292213 0.0646707 0.0400983 255 0 0
-0.0275495 0.0646707 0.0400983 255 0 0
-0.0258776 0.0646707 0.0400983 255 0 0
-0.0242057 0.0646707 0.0400983 255 0 0
-0.0225339 0.0646707 0.0400983 255 0 0
-0.0208620 0.0646707 0.0400983 255 0 0
-0.0191902 0.0646707 0.0400983 255 0 0
-0.0175183 0.0646707 0.0400983 255 0 0
-0.0158464 0.0646707 0.0400983 255 0 0
-0.0141746 0.0646707 0.0400983 255 0 0
-0.0125027 0.0646707 0.0400983 255 0 0
-0.0108308 0.0646707 0.0400983 255 0 0
-0.0091590 0.0646707 0.0400983 255 0 0
-0.0074871 0.0646707 0.0400983 255 0 0
-0.0058153 0.0646707 0.0400983 255 0 0
-0.0041434 0.0646707 0.0400983 255 0 0
-0.0024715 0.0646707 0.0400983 255 0 0
-0.0007997 0.0646707 0.0400983 255 0 0
0.0008722 0.0646707 0.0400983 255 0 0
0.0025441 0.0646707 0.0400983 255 0 0
0.0042159 0.0646707 0.0400983 255 0 0
0.0058878 0.0646707 0.0400983 255 0 0
0.0075596 0.0646707 0.0400983 255 0 0
0.0092315 0.0646707 0.0400983 255 0 0
-0.0359088 0.0663426 0.0400983 255 0 0
-0.0342369 0.0663426 0.0400983 255 0 0
-0.0325651 0.0663426 0.0400983 255 0 0
-0.0308932 0.0663426 0.0400983 255 0 0
-0.0292213 0.0663426 0.0400983 255 0 0
-0.0275495 0.0663426 0.0400983 255 0 0
-0.0258776 0.0663426 0.0400983 255 0 0
-0.0242057 0.0663426 0.0400983 255 0 0
-0.0225339 0.0663426 0.0400983 255 0 0
-0.0208620 0.0663426 0.0400983 255 0 0
-0.0191902 0.0663426 0.0400983 255 0 0
-0.0175183 0.0663426 0.0400983 255 0 0
-0.0158464 0.0663426 0.0400983 255 0 0
-0.0141746 0.0663426 0.0400983 255 0 0
-0.0125027 0.0663426 0.0400983 255 0 0
-0.0108308 0.0663426 0.0400983 255 0 0
-0.0091590 0.0663426 0.0400983 255 0 0
-0.0074871 0.0663426 0.0400983 255 0 0
-0.0058153 0.0663426 0.0400983 255 0 0
-0.0041434 0.0663426 0.0400983 255 0 0
-0.0024715 0.0663426 0.0400983 255 0 0
-0.0007997 0.0663426 0.0400983 255 0 0
0.0008722 0.0663426 0.0400983 255 0 0
0.0025441 0.0663426 0.0400983 255 0 0
0.0042159 0.0663426 0.0400983 255 0 0
0.0058878 0.0663426 0.0400983 255 0 0
0.0075596 0.0663426 0.0400983 255 0 0
0.0092315 0.0663426 0.0400983 255 0 0
-0.0359088 0.0680144 0.0400983 255 0 0
-0.0342369 0.0680144 0.0400983 255 0 0
-0.0325651 0.0680144 0.0400983 255 0 0
-0.0308932 0.0680144 0.0400983 255 0 0
-0.0292213 0.0680144 0.0400983 255 0 0
-0.0275495 0.0680144 0.0400983 255 0 0
-0.0258776 0.0680144 0.0400983 255 0 0
-0.0242057 0.0680144 0.0400983 255 0 0
-0.0225339 0.0680144 0.0400983 255 0 0
-0.0208620 0.0680144 0.0400983 255 0 0
-0.0191902 0.0680144 0.0400983 255 0 0
-0.0175183 0.0680144 0.0400983 255 0 0
-0.0158464 0.0680144 0.0400983 255 0 0
-0.0141746 0.0680144 0.0400983 255 0 0
-0.0125027 0.0680144 0.0400983 255 0 0
-0.0108308 0.0680144 0.0400983 255 0 0
-0.0091590 0.0680144 0.0400983 255 0 0
-0.0074871 0.0680144 0.0400983 255 0 0
-0.0058153 0.0680144 0.0400983 255 0 0
-0.0041434 0.0680144 0.0400983 255 0 0
-0.0024715 0.0680144 0.0400983 255 0 0
-0.0007997 0.0680144 0.0400983 255 0 0
0.0008722 0.0680144 0.0400983 255 0 0
0.0025441 0.0680144 0.0400983 255 0 0
0.0042159 0.0680144 0.0400983 255 0 0
0.0058878 0.0680144 0.0400983 255 0 0
0.0075596 0.0680144 0.0400983 255 0 0
0.0092315 0.0680144 0.0400983 255 0 0
-0.0359088 0.0696863 0.0400983 255 0 0
-0.0342369 0.0696863 0.0400983 255 0 0
-0.0325651 0.0696863 0.0400983 255 0 0
-0.0308932 0.0696863 0.0400983 255 0 0
-0.0292213 0.0696863 0.0400983 255 0 0
-0.0275495 0.0696863 0.0400983 255 0 0
-0.0258776 0.0696863 0.0400983 255 0 0
-0.0242057 0.0696863 0.0400983 255 0 0
-0.0225339 0.0696863 0.0400983 255 0 0
-0.0208620 0.0696863 0.0400983 255 0 0
-0.0191902 0.0696863 0.0400983 255 0 0
-0.0175183 0.0696863 0.0400983 255 0 0
-0.0158464 0.0696863 0.0400983 255 0 0
-0.0141746 0.0696863 0.0400983 255 0 0
-0.0125027 0.0696863 0.0400983 255 0 0
-0.0108308 0.0696863 0.0400983 255 0 0
-0.0091590 0.0696863 0.0400983 255 0 0
-0.0074871 0.0696863 0.0400983 255 0 0
-0.0058153 0.0696863 0.0400983 255 0 0
-0.0041434 0.0696863 0.0400983 255 0 0
-0.0024715 0.0696863 0.0400983 255 0 0
-0.0007997 0.0696863 0.0400983 255 0 0
0.0008722 0.0696863 0.0400983 255 0 0
0.0025441 0.0696863 0.0400983 255 0 0
0.0042159 0.0696863 0.0400983 255 0 0
0.0058878 0.0696863 0.0400983 255 0 0
0.0075596 0.0696863 0.0400983 255 0 0
0.0092315 0.0696863 0.0400983 255 0 0
-0.0359088 0.0713582 0.0400983 255 0 0
-0.0342369 0.0713582 0.0400983 255 0 0
-0.0325651 0.0713582 0.0400983 255 0 0
-0.0308932 0.0713582 0.0400983 255 0 0
-0.0292213 0.0713582 0.0400983 255 0 0
-0.0275495 0.0713582 0.0400983 255 0 0
-0.0258776 0.0713582 0.0400983 255 0 0
-0.0242057 0.0713581 0.0400983 255 0 0
-0.0225339 0.0713581 0.0400983 255 0 0
-0.0208620 0.0713581 0.0400983 255 0 0
-0.0191902 0.0713581 0.0400983 255 0 0
-0.0175183 0.0713581 0.0400983 255 0 0
-0.0158464 0.0713581 0.0400983 255 0 0
-0.0141746 0.0713581 0.0400983 255 0 0
-0.0125027 0.0713581 0.0400983 255 0 0
-0.0108308 0.0713581 0.0400983 255 0 0
-0.0091590 0.0713581 0.0400983 255 0 0
-0.0074871 0.0713581 0.0400983 255 0 0
-0.0058153 0.0713581 0.0400983 255 0 0
-0.0041434 0.0713581 0.0400983 255 0 0
-0.0024715 0.0713581 0.0400983 255 0 0
-0.0007997 0.0713581 0.0400983 255 0 0
0.0008722 0.0713581 0.0400983 255 0 0
0.0025441 0.0713581 0.0400983 255 0 0
0.0042159 0.0713581 0.0400983 255 0 0
0.0058878 0.0713582 0.0400983 255 0 0
0.0075596 0.0713582 0.0400983 255 0 0
-0.0342369 0.0730300 0.0400983 255 0 0
-0.0325651 0.0730300 0.0400983 255 0 0
-0.0308932 0.0730300 0.0400983 255 0 0
-0.0292213 0.0730300 0.0400983 255 0 0
-0.0275495 0.0730300 0.0400983 255 0 0
-0.0258776 0.0730300 0.0400983 255 0 0
-0.0242057 0.0730300 0.0400983 255 0 0
-0.0225339 0.0730300 0.0400983 255 0 0
-0.0208620 0.0730299 0.0400983 255 0 0
-0.0191902 0.0730299 0.0400983 255 0 0
-0.0175183 0.0730299 0.0400983 255 0 0
-0.0158464 0.0730299 0.0400983 255 0 0
-0.0141746 0.0730299 0.0400983 255 0 0
-0.0125027 0.0730299 0.0400983 255 0 0
-0.0108308 0.0730299 0.0400983 255 0 0
-0.0091590 0.0730299 0.0400983 255 0 0
-0.0074871 0.0730299 0.0400983 255 0 0
-0.0058153 0.0730299 0.0400983 255 0 0
-0.0041434 0.0730299 0.0400983 255 0 0
-0.0024715 0.0730299 0.0400983 255 0 0
-0.0007997 0.0730299 0.0400983 255 0 0
0.0008722 0.0730300 0.0400983 255 0 0
0.0025441 0.0730300 0.0400983 255 0 0
0.0042159 0.0730300 0.0400983 255 0 0
0.0058878 0.0730300 0.0400983 255 0 0
0.0075596 0.0730300 0.0400983 255 0 0
-0.0325651 0.0747019 0.0400983 255 0 0
-0.0308932 0.0747019 0.0400983 255 0 0
-0.0292213 0.0747019 0.0400983 255 0 0
-0.0275495 0.0747019 0.0400983 255 0 0
-0.0258776 0.0747019 0.0400983 255 0 0
-0.0242057 0.0747019 0.0400983 255 0 0
-0.0225339 0.0747019 0.0400983 255 0 0
-0.0208620 0.0747019 0.0400983 255 0 0
-0.0191902 0.0747019 0.0400983 255 0 0
-0.0175183 0.0747019 0.0400983 255 0 0
-0.0158464 0.0747018 0.0400983 255 0 0
-0.0141746 0.0747018 0.0400983 255 0 0
-0.0125027 0.0747018 0.0400983 255 0 0
-0.0108308 0.0747018 0.0400983 255 0 0
-0.0091590 0.0747018 0.0400983 255 0 0
-0.0074871 0.0747018 0.0400983 255 0 0
-0.0058153 0.0747018 0.0400983 255 0 0
-0.0041434 0.0747019 0.0400983 255 0 0
-0.0024715 0.0747019 0.0400983 255 0 0
-0.0007997 0.0747019 0.0400983 255 0 0
0.0008722 0.0747019 0.0400983 255 0 0
0.0025441 0.0747019 0.0400983 255 0 0
0.0042159 0.0747019 0.0400983 255 0 0
0.0058878 0.0747019 0.0400983 255 0 0
-0.0325651 0.0763737 0.0400983 255 0 0
-0.0308932 0.0763738 0.0400983 255 0 0
-0.0292213 0.0763738 0.0400983 255 0 0
-0.0275495 0.0763738 0.0400984 255 0 0
-0.0258776 0.0763738 0.0400984 255 0 0
-0.0242057 0.0763738 0.0400984 255 0 0
-0.0225339 0.0763738 0.0400984 255 0 0
-0.0208620 0.0763737 0.0400984 255 0 0
-0.0191902 0.0763737 0.0400983 255 0 0
-0.0175183 0.0763737 0.0400983 255 0 0
-0.0158464 0.0763737 0.0400983 255 0 0
-0.0141746 0.0763736 0.0400983 255 0 0
-0.0125027 0.0763737 0.0400983 255 0 0
-0.0108308 0.0763737 0.0400983 255 0 0
-0.0091590 0.0763737 0.0400983 255 0 0
-0.0074871 0.0763737 0.0400984 255 0 0
-0.0058153 0.0763737 0.0400984 255 0 0
-0.0041434 0.0763737 0.0400984 255 0 0
-0.0024715 0.0763737 0.0400983 255 0 0
-0.0007997 0.0763737 0.0400983 255 0 0
0.0008722 0.0763737 0.0400983 255 0 0
0.0025441 0.0763737 0.0400983 255 0 0
0.0042159 0.0763737 0.0400983 255 0 0
0.0058878 0.0763737 0.0400983 255 0 0
-0.0308932 0.0780457 0.0400984 255 0 0
-0.0292213 0.0780458 0.0400984 255 0 0
-0.0275495 0.0780458 0.0400984 255 0 0
-0.0258776 0.0780458 0.0400984 255 0 0
-0.0242057 0.0780459 0.0400984 255 0 0
-0.0225339 0.0780459 0.0400984 255 0 0
-0.0208620 0.0780458 0.0400984 255 0 0
-0.0191902 0.0780458 0.0400984 255 0 0
-0.0175183 0.0780457 0.0400984 255 0 0
-0.0158464 0.0780457 0.0400984 255 0 0
-0.0141746 0.0780457 0.0400984 255 0 0
-0.0125027 0.0780457 0.0400984 255 0 0
-0.0108308 0.0780457 0.0400984 255 0 0
-0.0091590 0.0780458 0.0400984 255 0 0
-0.0074871 0.0780458 0.0400984 255 0 0
-0.0058153 0.0780459 0.0400984 255 0 0
-0.0041434 0.0780458 0.0400984 255 0 0
-0.0024715 0.0780457 0.0400984 255 0 0
-0.0007997 0.0780457 0.0400984 255 0 0
0.0008722 0.0780457 0.0400984 255 0 0
0.0025441 0.0780457 0.0400984 255 0 0
0.0042159 0.0780456 0.0400984 255 0 0
-0.0308932 0.0797174 0.0400983 255 0 0
-0.0292213 0.0797174 0.0400983 255 0 0
-0.0275495 0.0797175 0.0400984 255 0 0
-0.0258776 0.0797175 0.0400984 255 0 0
-0.0242057 0.0797175 0.0400984 255 0 0
-0.0225339 0.0797174 0.0400984 255 0 0
-0.0208620 0.0797173 0.0400983 255 0 0
-0.0191902 0.0797173 0.0400983 255 0 0
-0.0175183 0.0797172 0.0400983 255 0 0
-0.0158464 0.0797172 0.0400983 255 0 0
-0.0141746 0.0797171 0.0400983 255 0 0
-0.0125027 0.0797171 0.0400983 255 0 0
-0.0108309 0.0797172 0.0400983 255 0 0
-0.0091590 0.0797172 0.0400983 255 0 0
-0.0074871 0.0797173 0.0400983 255 0 0
-0.0058153 0.0797173 0.0400983 255 0 0
-0.0041434 0.0797173 0.0400983 255 0 0
-0.0024715 0.0797173 0.0400983 255 0 0
-0.0007997 0.0797174 0.0400983 255 0 0
0.0008722 0.0797173 0.0400983 255 0 0
0.0025441 0.0797173 0.0400983 255 0 0
-0.0292214 0.0813882 0.0400981 255 0 0
-0.0275495 0.0813882 0.0400981 255 0 0
-0.0258776 0.0813880 0.0400981 255 0 0
-0.0242058 0.0813877 0.0400980 255 0 0
-0.0225339 0.0813873 0.0400979 255 0 0
-0.0208621 0.0813872 0.0400979 255 0 0
-0.0191902 0.0813870 0.0400978 255 0 0
-0.0175183 0.0813866 0.0400977 255 0 0
-0.0158465 0.0813860 0.0400976 255 0 0
-0.0141746 0.0813855 0.0400975 255 0 0
-0.0125028 0.0813860 0.0400976 255 0 0
-0.0108309 0.0813863 0.0400976 255 0 0
-0.0091590 0.0813865 0.0400977 255 0 0
-0.0074872 0.0813866 0.0400977 255 0 0
-0.0058153 0.0813866 0.0400977 255 0 0
-0.0041434 0.0813874 0.0400979 255 0 0
-0.0024715 0.0813880 0.0400980 255 0 0
-0.0007994 0.0813883 0.0400981 255 0 0
-0.0258776 0.0830636 0.0400989 255 0 0
-0.0242057 0.0830638 0.0400990 255 0 0
-0.0225338 0.0830641 0.0400991 255 0 0
-0.0208620 0.0830635 0.0400989 255 0 0
-0.0191901 0.0830632 0.0400989 255 0 0
-0.0175183 0.0830630 0.0400988 255 0 0
-0.0158464 0.0830631 0.0400989 255 0 0
-0.0141745 0.0830633 0.0400989 255 0 0
-0.0125027 0.0830632 0.0400989 255 0 0
-0.0108308 0.0830633 0.0400989 255 0 0
-0.0091589 0.0830635 0.0400989 255 0 0
-0.0074871 0.0830640 0.0400991 255 0 0
-0.0058152 0.0830643 0.0400991 255 0 0
-0.0041434 0.0830636 0.0400990 255 0 0
-0.0024720 0.0830631 0.0400988 255 0 0
-0.0242057 0.0847374 0.0400995 255 0 0
-0.0225338 0.0847377 0.0400995 255 0 0
-0.0208619 0.0847368 0.0400993 255 0 0
-0.0191901 0.0847361 0.0400991 255 0 0
-0.0175182 0.0847358 0.0400991 255 0 0
-0.0158464 0.0847359 0.0400991 255 0 0
-0.0141745 0.0847362 0.0400991 255 0 0
-0.0125027 0.0847360 0.0400991 255 0 0
-0.0108308 0.0847362 0.0400992 255 0 0
-0.0091589 0.0847366 0.0400993 255 0 0
-0.0074870 0.0847375 0.0400995 255 0 0
-0.0058152 0.0847381 0.0400997 255 0 0
-0.0175182 0.0864077 0.0400991 255 0 0
-0.0158464 0.0864076 0.0400991 255 0 0
-0.0141745 0.0864078 0.0400992 255 0 0
-0.0125026 0.0864076 0.0400993 255 0 0
-0.0108308 0.0864078 0.0400993 255 0 0
-0.0191902 0.0345461 0.0417702 255 0 0
-0.0175183 0.0345461 0.0417702 255 0 0
-0.0158464 0.0345461 0.0417702 255 0 0
-0.0141746 0.0345461 0.0417702 255 0 0
-0.0125027 0.0345461 0.0417702 255 0 0
-0.0225339 0.0362180 0.0417702 255 0 0
-0.0208620 0.0362180 0.0417702 255 0 0
-0.0191902 0.0362180 0.0417702 255 0 0
-0.0175183 0.0362180 0.0417702 255 0 0
-0.0158464 0.0362180 0.0417702 255 0 0
-0.0141746 0.0362180 0.0417702 255 0 0
-0.0125027 0.0362180 0.0417702 255 0 0
-0.0108308 0.0362180 0.0417702 255 0 0
-0.0091590 0.0362180 0.0417702 255 0 0
-0.0258776 0.0378899 0.0417702 255 0 0
-0.0242057 0.0378899 0.0417702 255 0 0
-0.0225339 0.0378899 0.0417702 255 0 0
-0.0208620 0.0378899 0.0417702 255 0 0
-0.0191902 0.0378899 0.0417702 255 0 0
-0.0175183 0.0378899 0.0417702 255 0 0
-0.0158464 0.0378899 0.0417702 255 0 0
-0.0141746 0.0378899 0.0417702 255 0 0
-0.0125027 0.0378899 0.0417702 255 0 0
-0.0108308 0.0378899 0.0417702 255 0 0
-0.0091590 0.0378899 0.0417702 255 0 0
-0.0074871 0.0378899 0.0417702 255 0 0
-0.0058153 0.0378899 0.0417702 255 0 0
-0.0275495 0.0395617 0.0417702 255 0 0
-0.0258776 0.0395617 0.0417702 255 0 0
-0.0242057 0.0395617 0.0417702 255 0 0
-0.0225339 0.0395617 0.0417702 255 0 0
-0.0208620 0.0395617 0.0417702 255 0 0
-0.0191902 0.0395617 0.0417702 255 0 0
-0.0175183 0.0395617 0.0417702 255 0 0
-0.0158464 0.0395617 0.0417702 255 0 0
-0.0141746 0.0395617 0.0417702 255 0 0
-0.0125027 0.0395617 0.0417702 255 0 0
-0.0108308 0.0395617 0.0417702 255 0 0
-0.0091590 0.0395617 0.0417702 255 0 0
-0.0074871 0.0395617 0.0417702 255 0 0
-0.0058153 0.0395617 0.0417702 255 0 0
-0.0041434 0.0395617 0.0417702 255 0 0
-0.0292213 0.0412336 0.0417702 255 0 0
-0.0275495 0.0412336 0.0417702 255 0 0
-0.0258776 0.0412336 0.0417702 255 0 0
-0.0242057 0.0412336 0.0417702 255 0 0
-0.0225339 0.0412336 0.0417702 255 0 0
-0.0208620 0.0412336 0.0417702 255 0 0
-0.0191902 0.0412336 0.0417702 255 0 0
-0.0175183 0.0412336 0.0417702 255 0 0
-0.0158464 0.0412336 0.0417702 255 0 0
-0.0141746 0.0412336 0.0417702 255 0 0
-0.0125027 0.0412336 0.0417702 255 0 0
-0.0108308 0.0412336 0.0417702 255 0 0
-0.0091590 0.0412336 0.0417702 255 0 0
-0.0074871 0.0412336 0.0417702 255 0 0
-0.0058153 0.0412336 0.0417702 255 0 0
-0.0041434 0.0412336 0.0417702 255 0 0
-0.0024715 0.0412336 0.0417702 255 0 0
-0.0007997 0.0412336 0.0417702 255 0 0
-0.0308932 0.0429055 0.0417702 255 0 0
-0.0292213 0.0429055 0.0417702 255 0 0
-0.0275495 0.0429055 0.0417702 255 0 0
-0.0258776 0.0429055 0.0417702 255 0 0
-0.0242057 0.0429055 0.0417702 255 0 0
-0.0225339 0.0429055 0.0417702 255 0 0
-0.0208620 0.0429055 0.0417702 255 0 0
-0.0191902 0.0429055 0.0417702 255 0 0
-0.0175183 0.0429055 0.0417702 255 0 0
-0.0158464 0.0429055 0.0417702 255 0 0
-0.0141746 0.0429055 0.0417702 255 0 0
-0.0125027 0.0429055 0.0417702 255 0 0
-0.0108308 0.0429055 0.0417702 255 0 0
-0.0091590 0.0429055 0.0417702 255 0 0
-0.0074871 0.0429055 0.0417702 255 0 0
-0.0058153 0.0429055 0.0417702 255 0 0
-0.0041434 0.0429055 0.0417702 255 0 0
-0.0024715 0.0429055 0.0417702 255 0 0
-0.0007997 0.0429055 0.0417702 255 0 0
0.0008722 0.0429055 0.0417702 255 0 0
-0.0342369 0.0445773 0.0417702 255 0 0
-0.0325651 0.0445773 0.0417702 255 0 0
-0.0308932 0.0445773 0.0417702 255 0 0
-0.0292213 0.0445773 0.0417702 255 0 0
-0.0275495 0.0445773 0.0417702 255 0 0
-0.0258776 0.0445773 0.0417702 255 0 0
-0.0242057 0.0445773 0.0417702 255 0 0
-0.0225339 0.0445773 0.0417702 255 0 0
-0.0208620 0.0445773 0.0417702 255 0 0
-0.0191902 0.0445773 0.0417702 255 0 0
-0.0175183 0.0445773 0.0417702 255 0 0
-0.0158464 0.0445773 0.0417702 255 0 0
-0.0141746 0.0445773 0.0417702 255 0 0
-0.0125027 0.0445773 0.0417702 255 0 0
-0.0108308 0.0445773 0.0417702 255 0 0
-0.0091590 0.0445773 0.0417702 255 0 0
-0.0074871 0.0445773 0.0417702 255 0 0
-0.0058153 0.0445773 0.0417702 255 0 0
-0.0041434 0.0445773 0.0417702 255 0 0
-0.0024715 0.0445773 0.0417702 255 0 0
-0.0007997 0.0445773 0.0417702 255 0 0
0.0008722 0.0445773 0.0417702 255 0 0
0.0025441 0.0445773 0.0417702 255 0 0
-0.0342369 0.0462492 0.0417702 255 0 0
-0.0325651 0.0462492 0.0417702 255 0 0
-0.0308932 0.0462492 0.0417702 255 0 0
-0.0292213 0.0462492 0.0417702 255 0 0
-0.0275495 0.0462492 0.0417702 255 0 0
-0.0258776 0.0462492 0.0417702 255 0 0
-0.0242057 0.0462492 0.0417702 255 0 0
-0.0225339 0.0462492 0.0417702 255 0 0
-0.0208620 0.0462492 0.0417702 255 0 0
-0.0191902 0.0462492 0.0417702 255 0 0
-0.0175183 0.0462492 0.0417702 255 0 0
-0.0158464 0.0462492 0.0417702 255 0 0
-0.0141746 0.0462492 0.0417702 255 0 0
-0.0125027 0.0462492 0.0417702 255 0 0
-0.0108308 0.0462492 0.0417702 255 0 0
-0.0091590 0.0462492 0.0417702 255 0 0
-0.0074871 0.0462492 0.0417702 255 0 0
-0.0058153 0.0462492 0.0417702 255 0 0
-0.0041434 0.0462492 0.0417702 255 0 0
-0.0024715 0.0462492 0.0417702 255 0 0
-0.0007997 0.0462492 0.0417702 255 0 0
0.0008722 0.0462492 0.0417702 255 0 0
0.0025441 0.0462492 0.0417702 255 0 0
0.0042159 0.0462492 0.0417702 255 0 0
-0.0359088 0.0479210 0.0417702 255 0 0
-0.0342369 0.0479210 0.0417702 255 0 0
-0.0325651 0.0479210 0.0417702 255 0 0
-0.0308932 0.0479210 0.0417702 255 0 0
-0.0292213 0.0479210 0.0417702 255 0 0
-0.0275495 0.0479210 0.0417702 255 0 0
-0.0258776 0.0479210 0.0417702 255 0 0
-0.0242057 0.0479210 0.0417702 255 0 0
-0.0225339 0.0479210 0.0417702 255 0 0
-0.0208620 0.0479210 0.0417702 255 0 0
-0.0191902 0.0479210 0.0417702 255 0 0
-0.0175183 0.0479210 0.0417702 255 0 0
-0.0158464 0.0479210 0.0417702 255 0 0
-0.0141746 0.0479210 0.0417702 255 0 0
-0.0125027 0.0479210 0.0417702 255 0 0
-0.0108308 0.0479210 0.0417702 255 0 0
-0.0091590 0.0479210 0.0417702 255 0 0
-0.0074871 0.0479210 0.0417702 255 0 0
-0.0058153 0.0479210 0.0417702 255 0 0
-0.0041434 0.0479210 0.0417702 255 0 0
-0.0024715 0.0479210 0.0417702 255 0 0
-0.0007997 0.0479210 0.0417702 255 0 0
0.0008722 0.0479210 0.0417702 255 0 0
0.0025441 0.0479210 0.0417702 255 0 0
0.0042159 0.0479210 0.0417702 255 0 0
0.0058878 0.0479210 0.0417702 255 0 0
-0.0359088 0.0495929 0.0417702 255 0 0
-0.0342369 0.0495929 0.0417702 255 0 0
-0.0325651 0.0495929 0.0417702 255 0 0
-0.0308932 0.0495929 0.0417702 255 0 0
-0.0292213 0.0495929 0.0417702 255 0 0
-0.0275495 0.0495929 0.0417702 255 0 0
-0.0258776 0.0495929 0.0417702 255 0 0
-0.0242057 0.0495929 0.0417702 255 0 0
-0.0225339 0.0495929 0.0417702 255 0 0
-0.0208620 0.0495929 0.0417702 255 0 0
-0.0191902 0.0495929 0.0417702 255 0 0
-0.0175183 0.0495929 0.0417702 255 0 0
-0.0158464 0.0495929 0.0417702 255 0 0
-0.0141746 0.0495929 0.0417702 255 0 0
-0.0125027 0.0495929 0.0417702 255 0 0
-0.0108308 0.0495929 0.0417702 255 0 0
-0.0091590 0.0495929 0.0417702 255 0 0
-0.0074871 0.0495929 0.0417702 255 0 0
-0.0058153 0.0495929 0.0417702 255 0 0
-0.0041434 0.0495929 0.0417702 255 0 0
-0.0024715 0.0495929 0.0417702 255 0 0
-0.0007997 0.0495929 0.0417702 255 0 0
0.0008722 0.0495929 0.0417702 255 0 0
0.0025441 0.0495929 0.0417702 255 0 0
0.0042159 0.0495929 0.0417702 255 0 0
0.0058878 0.0495929 0.0417702 255 0 0
-0.0375807 0.0512648 0.0417702 255 0 0
-0.0359088 0.0512648 0.0417702 255 0 0
-0.0342369 0.0512648 0.0417702 255 0 0
-0.0325651 0.0512648 0.0417702 255 0 0
-0.0308932 0.0512648 0.0417702 255 0 0
-0.0292213 0.0512648 0.0417702 255 0 0
-0.0275495 0.0512648 0.0417702 255 0 0
-0.0258776 0.0512648 0.0417702 255 0 0
-0.0242057 0.0512648 0.0417702 255 0 0
-0.0225339 0.0512648 0.0417702 255 0 0
-0.0208620 0.0512648 0.0417702 255 0 0
-0.0191902 0.0512648 0.0417702 255 0 0
-0.0175183 0.0512648 0.0417702 255 0 0
-0.0158464 0.0512648 0.0417702 255 0 0
-0.0141746 0.0512648 0.0417702 255 0 0
-0.0125027 0.0512648 0.0417702 255 0 0
-0.0108308 0.0512648 0.0417702 255 0 0
-0.0091590 0.0512648 0.0417702 255 0 0
-0.0074871 0.0512648 0.0417702 255 0 0
-0.0058153 0.0512648 0.0417702 255 0 0
-0.0041434 0.0512648 0.0417702 255 0 0
-0.0024715 0.0512648 0.0417702 255 0 0
-0.0007997 0.0512648 0.0417702 255 0 0
0.0008722 0.0512648 0.0417702 255 0 0
0.0025441 0.0512648 0.0417702 255 0 0
0.0042159 0.0512648 0.0417702 255 0 0
0.0058878 0.0512648 0.0417702 255 0 0
0.0075596 0.0512648 0.0417702 255 0 0
-0.0375807 0.0529366 0.0417702 255 0 0
-0.0359088 0.0529366 0.0417702 255 0 0
-0.0342369 0.0529366 0.0417702 255 0 0
-0.0325651 0.0529366 0.0417702 255 0 0
-0.0308932 0.0529366 0.0417702 255 0 0
-0.0292213 0.0529366 0.0417702 255 0 0
-0.0275495 0.0529366 0.0417702 255 0 0
-0.0258776 0.0529366 0.0417702 255 0 0
-0.0242057 0.0529366 0.0417702 255 0 0
-0.0225339 0.0529366 0.0417702 255 0 0
-0.0208620 0.0529366 0.0417702 255 0 0
-0.0191902 0.0529366 0.0417702 255 0 0
-0.0175183 0.0529366 0.0417702 255 0 0
-0.0158464 0.0529366 0.0417702 255 0 0
-0.0141746 0.0529366 0.0417702 255 0 0
-0.0125027 0.0529366 0.0417702 255 0 0
-0.0108308 0.0529366 0.0417702 255 0 0
-0.0091590 0.0529366 0.0417702 255 0 0
-0.0074871 0.0529366 0.0417702 255 0 0
-0.0058153 0.0529366 0.0417702 255 0 0
-0.0041434 0.0529366 0.0417702 255 0 0
-0.0024715 0.0529366 0.0417702 255 0 0
-0.0007997 0.0529366 0.0417702 255 0 0
0.0008722 0.0529366 0.0417702 255 0 0
0.0025441 0.0529366 0.0417702 255 0 0
0.0042159 0.0529366 0.0417702 255 0 0
0.0058878 0.0529366 0.0417702 255 0 0
0.0075596 0.0529366 0.0417702 255 0 0
-0.0375807 0.0546085 0.0417702 255 0 0
-0.0359088 0.0546085 0.0417702 255 0 0
-0.0342369 0.0546085 0.0417702 255 0 0
-0.0325651 0.0546085 0.0417702 255 0 0
-0.0308932 0.0546085 0.0417702 255 0 0
-0.0292213 0.0546085 0.0417702 255 0 0
-0.0275495 0.0546085 0.0417702 255 0 0
-0.0258776 0.0546085 0.0417702 255 0 0
-0.0242057 0.0546085 0.0417702 255 0 0
-0.0225339 0.0546085 0.0417702 255 0 0
-0.0208620 0.0546085 0.0417702 255 0 0
-0.0191902 0.0546085 0.0417702 255 0 0
-0.0175183 0.0546085 0.0417702 255 0 0
-0.0158464 0.0546085 0.0417702 255 0 0
-0.0141746 0.0546085 0.0417702 255 0 0
-0.0125027 0.0546085 0.0417702 255 0 0
-0.0108308 0.0546085 0.0417702 255 0 0
-0.0091590 0.0546085 0.0417702 255 0 0
-0.0074871 0.0546085 0.0417702 255 0 0
-0.0058153 0.0546085 0.0417702 255 0 0
-0.0041434 0.0546085 0.0417702 255 0 0
-0.0024715 0.0546085 0.0417702 255 0 0
-0.0007997 0.0546085 0.0417702 255 0 0
0.0008722 0.0546085 0.0417702 255 0 0
0.0025441 0.0546085 0.0417702 255 0 0
0.0042159 0.0546085 0.0417702 255 0 0
0.0058878 0.0546085 0.0417702 255 0 0
0.0075596 0.0546085 0.0417702 255 0 0
-0.0375807 0.0562804 0.0417702 255 0 0
-0.0359088 0.0562804 0.0417702 255 0 0
-0.0342369 0.0562804 0.0417702 255 0 0
-0.0325651 0.0562804 0.0417702 255 0 0
-0.0308932 0.0562804 0.0417702 255 0 0
-0.0292213 0.0562804 0.0417702 255 0 0
-0.0275495 0.0562804 0.0417702 255 0 0
-0.0258776 0.0562804 0.0417702 255 0 0
-0.0242057 0.0562804 0.0417702 255 0 0
-0.0225339 0.0562804 0.0417702 255 0 0
-0.0208620 0.0562804 0.0417702 255 0 0
-0.0191902 0.0562804 0.0417702 255 0 0
-0.0175183 0.0562804 0.0417702 255 0 0
-0.0158464 0.0562804 0.0417702 255 0 0
-0.0141746 0.0562804 0.0417702 255 0 0
-0.0125027 0.0562804 0.0417702 255 0 0
-0.0108308 0.0562804 0.0417702 255 0 0
-0.0091590 0.0562804 0.0417702 255 0 0
-0.0074871 0.0562804 0.0417702 255 0 0
-0.0058153 0.0562804 0.0417702 255 0 0
-0.0041434 0.0562804 0.0417702 255 0 0
-0.0024715 0.0562804 0.0417702 255 0 0
-0.0007997 0.0562804 0.0417702 255 0 0
0.0008722 0.0562804 0.0417702 255 0 0
0.0025441 0.0562804 0.0417702 255 0 0
0.0042159 0.0562804 0.0417702 255 0 0
0.0058878 0.0562804 0.0417702 255 0 0
0.0075596 0.0562804 0.0417702 255 0 0
0.0092315 0.0562804 0.0417702 255 0 0
-0.0375807 0.0579522 0.0417702 255 0 0
-0.0359088 0.0579522 0.0417702 255 0 0
-0.0342369 0.0579522 0.0417702 255 0 0
-0.0325651 0.0579522 0.0417702 255 0 0
-0.0308932 0.0579522 0.0417702 255 0 0
-0.0292213 0.0579522 0.0417702 255 0 0
-0.0275495 0.0579522 0.0417702 255 0 0
-0.0258776 0.0579522 0.0417702 255 0 0
-0.0242057 0.0579522 0.0417702 255 0 0
-0.0225339 0.0579522 0.0417702 255 0 0
-0.0208620 0.0579522 0.0417702 255 0 0
-0.0191902 0.0579522 0.0417702 255 0 0
-0.0175183 0.0579522 0.0417702 255 0 0
-0.0158464 0.0579522 0.0417702 255 0 0
-0.0141746 0.0579522 0.0417702 255 0 0
-0.0125027 0.0579522 0.0417702 255 0 0
-0.0108308 0.0579522 0.0417702 255 0 0
-0.0091590 0.0579522 0.0417702 255 0 0
-0.0074871 0.0579522 0.0417702 255 0 0
-0.0058153 0.0579522 0.0417702 255 0 0
-0.0041434 0.0579522 0.0417702 255 0 0
-0.0024715 0.0579522 0.0417702 255 0 0
-0.0007997 0.0579522 0.0417702 255 0 0
0.0008722 0.0579522 0.0417702 255 0 0
0.0025441 0.0579522 0.0417702 255 0 0
0.0042159 0.0579522 0.0417702 255 0 0
0.0058878 0.0579522 0.0417702 255 0 0
0.0075596 0.0579522 0.0417702 255 0 0
0.0092315 0.0579522 0.0417702 255 0 0
-0.0375807 0.0596241 0.0417702 255 0 0
-0.0359088 0.0596241 0.0417702 255 0 0
-0.0342369 0.0596241 0.0417702 255 0 0
-0.0325651 0.0596241 0.0417702 255 0 0
-0.0308932 0.0596241 0.0417702 255 0 0
-0.0292213 0.0596241 0.0417702 255 0 0
-0.0275495 0.0596241 0.0417702 255 0 0
-0.0258776 0.0596241 0.0417702 255 0 0
-0.0242057 0.0596241 0.0417702 255 0 0
-0.0225339 0.0596241 0.0417702 255 0 0
-0.0208620 0.0596241 0.0417702 255 0 0
-0.0191902 0.0596241 0.0417702 255 0 0
-0.0175183 0.0596241 0.0417702 255 0 0
-0.0158464 0.0596241 0.0417702 255 0 0
-0.0141746 0.0596241 0.0417702 255 0 0
-0.0125027 0.0596241 0.0417702 255 0 0
-0.0108308 0.0596241 0.0417702 255 0 0
-0.0091590 0.0596241 0.0417702 255 0 0
-0.0074871 0.0596241 0.0417702 255 0 0
-0.0058153 0.0596241 0.0417702 255 0 0
-0.0041434 0.0596241 0.0417702 255 0 0
-0.0024715 0.0596241 0.0417702 255 0 0
-0.0007997 0.0596241 0.0417702 255 0 0
0.0008722 0.0596241 0.0417702 255 0 0
0.0025441 0.0596241 0.0417702 255 0 0
0.0042159 0.0596241 0.0417702 255 0 0
0.0058878 0.0596241 0.0417702 255 0 0
0.0075596 0.0596241 0.0417702 255 0 0
0.0092315 0.0596241 0.0417702 255 0 0
-0.0375807 0.0612959 0.0417702 255 0 0
-0.0359088 0.0612959 0.0417702 255 0 0
-0.0342369 0.0612959 0.0417702 255 0 0
-0.0325651 0.0612959 0.0417702 255 0 0
-0.0308932 0.0612959 0.0417702 255 0 0
-0.0292213 0.0612959 0.0417702 255 0 0
-0.0275495 0.0612959 0.0417702 255 0 0
-0.0258776 0.0612959 0.0417702 255 0 0
-0.0242057 0.0612959 0.0417702 255 0 0
-0.0225339 0.0612959 0.0417702 255 0 0
-0.0208620 0.0612959 0.0417702 255 0 0
-0.0191902 0.0612959 0.0417702 255 0 0
-0.0175183 0.0612959 0.0417702 255 0 0
-0.0158464 0.0612959 0.0417702 255 0 0
-0.0141746 0.0612959 0.0417702 255 0 0
-0.0125027 0.0612959 0.0417702 255 0 0
-0.0108308 0.0612959 0.0417702 255 0 0
-0.0091590 0.0612959 0.0417702 255 0 0
-0.0074871 0.0612959 0.0417702 255 0 0
-0.0058153 0.0612959 0.0417702 255 0 0
-0.0041434 0.0612959 0.0417702 255 0 0
-0.0024715 0.0612959 0.0417702 255 0 0
-0.0007997 0.0612959 0.0417702 255 0 0
0.0008722 0.0612959 0.0417702 255 0 0
0.0025441 0.0612959 0.0417702 255 0 0
0.0042159 0.0612959 0.0417702 255 0 0
0.0058878 0.0612959 0.0417702 255 0 0
0.0075596 0.0612959 0.0417702 255 0 0
0.0092315 0.0612959 0.0417702 255 0 0
-0.0375807 0.0629988 0.0417702 255 0 0
-0.0359088 0.0629988 0.0417702 255 0 0
-0.0342369 0.0629988 0.0417702 255 0 0
-0.0325651 0.0629988 0.0417702 255 0 0
-0.0308932 0.0629988 0.0417702 255 0 0
-0.0292213 0.0629988 0.0417702 255 0 0
-0.0275495 0.0629988 0.0417702 255 0 0
-0.0258776 0.0629988 0.0417702 255 0 0
-0.0242057 0.0629988 0.0417702 255 0 0
-0.0225339 0.0629988 0.0417702 255 0 0
-0.0208620 0.0629988 0.0417702 255 0 0
-0.0191902 0.0629988 0.0417702 255 0 0
-0.0175183 0.0629988 0.0417702 255 0 0
-0.0158464 0.0629988 0.0417702 255 0 0
-0.0141746 0.0629988 0.0417702 255 0 0
-0.0125027 0.0629988 0.0417702 255 0 0
-0.0108308 0.0629988 0.0417702 255 0 0
-0.0091590 0.0629988 0.0417702 255 0 0
-0.0074871 0.0629988 0.0417702 255 0 0
-0.0058153 0.0629988 0.0417702 255 0 0
-0.0041434 0.0629988 0.0417702 255 0 0
-0.0024715 0.0629988 0.0417702 255 0 0
-0.0007997 0.0629988 0.0417702 255 0 0
0.0008722 0.0629988 0.0417702 255 0 0
0.0025441 0.0629988 0.0417702 255 0 0
0.0042159 0.0629988 0.0417702 255 0 0
0.0058878 0.0629988 0.0417702 255 0 0
0.0075596 0.0629988 0.0417702 255 0 0
0.0092315 0.0629988 0.0417702 255 0 0
-0.0359088 0.0646707 0.0417702 255 0 0
-0.0342369 0.0646707 0.0417702 255 0 0
-0.0325651 0.0646707 0.0417702 255 0 0
-0.0308932 0.0646707 0.0417702 255 0 0
-0.0292213 0.0646707 0.0417702 255 0 0
-0.0275495 0.0646707 0.0417702 255 0 0
-0.0258776 0.0646707 0.0417702 255 0 0
-0.0242057 0.0646707 0.0417702 255 0 0
-0.0225339 0.0646707 0.0417702 255 0 0
-0.0208620 0.0646707 0.0417702 255 0 0
-0.0191902 0.0646707 0.0417702 255 0 0
-0.0175183 0.0646707 0.0417702 255 0 0
-0.0158464 0.0646707 0.0417702 255 0 0
-0.0141746 0.0646707 0.0417702 255 0 0
-0.0125027 0.0646707 0.0417702 255 0 0
-0.0108308 0.0646707 0.0417702 255 0 0
-0.0091590 0.0646707 0.0417702 255 0 0
-0.0074871 0.0646707 0.0417702 255 0 0
-0.0058153 0.0646707 0.0417702 255 0 0
-0.0041434 0.0646707 0.0417702 255 0 0
-0.0024715 0.0646707 0.0417702 255 0 0
-0.0007997 0.0646707 0.0417702 255 0 0
0.0008722 0.0646707 0.0417702 255 0 0
0.0025441 0.0646707 0.0417702 255 0 0
0.0042159 0.0646707 0.0417702 255 0 0
0.0058878 0.0646707 0.0417702 255 0 0
0.0075596 0.0646707 0.0417702 255 0 0
0.0092315 0.0646707 0.0417702 255 0 0
-0.0359088 0.0663426 0.0417702 255 0 0
-0.0342369 0.0663426 0.0417702 255 0 0
-0.0325651 0.0663426 0.0417702 255 0 0
-0.0308932 0.0663426 0.0417702 255 0 0
-0.0292213 0.0663426 0.0417702 255 0 0
-0.0275495 0.0663426 0.0417702 255 0 0
-0.0258776 0.0663426 0.0417702 255 0 0
-0.0242057 0.0663426 0.0417702 255 0 0
-0.0225339 0.0663426 0.0417702 255 0 0
-0.0208620 0.0663426 0.0417702 255 0 0
-0.0191902 0.0663426 0.0417702 255 0 0
-0.0175183 0.0663426 0.0417702 255 0 0
-0.0158464 0.0663426 0.0417702 255 0 0
-0.0141746 0.0663426 0.0417702 255 0 0
-0.0125027 0.0663426 0.0417702 255 0 0
-0.0108308 0.0663426 0.0417702 255 0 0
-0.0091590 0.0663426 0.0417702 255 0 0
-0.0074871 0.0663426 0.0417702 255 0 0
-0.0058153 0.0663426 0.0417702 255 0 0
-0.0041434 0.0663426 0.0417702 255 0 0
-0.0024715 0.0663426 0.0417702 255 0 0
-0.0007997 0.0663426 0.0417702 255 0 0
0.0008722 0.0663426 0.0417702 255 0 0
0.0025441 0.0663426 0.0417702 255 0 0
0.0042159 0.0663426 0.0417702 255 0 0
0.0058878 0.0663426 0.0417702 255 0 0
0.0075596 0.0663426 0.0417702 255 0 0
0.0092315 0.0663426 0.0417702 255 0 0
-0.0359088 0.0680144 0.0417702 255 0 0
-0.0342369 0.0680144 0.0417702 255 0 0
-0.0325651 0.0680144 0.0417702 255 0 0
-0.0308932 0.0680144 0.0417702 255 0 0
-0.0292213 0.0680144 0.0417702 255 0 0
-0.0275495 0.0680144 0.0417702 255 0 0
-0.0258776 0.0680144 0.0417702 255 0 0
-0.0242057 0.0680144 0.0417702 255 0 0
-0.0225339 0.0680144 0.0417702 255 0 0
-0.0208620 0.0680144 0.0417702 255 0 0
-0.0191902 0.0680144 0.0417702 255 0 0
-0.0175183 0.0680144 0.0417702 255 0 0
-0.0158464 0.0680144 0.0417702 255 0 0
-0.0141746 0.0680144 0.0417702 255 0 0
-0.0125027 0.0680144 0.0417702 255 0 0
-0.0108308 0.0680144 0.0417702 255 0 0
-0.0091590 0.0680144 0.0417702 255 0 0
-0.0074871 0.0680144 0.0417702 255 0 0
-0.0058153 0.0680144 0.0417702 255 0 0
-0.0041434 0.0680144 0.0417702 255 0 0
-0.0024715 0.0680144 0.0417702 255 0 0
-0.0007997 0.0680144 0.0417702 255 0 0
0.0008722 0.0680144 0.0417702 255 0 0
0.0025441 0.0680144 0.0417702 255 0 0
0.0042159 0.0680144 0.0417702 255 0 0
0.0058878 0.0680144 0.0417702 255 0 0
0.0075596 0.0680144 0.0417702 255 0 0
-0.0342369 0.0696863 0.0417702 255 0 0
-0.0325651 0.0696863 0.0417702 255 0 0
-0.0308932 0.0696863 0.0417702 255 0 0
-0.0292213 0.0696863 0.0417702 255 0 0
-0.0275495 0.0696863 0.0417702 255 0 0
-0.0258776 0.0696863 0.0417702 255 0 0
-0.0242057 0.0696863 0.0417702 255 0 0
-0.0225339 0.0696863 0.0417702 255 0 0
-0.0208620 0.0696863 0.0417702 255 0 0
-0.0191902 0.0696863 0.0417702 255 0 0
-0.0175183 0.0696863 0.0417702 255 0 0
-0.0158464 0.0696863 0.0417702 255 0 0
-0.0141746 0.0696863 0.0417702 255 0 0
-0.0125027 0.0696863 0.0417702 255 0 0
-0.0108308 0.0696863 0.0417702 255 0 0
-0.0091590 0.0696863 0.0417702 255 0 0
-0.0074871 0.0696863 0.0417702 255 0 0
-0.0058153 0.0696863 0.0417702 255 0 0
-0.0041434 0.0696863 0.0417702 255 0 0
-0.0024715 0.0696863 0.0417702 255 0 0
-0.0007997 0.0696863 0.0417702 255 0 0
0.0008722 0.0696863 0.0417702 255 0 0
0.0025441 0.0696863 0.0417702 255 0 0
0.0042159 0.0696863 0.0417702 255 0 0
0.0058878 0.0696863 0.0417702 255 0 0
0.0075596 0.0696863 0.0417702 255 0 0
-0.0342369 0.0713582 0.0417702 255 0 0
-0.0325651 0.0713582 0.0417702 255 0 0
-0.0308932 0.0713582 0.0417702 255 0 0
-0.0292213 0.0713582 0.0417702 255 0 0
-0.0275495 0.0713582 0.0417702 255 0 0
-0.0258776 0.0713582 0.0417702 255 0 0
-0.0242057 0.0713582 0.0417702 255 0 0
-0.0225339 0.0713581 0.0417702 255 0 0
-0.0208620 0.0713581 0.0417702 255 0 0
-0.0191902 0.0713581 0.0417702 255 0 0
-0.0175183 0.0713581 0.0417702 255 0 0
-0.0158464 0.0713581 0.0417702 255 0 0
-0.0141746 0.0713581 0.0417702 255 0 0
-0.0125027 0.0713581 0.0417702 255 0 0
-0.0108308 0.0713581 0.0417702 255 0 0
-0.0091590 0.0713581 0.0417702 255 0 0
-0.0074871 0.0713581 0.0417702 255 0 0
-0.0058153 0.0713581 0.0417702 255 0 0
-0.0041434 0.0713581 0.0417702 255 0 0
-0.0024715 0.0713581 0.0417702 255 0 0
-0.0007997 0.0713581 0.0417702 255 0 0
0.0008722 0.0713581 0.0417702 255 0 0
0.0025441 0.0713581 0.0417702 255 0 0
0.0042159 0.0713581 0.0417702 255 0 0
0.0058878 0.0713582 0.0417702 255 0 0
0.0075596 0.0713582 0.0417702 255 0 0
-0.0325651 0.0730300 0.0417702 255 0 0
-0.0308932 0.0730300 0.0417702 255 0 0
-0.0292213 0.0730300 0.0417702 255 0 0
-0.0275495 0.0730300 0.0417702 255 0 0
-0.0258776 0.0730300 0.0417702 255 0 0
-0.0242057 0.0730299 0.0417702 255 0 0
-0.0225339 0.0730299 0.0417702 255 0 0
-0.0208620 0.0730299 0.0417702 255 0 0
-0.0191902 0.0730299 0.0417702 255 0 0
-0.0175183 0.0730299 0.0417702 255 0 0
-0.0158464 0.0730299 0.0417702 255 0 0
-0.0141746 0.0730299 0.0417702 255 0 0
-0.0125027 0.0730299 0.0417702 255 0 0
-0.0108308 0.0730299 0.0417702 255 0 0
-0.0091590 0.0730299 0.0417702 255 0 0
-0.0074871 0.0730299 0.0417702 255 0 0
-0.0058153 0.0730299 0.0417702 255 0 0
-0.0041434 0.0730299 0.0417702 255 0 0
-0.0024715 0.0730299 0.0417702 255 0 0
-0.0007997 0.0730299 0.0417702 255 0 0
0.0008722 0.0730299 0.0417702 255 0 0
0.0025441 0.0730299 0.0417702 255 0 0
0.0042159 0.0730300 0.0417702 255 0 0
0.0058878 0.0730300 0.0417702 255 0 0
-0.0308932 0.0747019 0.0417702 255 0 0
-0.0292213 0.0747019 0.0417702 255 0 0
-0.0275495 0.0747019 0.0417702 255 0 0
-0.0258776 0.0747019 0.0417702 255 0 0
-0.0242057 0.0747019 0.0417702 255 0 0
-0.0225339 0.0747019 0.0417702 255 0 0
-0.0208620 0.0747019 0.0417702 255 0 0
-0.0191902 0.0747019 0.0417702 255 0 0
-0.0175183 0.0747019 0.0417702 255 0 0
-0.0158464 0.0747018 0.0417702 255 0 0
-0.0141746 0.0747018 0.0417702 255 0 0
-0.0125027 0.0747018 0.0417702 255 0 0
-0.0108308 0.0747018 0.0417702 255 0 0
-0.0091590 0.0747018 0.0417702 255 0 0
-0.0074871 0.0747018 0.0417702 255 0 0
-0.0058153 0.0747019 0.0417702 255 0 0
-0.0041434 0.0747019 0.0417702 255 0 0
-0.0024715 0.0747019 0.0417702 255 0 0
-0.0007997 0.0747019 0.0417702 255 0 0
0.0008722 0.0747019 0.0417702 255 0 0
0.0025441 0.0747019 0.0417702 255 0 0
0.0042159 0.0747019 0.0417702 255 0 0
-0.0308932 0.0763737 0.0417702 255 0 0
-0.0292213 0.0763738 0.0417702 255 0 0
-0.0275495 0.0763738 0.0417702 255 0 0
-0.0258776 0.0763738 0.0417702 255 0 0
-0.0242057 0.0763738 0.0417702 255 0 0
-0.0225339 0.0763737 0.0417702 255 0 0
-0.0208620 0.0763737 0.0417702 255 0 0
-0.0191902 0.0763737 0.0417702 255 0 0
-0.0175183 0.0763737 0.0417702 255 0 0
-0.0158464 0.0763737 0.0417702 255 0 0
-0.0141746 0.0763737 0.0417702 255 0 0
-0.0125027 0.0763737 0.0417702 255 0 0
-0.0108308 0.0763737 0.0417702 255 0 0
-0.0091590 0.0763737 0.0417702 255 0 0
-0.0074871 0.0763737 0.0417702 255 0 0
-0.0058153 0.0763737 0.0417702 255 0 0
-0.0041434 0.0763737 0.0417702 255 0 0
-0.0024715 0.0763737 0.0417702 255 0 0
-0.0007997 0.0763737 0.0417702 255 0 0
0.0008722 0.0763737 0.0417702 255 0 0
0.0025441 0.0763737 0.0417702 255 0 0
-0.0292213 0.0780457 0.0417702 255 0 0
-0.0275495 0.0780457 0.0417702 255 0 0
-0.0258776 0.0780457 0.0417702 255 0 0
-0.0242057 0.0780458 0.0417703 255 0 0
-0.0225339 0.0780459 0.0417703 255 0 0
-0.0208620 0.0780458 0.0417703 255 0 0
-0.0191902 0.0780457 0.0417702 255 0 0
-0.0175183 0.0780457 0.0417702 255 0 0
-0.0158464 0.0780457 0.0417702 255 0 0
-0.0141746 0.0780457 0.0417702 255 0 0
-0.0125027 0.0780457 0.0417702 255 0 0
-0.0108308 0.0780457 0.0417702 255 0 0
-0.0091590 0.0780458 0.0417703 255 0 0
-0.0074871 0.0780458 0.0417703 255 0 0
-0.0058153 0.0780459 0.0417703 255 0 0
-0.0041434 0.0780458 0.0417703 255 0 0
-0.0024715 0.0780458 0.0417703 255 0 0
-0.0007997 0.0780458 0.0417703 255 0 0
0.0008722 0.0780457 0.0417702 255 0 0
0.0025441 0.0780457 0.0417702 255 0 0
-0.0292213 0.0797174 0.0417702 255 0 0
-0.0275495 0.0797174 0.0417702 255 0 0
-0.0258776 0.0797174 0.0417702 255 0 0
-0.0242057 0.0797174 0.0417702 255 0 0
-0.0225339 0.0797174 0.0417702 255 0 0
-0.0208620 0.0797173 0.0417702 255 0 0
-0.0191902 0.0797173 0.0417702 255 0 0
-0.0175183 0.0797172 0.0417702 255 0 0
-0.0158464 0.0797172 0.0417702 255 0 0
-0.0141746 0.0797171 0.0417702 255 0 0
-0.0125027 0.0797172 0.0417702 255 0 0
-0.0108309 0.0797172 0.0417702 255 0 0
-0.0091590 0.0797172 0.0417702 255 0 0
-0.0074871 0.0797172 0.0417702 255 0 0
-0.0058153 0.0797173 0.0417702 255 0 0
-0.0041434 0.0797173 0.0417702 255 0 0
-0.0024715 0.0797173 0.0417702 255 0 0
-0.0007997 0.0797173 0.0417702 255 0 0
-0.0275495 0.0813883 0.0417700 255 0 0
-0.0258776 0.0813882 0.0417700 255 0 0
-0.0242058 0.0813877 0.0417698 255 0 0
-0.0225339 0.0813871 0.0417697 255 0 0
-0.0208621 0.0813873 0.0417698 255 0 0
-0.0191902 0.0813874 0.0417698 255 0 0
-0.0175183 0.0813872 0.0417697 255 0 0
-0.0158465 0.0813868 0.0417696 255 0 0
-0.0141746 0.0813864 0.0417695 255 0 0
-0.0125028 0.0813867 0.0417696 255 0 0
-0.0108309 0.0813869 0.0417696 255 0 0
-0.0091590 0.0813870 0.0417697 255 0 0
-0.0074872 0.0813868 0.0417696 255 0 0
-0.0058153 0.0813866 0.0417696 255 0 0
-0.0041434 0.0813872 0.0417697 255 0 0
-0.0024711 0.0813877 0.0417698 255 0 0
-0.0242057 0.0830637 0.0417709 255 0 0
-0.0225338 0.0830646 0.0417711 255 0 0
-0.0208620 0.0830636 0.0417708 255 0 0
-0.0191901 0.0830630 0.0417707 255 0 0
-0.0175183 0.0830628 0.0417706 255 0 0
-0.0158464 0.0830628 0.0417706 255 0 0
-0.0141745 0.0830631 0.0417707 255 0 0
-0.0125027 0.0830629 0.0417707 255 0 0
-0.0108308 0.0830631 0.0417707 255 0 0
-0.0091589 0.0830635 0.0417708 255 0 0
-0.0074871 0.0830643 0.0417710 255 0 0
-0.0058152 0.0830649 0.0417712 255 0 0
-0.0191901 0.0847362 0.0417710 255 0 0
-0.0175183 0.0847356 0.0417709 255 0 0
-0.0158464 0.0847356 0.0417709 255 0 0
-0.0141745 0.0847359 0.0417709 255 0 0
-0.0125027 0.0847358 0.0417709 255 0 0
-0.0108308 0.0847361 0.0417710 255 0 0
-0.0208620 0.0362180 0.0434421 255 0 0
-0.0191902 0.0362180 0.0434421 255 0 0
-0.0175183 0.0362180 0.0434421 255 0 0
-0.0158464 0.0362180 0.0434421 255 0 0
-0.0141746 0.0362180 0.0434421 255 0 0
-0.0125027 0.0362180 0.0434421 255 0 0
