ply
format ascii 1.0
element vertex 1205
property float x
property float y
property float z
property uchar red
property uchar green
property uchar blue
end_header
0.0109007 0.0880304 -0.0446768 255 0 0
0.0125749 0.0880491 -0.0446917 255 0 0
0.0142497 0.0880590 -0.0447037 255 0 0
-0.0342412 0.0897870 -0.0446565 255 0 0
-0.0325678 0.0897610 -0.0446308 255 0 0
-0.0308924 0.0897450 -0.0446134 255 0 0
-0.0292194 0.0897180 -0.0446155 255 0 0
-0.0275470 0.0896944 -0.0446220 255 0 0
-0.0258747 0.0896751 -0.0446307 255 0 0
-0.0242026 0.0896615 -0.0446431 255 0 0
-0.0225309 0.0896480 -0.0446549 255 0 0
-0.0208592 0.0896370 -0.0446683 255 0 0
-0.0191890 0.0896278 -0.0446789 255 0 0
-0.0175186 0.0896203 -0.0446868 255 0 0
-0.0158471 0.0896140 -0.0446917 255 0 0
-0.0141757 0.0896100 -0.0446946 255 0 0
-0.0125035 0.0896001 -0.0447001 255 0 0
-0.0108317 0.0895954 -0.0447027 255 0 0
-0.0091608 0.0895953 -0.0447022 255 0 0
-0.0074907 0.0896003 -0.0446992 255 0 0
-0.0058202 0.0896063 -0.0446967 255 0 0
-0.0041476 0.0896185 -0.0446827 255 0 0
-0.0024751 0.0896284 -0.0446772 255 0 0
-0.0008031 0.0896389 -0.0446760 255 0 0
0.0008687 0.0896500 -0.0446815 255 0 0
0.0025406 0.0896607 -0.0446866 255 0 0
0.0042130 0.0896746 -0.0446797 255 0 0
0.0058853 0.0896880 -0.0446758 255 0 0
0.0075577 0.0897006 -0.0446751 255 0 0
0.0092300 0.0897139 -0.0446798 255 0 0
0.0109032 0.0897253 -0.0446836 255 0 0
0.0125766 0.0897440 -0.0447084 255 0 0
-0.0325689 0.0914537 -0.0446174 255 0 0
-0.0308938 0.0914420 -0.0446226 255 0 0
-0.0292205 0.0914180 -0.0446156 255 0 0
-0.0275473 0.0913977 -0.0446133 255 0 0
-0.0258751 0.0913799 -0.0446162 255 0 0
-0.0242023 0.0913648 -0.0446249 255 0 0
-0.0225307 0.0913512 -0.0446323 255 0 0
-0.0208594 0.0913405 -0.0446440 255 0 0
-0.0191888 0.0913300 -0.0446541 255 0 0
-0.0175185 0.0913226 -0.0446615 255 0 0
-0.0158470 0.0913180 -0.0446661 255 0 0
-0.0141755 0.0913151 -0.0446694 255 0 0
-0.0125035 0.0913067 -0.0446742 255 0 0
-0.0108317 0.0913031 -0.0446768 255 0 0
-0.0091615 0.0913038 -0.0446772 255 0 0
-0.0074909 0.0913103 -0.0446756 255 0 0
-0.0058204 0.0913169 -0.0446757 255 0 0
-0.0041476 0.0913258 -0.0446649 255 0 0
-0.0024751 0.0913352 -0.0446609 255 0 0
-0.0008028 0.0913454 -0.0446620 255 0 0
0.0008691 0.0913552 -0.0446691 255 0 0
0.0042138 0.0913818 -0.0446753 255 0 0
0.0058865 0.0913939 -0.0446768 255 0 0
0.0075593 0.0914043 -0.0446803 255 0 0
0.0092321 0.0914093 -0.0446864 255 0 0
0.0109057 0.0914148 -0.0446932 255 0 0
-0.0308965 0.0931344 -0.0446200 255 0 0
-0.0292218 0.0931139 -0.0446068 255 0 0
-0.0275490 0.0930955 -0.0446005 255 0 0
-0.0258755 0.0930788 -0.0445998 255 0 0
-0.0242033 0.0930643 -0.0446065 255 0 0
-0.0225304 0.0930516 -0.0446119 255 0 0
-0.0208598 0.0930411 -0.0446241 255 0 0
-0.0191888 0.0930326 -0.0446338 255 0 0
-0.0175186 0.0930258 -0.0446415 255 0 0
-0.0158470 0.0930208 -0.0446465 255 0 0
-0.0141749 0.0930188 -0.0446502 255 0 0
-0.0125035 0.0930124 -0.0446541 255 0 0
-0.0108317 0.0930102 -0.0446564 255 0 0
-0.0091615 0.0930122 -0.0446568 255 0 0
-0.0074906 0.0930203 -0.0446555 255 0 0
-0.0058197 0.0930277 -0.0446557 255 0 0
-0.0041469 0.0930315 -0.0446475 255 0 0
-0.0024745 0.0930372 -0.0446445 255 0 0
0.0025426 0.0930578 -0.0446603 255 0 0
0.0042149 0.0930758 -0.0446637 255 0 0
0.0058878 0.0930881 -0.0446688 255 0 0
0.0075607 0.0930960 -0.0446750 255 0 0
0.0092340 0.0930999 -0.0446835 255 0 0
-0.0292238 0.0948074 -0.0446156 255 0 0
-0.0275505 0.0947911 -0.0446128 255 0 0
-0.0258774 0.0947765 -0.0446097 255 0 0
-0.0242034 0.0947619 -0.0446037 255 0 0
-0.0225309 0.0947492 -0.0445992 255 0 0
-0.0208599 0.0947409 -0.0446101 255 0 0
-0.0191900 0.0947338 -0.0446196 255 0 0
-0.0175185 0.0947280 -0.0446266 255 0 0
-0.0158469 0.0947225 -0.0446309 255 0 0
-0.0141748 0.0947197 -0.0446341 255 0 0
-0.0125034 0.0947151 -0.0446374 255 0 0
-0.0108317 0.0947140 -0.0446394 255 0 0
-0.0091615 0.0947171 -0.0446401 255 0 0
-0.0074899 0.0947252 -0.0446398 255 0 0
-0.0058188 0.0947321 -0.0446411 255 0 0
-0.0041464 0.0947316 -0.0446351 255 0 0
-0.0024739 0.0947336 -0.0446353 255 0 0
0.0008711 0.0947425 -0.0446484 255 0 0
0.0025439 0.0947477 -0.0446580 255 0 0
0.0042161 0.0947656 -0.0446615 255 0 0
-0.0275521 0.0964692 -0.0446298 255 0 0
-0.0258795 0.0964558 -0.0446261 255 0 0
-0.0242073 0.0964459 -0.0446219 255 0 0
-0.0225342 0.0964371 -0.0446191 255 0 0
-0.0208625 0.0964287 -0.0446260 255 0 0
-0.0191906 0.0964218 -0.0446314 255 0 0
-0.0175188 0.0964157 -0.0446358 255 0 0
-0.0158469 0.0964108 -0.0446382 255 0 0
-0.0141746 0.0964081 -0.0446406 255 0 0
-0.0125034 0.0964037 -0.0446430 255 0 0
-0.0108316 0.0964017 -0.0446455 255 0 0
-0.0091598 0.0964029 -0.0446477 255 0 0
-0.0074888 0.0964067 -0.0446493 255 0 0
-0.0058168 0.0964110 -0.0446523 255 0 0
-0.0041448 0.0964146 -0.0446543 255 0 0
-0.0024725 0.0964179 -0.0446583 255 0 0
0.0008731 0.0964265 -0.0446734 255 0 0
0.0025465 0.0964296 -0.0446813 255 0 0
0.0042180 0.0964433 -0.0446831 255 0 0
-0.0258837 0.0981299 -0.0445479 255 0 0
-0.0242094 0.0981252 -0.0445819 255 0 0
-0.0225357 0.0981283 -0.0446216 255 0 0
-0.0208639 0.0981114 -0.0446130 255 0 0
-0.0191912 0.0981061 -0.0446097 255 0 0
-0.0175193 0.0981011 -0.0446118 255 0 0
-0.0158471 0.0980975 -0.0446220 255 0 0
-0.0141746 0.0980968 -0.0446312 255 0 0
-0.0125033 0.0980928 -0.0446341 255 0 0
-0.0108315 0.0980915 -0.0446378 255 0 0
-0.0091596 0.0980930 -0.0446418 255 0 0
-0.0074878 0.0980979 -0.0446457 255 0 0
-0.0058153 0.0981014 -0.0446474 255 0 0
-0.0041436 0.0981106 -0.0446625 255 0 0
-0.0024715 0.0981128 -0.0446686 255 0 0
-0.0007987 0.0981141 -0.0446700 255 0 0
0.0008747 0.0981161 -0.0446643 255 0 0
0.0025483 0.0981190 -0.0446563 255 0 0
-0.0225351 0.0998172 -0.0446446 255 0 0
-0.0208628 0.0998172 -0.0446637 255 0 0
-0.0191902 0.0998074 -0.0446738 255 0 0
-0.0175183 0.0998022 -0.0446750 255 0 0
-0.0158465 0.0997994 -0.0446620 255 0 0
-0.0141748 0.0997885 -0.0446531 255 0 0
-0.0125032 0.0997840 -0.0446553 255 0 0
-0.0108317 0.0997813 -0.0446580 255 0 0
-0.0091594 0.0997802 -0.0446610 255 0 0
-0.0074874 0.0997818 -0.0446645 255 0 0
-0.0058146 0.0997838 -0.0446751 255 0 0
-0.0041432 0.0997855 -0.0446713 255 0 0
-0.0024711 0.0997871 -0.0446818 255 0 0
-0.0141750 0.1014819 -0.0446570 255 0 0
-0.0125035 0.1014776 -0.0446591 255 0 0
-0.0091594 0.1014739 -0.0446646 255 0 0
-0.0074868 0.1014753 -0.0446684 255 0 0
-0.0141758 0.0478328 -0.0434416 255 0 0
-0.0125049 0.0478309 -0.0434365 255 0 0
-0.0108331 0.0478276 -0.0434320 255 0 0
-0.0091611 0.0478235 -0.0434281 255 0 0
-0.0074880 0.0478184 -0.0434247 255 0 0
-0.0058160 0.0478147 -0.0434223 255 0 0
-0.0041443 0.0478116 -0.0434216 255 0 0
-0.0024727 0.0478101 -0.0434217 255 0 0
-0.0008006 0.0478107 -0.0434229 255 0 0
0.0008718 0.0478128 -0.0434247 255 0 0
0.0025444 0.0478158 -0.0434268 255 0 0
0.0042163 0.0478296 -0.0434379 255 0 0
-0.0175192 0.0494846 -0.0434439 255 0 0
-0.0158473 0.0494783 -0.0434413 255 0 0
-0.0141755 0.0494720 -0.0434389 255 0 0
-0.0125038 0.0494700 -0.0434373 255 0 0
-0.0108320 0.0494673 -0.0434354 255 0 0
-0.0091601 0.0494637 -0.0434333 255 0 0
-0.0074882 0.0494591 -0.0434309 255 0 0
-0.0058156 0.0494559 -0.0434290 255 0 0
-0.0041445 0.0494522 -0.0434292 255 0 0
-0.0024730 0.0494507 -0.0434291 255 0 0
-0.0008011 0.0494515 -0.0434293 255 0 0
0.0008711 0.0494544 -0.0434289 255 0 0
0.0025435 0.0494589 -0.0434296 255 0 0
0.0042154 0.0494727 -0.0434339 255 0 0
0.0058879 0.0494850 -0.0434381 255 0 0
0.0075608 0.0494967 -0.0434424 255 0 0
-0.0208629 0.0511409 -0.0434372 255 0 0
-0.0191911 0.0511311 -0.0434359 255 0 0
-0.0175193 0.0511231 -0.0434353 255 0 0
-0.0158474 0.0511172 -0.0434352 255 0 0
-0.0141756 0.0511116 -0.0434348 255 0 0
-0.0125039 0.0511100 -0.0434360 255 0 0
-0.0108321 0.0511078 -0.0434389 255 0 0
-0.0091603 0.0511054 -0.0434391 255 0 0
-0.0074884 0.0511024 -0.0434384 255 0 0
-0.0058158 0.0511002 -0.0434374 255 0 0
-0.0041447 0.0510968 -0.0434388 255 0 0
-0.0024732 0.0510954 -0.0434385 255 0 0
-0.0008015 0.0510958 -0.0434374 255 0 0
0.0008704 0.0510980 -0.0434346 255 0 0
0.0025425 0.0511025 -0.0434306 255 0 0
0.0042144 0.0511144 -0.0434290 255 0 0
0.0058868 0.0511267 -0.0434292 255 0 0
0.0075596 0.0511397 -0.0434311 255 0 0
0.0092325 0.0511527 -0.0434349 255 0 0
-0.0242071 0.0528114 -0.0434312 255 0 0
-0.0225348 0.0527958 -0.0434281 255 0 0
-0.0208630 0.0527838 -0.0434281 255 0 0
-0.0191912 0.0527744 -0.0434287 255 0 0
-0.0175194 0.0527668 -0.0434298 255 0 0
-0.0158476 0.0527614 -0.0434337 255 0 0
-0.0141744 0.0527570 -0.0434354 255 0 0
-0.0125040 0.0527558 -0.0434383 255 0 0
-0.0108322 0.0527545 -0.0434404 255 0 0
-0.0091604 0.0527535 -0.0434419 255 0 0
-0.0074884 0.0527514 -0.0434425 255 0 0
-0.0058160 0.0527500 -0.0434419 255 0 0
-0.0041449 0.0527465 -0.0434434 255 0 0
-0.0024734 0.0527451 -0.0434432 255 0 0
-0.0008018 0.0527453 -0.0434411 255 0 0
0.0008699 0.0527469 -0.0434369 255 0 0
0.0025419 0.0527509 -0.0434339 255 0 0
0.0042138 0.0527610 -0.0434252 255 0 0
0.0058859 0.0527724 -0.0434220 255 0 0
0.0075584 0.0527860 -0.0434220 255 0 0
0.0092314 0.0528010 -0.0434252 255 0 0
0.0109045 0.0528134 -0.0434280 255 0 0
-0.0258793 0.0544818 -0.0434284 255 0 0
-0.0242067 0.0544604 -0.0434260 255 0 0
-0.0225346 0.0544424 -0.0434244 255 0 0
-0.0208630 0.0544307 -0.0434317 255 0 0
-0.0191912 0.0544218 -0.0434360 255 0 0
-0.0175194 0.0544158 -0.0434396 255 0 0
-0.0158476 0.0544130 -0.0434429 255 0 0
-0.0141745 0.0544106 -0.0434461 255 0 0
-0.0125041 0.0544099 -0.0434495 255 0 0
-0.0108323 0.0544093 -0.0434518 255 0 0
-0.0091605 0.0544082 -0.0434531 255 0 0
-0.0074886 0.0544073 -0.0434532 255 0 0
-0.0058167 0.0544069 -0.0434525 255 0 0
-0.0041449 0.0544052 -0.0434529 255 0 0
-0.0024734 0.0544042 -0.0434520 255 0 0
-0.0008017 0.0544045 -0.0434494 255 0 0
0.0008698 0.0544052 -0.0434453 255 0 0
0.0025416 0.0544089 -0.0434416 255 0 0
0.0042132 0.0544144 -0.0434327 255 0 0
0.0058851 0.0544231 -0.0434269 255 0 0
0.0075574 0.0544352 -0.0434232 255 0 0
0.0092299 0.0544498 -0.0434204 255 0 0
0.0109026 0.0544641 -0.0434208 255 0 0
0.0125754 0.0544962 -0.0434290 255 0 0
-0.0275514 0.0561640 -0.0434288 255 0 0
-0.0258785 0.0561404 -0.0434245 255 0 0
-0.0242064 0.0561183 -0.0434233 255 0 0
-0.0225326 0.0561005 -0.0434250 255 0 0
-0.0208612 0.0560882 -0.0434309 255 0 0
-0.0191911 0.0560802 -0.0434370 255 0 0
-0.0175195 0.0560749 -0.0434411 255 0 0
-0.0158477 0.0560736 -0.0434443 255 0 0
-0.0141745 0.0560725 -0.0434469 255 0 0
-0.0125040 0.0560716 -0.0434498 255 0 0
-0.0108322 0.0560711 -0.0434518 255 0 0
-0.0091604 0.0560707 -0.0434529 255 0 0
-0.0074886 0.0560705 -0.0434528 255 0 0
-0.0058167 0.0560705 -0.0434522 255 0 0
-0.0041449 0.0560697 -0.0434520 255 0 0
-0.0024734 0.0560696 -0.0434507 255 0 0
-0.0008017 0.0560697 -0.0434483 255 0 0
0.0008699 0.0560707 -0.0434450 255 0 0
0.0025416 0.0560740 -0.0434417 255 0 0
0.0042131 0.0560769 -0.0434343 255 0 0
0.0058850 0.0560838 -0.0434279 255 0 0
0.0075570 0.0560951 -0.0434240 255 0 0
0.0092289 0.0561097 -0.0434180 255 0 0
0.0109013 0.0561244 -0.0434167 255 0 0
0.0125746 0.0561556 -0.0434219 255 0 0
0.0142475 0.0561810 -0.0434271 255 0 0
-0.0292237 0.0578365 -0.0434156 255 0 0
-0.0275504 0.0578072 -0.0434098 255 0 0
-0.0258785 0.0577826 -0.0434082 255 0 0
-0.0242051 0.0577616 -0.0434124 255 0 0
-0.0225319 0.0577448 -0.0434181 255 0 0
-0.0208609 0.0577344 -0.0434299 255 0 0
-0.0191899 0.0577270 -0.0434385 255 0 0
-0.0175196 0.0577225 -0.0434450 255 0 0
-0.0158479 0.0577220 -0.0434488 255 0 0
-0.0141749 0.0577214 -0.0434518 255 0 0
-0.0125043 0.0577205 -0.0434546 255 0 0
-0.0108325 0.0577200 -0.0434565 255 0 0
-0.0091607 0.0577196 -0.0434574 255 0 0
-0.0074888 0.0577196 -0.0434572 255 0 0
-0.0058169 0.0577195 -0.0434563 255 0 0
-0.0041450 0.0577191 -0.0434557 255 0 0
-0.0024735 0.0577185 -0.0434541 255 0 0
-0.0008018 0.0577186 -0.0434511 255 0 0
0.0008698 0.0577187 -0.0434474 255 0 0
0.0025415 0.0577216 -0.0434427 255 0 0
0.0042129 0.0577227 -0.0434330 255 0 0
0.0058845 0.0577282 -0.0434238 255 0 0
0.0075563 0.0577382 -0.0434148 255 0 0
0.0092287 0.0577521 -0.0434052 255 0 0
0.0109007 0.0577679 -0.0434016 255 0 0
0.0125733 0.0578004 -0.0434009 255 0 0
0.0142465 0.0578288 -0.0434041 255 0 0
0.0159188 0.0578530 -0.0434109 255 0 0
-0.0308971 0.0595266 -0.0434059 255 0 0
-0.0292222 0.0594891 -0.0433969 255 0 0
-0.0275503 0.0594581 -0.0433935 255 0 0
-0.0258782 0.0594335 -0.0433951 255 0 0
-0.0242045 0.0594159 -0.0434032 255 0 0
-0.0225320 0.0594016 -0.0434125 255 0 0
-0.0208610 0.0593923 -0.0434256 255 0 0
-0.0191904 0.0593854 -0.0434349 255 0 0
-0.0175196 0.0593815 -0.0434414 255 0 0
-0.0158479 0.0593807 -0.0434446 255 0 0
-0.0141762 0.0593804 -0.0434471 255 0 0
-0.0125044 0.0593794 -0.0434493 255 0 0
-0.0108325 0.0593784 -0.0434506 255 0 0
-0.0091607 0.0593777 -0.0434509 255 0 0
-0.0074889 0.0593774 -0.0434505 255 0 0
-0.0058170 0.0593770 -0.0434494 255 0 0
-0.0041451 0.0593766 -0.0434488 255 0 0
-0.0024735 0.0593761 -0.0434472 255 0 0
-0.0008018 0.0593762 -0.0434444 255 0 0
0.0008699 0.0593761 -0.0434406 255 0 0
0.0025416 0.0593786 -0.0434355 255 0 0
0.0042129 0.0593798 -0.0434238 255 0 0
0.0058847 0.0593851 -0.0434142 255 0 0
0.0075563 0.0593946 -0.0434044 255 0 0
0.0092285 0.0594075 -0.0433946 255 0 0
0.0109005 0.0594234 -0.0433896 255 0 0
0.0125727 0.0594557 -0.0433830 255 0 0
0.0142456 0.0594854 -0.0433836 255 0 0
0.0159186 0.0595125 -0.0433902 255 0 0
0.0175936 0.0595367 -0.0434038 255 0 0
-0.0325656 0.0612129 -0.0433963 255 0 0
-0.0308965 0.0611860 -0.0433847 255 0 0
-0.0292221 0.0611467 -0.0433786 255 0 0
-0.0275500 0.0611153 -0.0433782 255 0 0
-0.0258766 0.0610918 -0.0433825 255 0 0
-0.0242040 0.0610771 -0.0433934 255 0 0
-0.0225321 0.0610651 -0.0434034 255 0 0
-0.0208612 0.0610567 -0.0434181 255 0 0
-0.0191914 0.0610508 -0.0434278 255 0 0
-0.0175198 0.0610472 -0.0434343 255 0 0
-0.0158480 0.0610469 -0.0434371 255 0 0
-0.0141763 0.0610465 -0.0434392 255 0 0
-0.0125045 0.0610451 -0.0434403 255 0 0
-0.0108326 0.0610441 -0.0434397 255 0 0
-0.0091608 0.0610432 -0.0434397 255 0 0
-0.0074888 0.0610425 -0.0434393 255 0 0
-0.0058170 0.0610421 -0.0434384 255 0 0
-0.0041451 0.0610416 -0.0434377 255 0 0
-0.0024735 0.0610411 -0.0434360 255 0 0
-0.0008017 0.0610409 -0.0434332 255 0 0
0.0008700 0.0610406 -0.0434298 255 0 0
0.0025417 0.0610430 -0.0434246 255 0 0
0.0042131 0.0610438 -0.0434156 255 0 0
0.0058848 0.0610488 -0.0434058 255 0 0
0.0075563 0.0610577 -0.0433953 255 0 0
0.0092285 0.0610708 -0.0433840 255 0 0
0.0109004 0.0610866 -0.0433777 255 0 0
0.0125725 0.0611186 -0.0433667 255 0 0
0.0142448 0.0611484 -0.0433650 255 0 0
0.0159185 0.0611770 -0.0433710 255 0 0
0.0175916 0.0612043 -0.0433866 255 0 0
0.0192659 0.0612251 -0.0433987 255 0 0
-0.0342413 0.0629114 -0.0433921 255 0 0
-0.0325654 0.0628816 -0.0433692 255 0 0
-0.0308947 0.0628567 -0.0433544 255 0 0
-0.0292220 0.0628180 -0.0433516 255 0 0
-0.0275501 0.0627897 -0.0433526 255 0 0
-0.0258776 0.0627698 -0.0433575 255 0 0
-0.0242037 0.0627606 -0.0433673 255 0 0
-0.0225319 0.0627518 -0.0433768 255 0 0
-0.0208612 0.0627466 -0.0433866 255 0 0
-0.0191914 0.0627418 -0.0433937 255 0 0
-0.0175198 0.0627398 -0.0433985 255 0 0
-0.0158479 0.0627397 -0.0434005 255 0 0
-0.0141759 0.0627400 -0.0434020 255 0 0
-0.0125042 0.0627376 -0.0434010 255 0 0
-0.0108323 0.0627353 -0.0434013 255 0 0
-0.0091604 0.0627339 -0.0434009 255 0 0
-0.0074886 0.0627329 -0.0434002 255 0 0
-0.0058167 0.0627322 -0.0433993 255 0 0
-0.0041448 0.0627319 -0.0433986 255 0 0
-0.0024732 0.0627315 -0.0433971 255 0 0
-0.0008014 0.0627315 -0.0433948 255 0 0
0.0008705 0.0627320 -0.0433919 255 0 0
0.0025423 0.0627336 -0.0433878 255 0 0
0.0042140 0.0627352 -0.0433807 255 0 0
0.0058852 0.0627403 -0.0433727 255 0 0
0.0075570 0.0627497 -0.0433645 255 0 0
0.0092289 0.0627623 -0.0433555 255 0 0
0.0109008 0.0627778 -0.0433511 255 0 0
0.0125727 0.0628072 -0.0433403 255 0 0
0.0142449 0.0628357 -0.0433393 255 0 0
0.0159185 0.0628616 -0.0433474 255 0 0
0.0175920 0.0628864 -0.0433669 255 0 0
0.0192658 0.0629063 -0.0433800 255 0 0
-0.0342412 0.0645868 -0.0433723 255 0 0
-0.0325653 0.0645574 -0.0433487 255 0 0
-0.0308941 0.0645351 -0.0433328 255 0 0
-0.0292219 0.0645004 -0.0433331 255 0 0
-0.0275498 0.0644746 -0.0433346 255 0 0
-0.0258774 0.0644569 -0.0433400 255 0 0
-0.0242037 0.0644503 -0.0433498 255 0 0
-0.0225319 0.0644448 -0.0433564 255 0 0
-0.0208624 0.0644410 -0.0433639 255 0 0
-0.0191913 0.0644378 -0.0433694 255 0 0
-0.0175195 0.0644359 -0.0433731 255 0 0
-0.0158476 0.0644365 -0.0433746 255 0 0
-0.0141752 0.0644360 -0.0433758 255 0 0
-0.0125039 0.0644336 -0.0433759 255 0 0
-0.0108325 0.0644315 -0.0433745 255 0 0
-0.0091608 0.0644302 -0.0433740 255 0 0
-0.0074883 0.0644294 -0.0433734 255 0 0
-0.0058163 0.0644288 -0.0433726 255 0 0
-0.0041447 0.0644282 -0.0433720 255 0 0
-0.0024730 0.0644277 -0.0433707 255 0 0
-0.0008011 0.0644271 -0.0433690 255 0 0
0.0008710 0.0644276 -0.0433665 255 0 0
0.0025430 0.0644297 -0.0433630 255 0 0
0.0042143 0.0644318 -0.0433576 255 0 0
0.0058857 0.0644365 -0.0433514 255 0 0
0.0075573 0.0644459 -0.0433445 255 0 0
0.0092291 0.0644585 -0.0433367 255 0 0
0.0109014 0.0644722 -0.0433333 255 0 0
0.0125728 0.0644999 -0.0433238 255 0 0
0.0142451 0.0645254 -0.0433233 255 0 0
0.0159182 0.0645485 -0.0433326 255 0 0
0.0175928 0.0645710 -0.0433515 255 0 0
0.0192662 0.0645879 -0.0433664 255 0 0
0.0209372 0.0646120 -0.0434073 255 0 0
-0.0359133 0.0662640 -0.0433585 255 0 0
-0.0342414 0.0662419 -0.0433367 255 0 0
-0.0325656 0.0662129 -0.0433183 255 0 0
-0.0308937 0.0661882 -0.0433047 255 0 0
-0.0292218 0.0661588 -0.0433089 255 0 0
-0.0275499 0.0661352 -0.0433151 255 0 0
-0.0258778 0.0661203 -0.0433216 255 0 0
-0.0242043 0.0661141 -0.0433291 255 0 0
-0.0225325 0.0661094 -0.0433358 255 0 0
-0.0208629 0.0661061 -0.0433419 255 0 0
-0.0191913 0.0661042 -0.0433468 255 0 0
-0.0175195 0.0661030 -0.0433495 255 0 0
-0.0158476 0.0661034 -0.0433510 255 0 0
-0.0141753 0.0661035 -0.0433519 255 0 0
-0.0125040 0.0661010 -0.0433522 255 0 0
-0.0108328 0.0660997 -0.0433523 255 0 0
-0.0091610 0.0660985 -0.0433522 255 0 0
-0.0074883 0.0660974 -0.0433505 255 0 0
-0.0058161 0.0660965 -0.0433495 255 0 0
-0.0041446 0.0660957 -0.0433490 255 0 0
-0.0024730 0.0660952 -0.0433480 255 0 0
-0.0008011 0.0660948 -0.0433463 255 0 0
0.0008711 0.0660948 -0.0433439 255 0 0
0.0025431 0.0660968 -0.0433406 255 0 0
0.0042143 0.0660983 -0.0433353 255 0 0
0.0058857 0.0661032 -0.0433288 255 0 0
0.0075573 0.0661114 -0.0433230 255 0 0
0.0092291 0.0661236 -0.0433157 255 0 0
0.0109020 0.0661386 -0.0433130 255 0 0
0.0125726 0.0661668 -0.0433006 255 0 0
0.0142449 0.0661926 -0.0433010 255 0 0
0.0159179 0.0662176 -0.0433110 255 0 0
0.0175928 0.0662406 -0.0433324 255 0 0
0.0192666 0.0662573 -0.0433490 255 0 0
0.0209369 0.0662834 -0.0433969 255 0 0
-0.0359135 0.0679308 -0.0433280 255 0 0
-0.0342414 0.0679086 -0.0433076 255 0 0
-0.0325656 0.0678806 -0.0432942 255 0 0
-0.0308931 0.0678566 -0.0432845 255 0 0
-0.0292215 0.0678312 -0.0432934 255 0 0
-0.0275499 0.0678113 -0.0433031 255 0 0
-0.0258781 0.0677977 -0.0433113 255 0 0
-0.0242060 0.0677916 -0.0433185 255 0 0
-0.0225329 0.0677871 -0.0433246 255 0 0
-0.0208630 0.0677839 -0.0433303 255 0 0
-0.0191914 0.0677812 -0.0433347 255 0 0
-0.0175196 0.0677801 -0.0433377 255 0 0
-0.0158477 0.0677803 -0.0433390 255 0 0
-0.0141749 0.0677804 -0.0433401 255 0 0
-0.0125039 0.0677801 -0.0433407 255 0 0
-0.0108320 0.0677788 -0.0433400 255 0 0
-0.0091601 0.0677784 -0.0433402 255 0 0
-0.0074882 0.0677777 -0.0433399 255 0 0
-0.0058158 0.0677770 -0.0433395 255 0 0
-0.0041444 0.0677760 -0.0433393 255 0 0
-0.0024729 0.0677751 -0.0433385 255 0 0
-0.0008010 0.0677751 -0.0433371 255 0 0
0.0008712 0.0677744 -0.0433353 255 0 0
0.0025433 0.0677752 -0.0433321 255 0 0
0.0042144 0.0677764 -0.0433268 255 0 0
0.0058858 0.0677808 -0.0433203 255 0 0
0.0075574 0.0677892 -0.0433125 255 0 0
0.0092293 0.0678011 -0.0433047 255 0 0
0.0109020 0.0678155 -0.0433020 255 0 0
0.0125725 0.0678428 -0.0432878 255 0 0
0.0142449 0.0678690 -0.0432876 255 0 0
0.0159177 0.0678933 -0.0432978 255 0 0
0.0175927 0.0679148 -0.0433204 255 0 0
0.0192671 0.0679320 -0.0433379 255 0 0
0.0209369 0.0679586 -0.0433902 255 0 0
-0.0359135 0.0696013 -0.0433070 255 0 0
-0.0342414 0.0695797 -0.0432861 255 0 0
-0.0325658 0.0695527 -0.0432762 255 0 0
-0.0308924 0.0695301 -0.0432684 255 0 0
-0.0292210 0.0695085 -0.0432804 255 0 0
-0.0275498 0.0694917 -0.0432919 255 0 0
-0.0258782 0.0694792 -0.0433013 255 0 0
-0.0242065 0.0694733 -0.0433085 255 0 0
-0.0225331 0.0694684 -0.0433145 255 0 0
-0.0208632 0.0694639 -0.0433196 255 0 0
-0.0191915 0.0694612 -0.0433237 255 0 0
-0.0175196 0.0694605 -0.0433264 255 0 0
-0.0158477 0.0694602 -0.0433276 255 0 0
-0.0141749 0.0694603 -0.0433273 255 0 0
-0.0125039 0.0694606 -0.0433283 255 0 0
-0.0108321 0.0694603 -0.0433291 255 0 0
-0.0091602 0.0694602 -0.0433298 255 0 0
-0.0074881 0.0694601 -0.0433300 255 0 0
-0.0058157 0.0694596 -0.0433301 255 0 0
-0.0041443 0.0694586 -0.0433304 255 0 0
-0.0024728 0.0694575 -0.0433301 255 0 0
-0.0008009 0.0694570 -0.0433289 255 0 0
0.0008713 0.0694555 -0.0433270 255 0 0
0.0025434 0.0694562 -0.0433234 255 0 0
0.0042145 0.0694570 -0.0433185 255 0 0
0.0058858 0.0694613 -0.0433119 255 0 0
0.0075574 0.0694703 -0.0433039 255 0 0
0.0092292 0.0694813 -0.0432945 255 0 0
0.0109020 0.0694960 -0.0432923 255 0 0
0.0125725 0.0695231 -0.0432775 255 0 0
0.0142448 0.0695484 -0.0432760 255 0 0
0.0159175 0.0695721 -0.0432882 255 0 0
0.0175926 0.0695935 -0.0433122 255 0 0
0.0192669 0.0696096 -0.0433295 255 0 0
0.0209374 0.0696334 -0.0433861 255 0 0
-0.0359131 0.0712827 -0.0433108 255 0 0
-0.0342410 0.0712651 -0.0432891 255 0 0
-0.0325658 0.0712416 -0.0432792 255 0 0
-0.0308922 0.0712216 -0.0432721 255 0 0
-0.0292207 0.0712037 -0.0432802 255 0 0
-0.0275497 0.0711891 -0.0432887 255 0 0
-0.0258781 0.0711786 -0.0432957 255 0 0
-0.0242064 0.0711713 -0.0433014 255 0 0
-0.0225330 0.0711660 -0.0433064 255 0 0
-0.0208629 0.0711615 -0.0433111 255 0 0
-0.0191912 0.0711575 -0.0433147 255 0 0
-0.0175193 0.0711551 -0.0433173 255 0 0
-0.0158474 0.0711551 -0.0433186 255 0 0
-0.0141746 0.0711547 -0.0433187 255 0 0
-0.0125036 0.0711549 -0.0433203 255 0 0
-0.0108317 0.0711552 -0.0433214 255 0 0
-0.0091598 0.0711547 -0.0433224 255 0 0
-0.0074877 0.0711541 -0.0433228 255 0 0
-0.0058154 0.0711536 -0.0433230 255 0 0
-0.0041439 0.0711522 -0.0433229 255 0 0
-0.0024724 0.0711510 -0.0433226 255 0 0
-0.0008005 0.0711501 -0.0433217 255 0 0
0.0008717 0.0711486 -0.0433203 255 0 0
0.0025438 0.0711500 -0.0433176 255 0 0
0.0042148 0.0711520 -0.0433136 255 0 0
0.0058863 0.0711578 -0.0433082 255 0 0
0.0075577 0.0711672 -0.0433019 255 0 0
0.0092295 0.0711786 -0.0432947 255 0 0
0.0109021 0.0711920 -0.0432944 255 0 0
0.0125728 0.0712177 -0.0432825 255 0 0
0.0142451 0.0712420 -0.0432830 255 0 0
0.0159174 0.0712619 -0.0432944 255 0 0
0.0175926 0.0712803 -0.0433184 255 0 0
0.0192668 0.0712918 -0.0433369 255 0 0
0.0209369 0.0713131 -0.0433895 255 0 0
-0.0375849 0.0729799 -0.0433495 255 0 0
-0.0359129 0.0729677 -0.0433132 255 0 0
-0.0342397 0.0729510 -0.0432921 255 0 0
-0.0325654 0.0729315 -0.0432819 255 0 0
-0.0308920 0.0729170 -0.0432749 255 0 0
-0.0292205 0.0729020 -0.0432807 255 0 0
-0.0275495 0.0728904 -0.0432874 255 0 0
-0.0258780 0.0728809 -0.0432932 255 0 0
-0.0242063 0.0728736 -0.0432983 255 0 0
-0.0225336 0.0728684 -0.0433026 255 0 0
-0.0208628 0.0728622 -0.0433068 255 0 0
-0.0191910 0.0728575 -0.0433103 255 0 0
-0.0175192 0.0728547 -0.0433127 255 0 0
-0.0158472 0.0728538 -0.0433130 255 0 0
-0.0141743 0.0728531 -0.0433146 255 0 0
-0.0125033 0.0728531 -0.0433166 255 0 0
-0.0108314 0.0728531 -0.0433181 255 0 0
-0.0091594 0.0728531 -0.0433190 255 0 0
-0.0074875 0.0728521 -0.0433196 255 0 0
-0.0058151 0.0728517 -0.0433196 255 0 0
-0.0041436 0.0728506 -0.0433198 255 0 0
-0.0024721 0.0728493 -0.0433195 255 0 0
-0.0008002 0.0728487 -0.0433188 255 0 0
0.0008720 0.0728470 -0.0433174 255 0 0
0.0025441 0.0728486 -0.0433151 255 0 0
0.0042151 0.0728520 -0.0433118 255 0 0
0.0058866 0.0728570 -0.0433072 255 0 0
0.0075579 0.0728660 -0.0433022 255 0 0
0.0092299 0.0728773 -0.0432961 255 0 0
0.0109022 0.0728889 -0.0432955 255 0 0
0.0125732 0.0729148 -0.0432870 255 0 0
0.0142456 0.0729334 -0.0432909 255 0 0
0.0159177 0.0729523 -0.0433019 255 0 0
0.0175927 0.0729663 -0.0433251 255 0 0
0.0192668 0.0729756 -0.0433450 255 0 0
0.0209369 0.0729913 -0.0433969 255 0 0
-0.0375850 0.0746522 -0.0433421 255 0 0
-0.0359130 0.0746367 -0.0433048 255 0 0
-0.0342408 0.0746204 -0.0432817 255 0 0
-0.0325656 0.0746015 -0.0432714 255 0 0
-0.0308921 0.0745843 -0.0432640 255 0 0
-0.0292206 0.0745702 -0.0432692 255 0 0
-0.0275496 0.0745570 -0.0432752 255 0 0
-0.0258783 0.0745470 -0.0432808 255 0 0
-0.0242063 0.0745388 -0.0432859 255 0 0
-0.0225338 0.0745321 -0.0432906 255 0 0
-0.0208628 0.0745240 -0.0432952 255 0 0
-0.0191910 0.0745186 -0.0432984 255 0 0
-0.0175191 0.0745154 -0.0433005 255 0 0
-0.0158471 0.0745147 -0.0433019 255 0 0
-0.0141745 0.0745137 -0.0433036 255 0 0
-0.0125034 0.0745141 -0.0433060 255 0 0
-0.0108316 0.0745140 -0.0433076 255 0 0
-0.0091596 0.0745136 -0.0433088 255 0 0
-0.0074875 0.0745135 -0.0433094 255 0 0
-0.0058151 0.0745131 -0.0433094 255 0 0
-0.0041437 0.0745118 -0.0433096 255 0 0
-0.0024721 0.0745104 -0.0433095 255 0 0
-0.0008003 0.0745107 -0.0433081 255 0 0
0.0008719 0.0745090 -0.0433068 255 0 0
0.0025440 0.0745105 -0.0433042 255 0 0
0.0042149 0.0745153 -0.0432998 255 0 0
0.0058863 0.0745226 -0.0432946 255 0 0
0.0075577 0.0745326 -0.0432889 255 0 0
0.0092297 0.0745457 -0.0432823 255 0 0
0.0109019 0.0745600 -0.0432813 255 0 0
0.0125731 0.0745879 -0.0432727 255 0 0
0.0142456 0.0746110 -0.0432759 255 0 0
0.0159179 0.0746291 -0.0432894 255 0 0
0.0175928 0.0746421 -0.0433158 255 0 0
0.0192668 0.0746523 -0.0433358 255 0 0
0.0209376 0.0746668 -0.0433896 255 0 0
-0.0375847 0.0763268 -0.0433376 255 0 0
-0.0359128 0.0763114 -0.0432981 255 0 0
-0.0342407 0.0762952 -0.0432730 255 0 0
-0.0325655 0.0762763 -0.0432625 255 0 0
-0.0308921 0.0762587 -0.0432544 255 0 0
-0.0292205 0.0762442 -0.0432606 255 0 0
-0.0275495 0.0762294 -0.0432672 255 0 0
-0.0258784 0.0762192 -0.0432731 255 0 0
-0.0242064 0.0762092 -0.0432787 255 0 0
-0.0225339 0.0762022 -0.0432834 255 0 0
-0.0208630 0.0761943 -0.0432882 255 0 0
-0.0191912 0.0761879 -0.0432916 255 0 0
-0.0175193 0.0761839 -0.0432941 255 0 0
-0.0158473 0.0761828 -0.0432962 255 0 0
-0.0141746 0.0761819 -0.0432979 255 0 0
-0.0125035 0.0761820 -0.0433003 255 0 0
-0.0108316 0.0761815 -0.0433021 255 0 0
-0.0091596 0.0761811 -0.0433035 255 0 0
-0.0074876 0.0761811 -0.0433042 255 0 0
-0.0058153 0.0761809 -0.0433042 255 0 0
-0.0041438 0.0761804 -0.0433043 255 0 0
-0.0024722 0.0761798 -0.0433037 255 0 0
-0.0008004 0.0761798 -0.0433021 255 0 0
0.0008717 0.0761789 -0.0433005 255 0 0
0.0025438 0.0761810 -0.0432974 255 0 0
0.0042148 0.0761866 -0.0432921 255 0 0
0.0058859 0.0761953 -0.0432864 255 0 0
0.0075575 0.0762068 -0.0432799 255 0 0
0.0092293 0.0762220 -0.0432718 255 0 0
0.0109015 0.0762353 -0.0432706 255 0 0
0.0125731 0.0762646 -0.0432625 255 0 0
0.0142455 0.0762885 -0.0432666 255 0 0
0.0159185 0.0763072 -0.0432823 255 0 0
0.0175928 0.0763196 -0.0433110 255 0 0
0.0192672 0.0763281 -0.0433333 255 0 0
0.0209384 0.0763423 -0.0433874 255 0 0
-0.0375847 0.0780037 -0.0433354 255 0 0
-0.0359128 0.0779888 -0.0432935 255 0 0
-0.0342407 0.0779743 -0.0432670 255 0 0
-0.0325656 0.0779557 -0.0432553 255 0 0
-0.0308920 0.0779389 -0.0432465 255 0 0
-0.0292205 0.0779218 -0.0432533 255 0 0
-0.0275494 0.0779081 -0.0432601 255 0 0
-0.0258783 0.0778973 -0.0432662 255 0 0
-0.0242063 0.0778877 -0.0432720 255 0 0
-0.0225332 0.0778794 -0.0432769 255 0 0
-0.0208628 0.0778697 -0.0432818 255 0 0
-0.0191910 0.0778630 -0.0432851 255 0 0
-0.0175193 0.0778578 -0.0432884 255 0 0
-0.0158473 0.0778563 -0.0432906 255 0 0
-0.0141747 0.0778555 -0.0432926 255 0 0
-0.0125036 0.0778553 -0.0432952 255 0 0
-0.0108317 0.0778554 -0.0432971 255 0 0
-0.0091598 0.0778549 -0.0432982 255 0 0
-0.0074877 0.0778548 -0.0432986 255 0 0
-0.0058154 0.0778547 -0.0432990 255 0 0
-0.0041439 0.0778542 -0.0432987 255 0 0
-0.0024723 0.0778541 -0.0432981 255 0 0
-0.0008005 0.0778548 -0.0432969 255 0 0
0.0008716 0.0778544 -0.0432951 255 0 0
0.0025436 0.0778578 -0.0432916 255 0 0
0.0042147 0.0778642 -0.0432858 255 0 0
0.0058857 0.0778741 -0.0432789 255 0 0
0.0075573 0.0778861 -0.0432726 255 0 0
0.0092292 0.0779022 -0.0432640 255 0 0
0.0109013 0.0779162 -0.0432629 255 0 0
0.0125732 0.0779465 -0.0432576 255 0 0
0.0142456 0.0779690 -0.0432643 255 0 0
0.0159193 0.0779872 -0.0432820 255 0 0
0.0175933 0.0779983 -0.0433129 255 0 0
0.0192673 0.0780051 -0.0433371 255 0 0
0.0209386 0.0780165 -0.0433898 255 0 0
-0.0375847 0.0796839 -0.0433426 255 0 0
-0.0359126 0.0796745 -0.0433033 255 0 0
-0.0342406 0.0796616 -0.0432784 255 0 0
-0.0325655 0.0796454 -0.0432672 255 0 0
-0.0308917 0.0796303 -0.0432589 255 0 0
-0.0292201 0.0796154 -0.0432654 255 0 0
-0.0275490 0.0796026 -0.0432712 255 0 0
-0.0258776 0.0795907 -0.0432770 255 0 0
-0.0242063 0.0795810 -0.0432826 255 0 0
-0.0225331 0.0795722 -0.0432873 255 0 0
-0.0208628 0.0795626 -0.0432927 255 0 0
-0.0191910 0.0795554 -0.0432965 255 0 0
-0.0175191 0.0795508 -0.0432992 255 0 0
-0.0158471 0.0795481 -0.0433004 255 0 0
-0.0141745 0.0795462 -0.0433022 255 0 0
-0.0125034 0.0795454 -0.0433044 255 0 0
-0.0108315 0.0795450 -0.0433062 255 0 0
-0.0091596 0.0795451 -0.0433072 255 0 0
-0.0074875 0.0795452 -0.0433079 255 0 0
-0.0058152 0.0795459 -0.0433079 255 0 0
-0.0041437 0.0795472 -0.0433076 255 0 0
-0.0024720 0.0795481 -0.0433071 255 0 0
-0.0008004 0.0795497 -0.0433061 255 0 0
0.0008717 0.0795512 -0.0433044 255 0 0
0.0025436 0.0795547 -0.0433015 255 0 0
0.0042147 0.0795619 -0.0432959 255 0 0
0.0058858 0.0795713 -0.0432897 255 0 0
0.0075573 0.0795826 -0.0432833 255 0 0
0.0092291 0.0795977 -0.0432758 255 0 0
0.0109010 0.0796114 -0.0432765 255 0 0
0.0125734 0.0796369 -0.0432736 255 0 0
0.0142462 0.0796559 -0.0432828 255 0 0
0.0159202 0.0796694 -0.0433025 255 0 0
0.0175930 0.0796786 -0.0433353 255 0 0
0.0192670 0.0796832 -0.0433606 255 0 0
0.0209384 0.0796919 -0.0434029 255 0 0
-0.0375843 0.0813627 -0.0433557 255 0 0
-0.0359123 0.0813543 -0.0433216 255 0 0
-0.0342400 0.0813467 -0.0432956 255 0 0
-0.0325654 0.0813376 -0.0432773 255 0 0
-0.0308915 0.0813231 -0.0432688 255 0 0
-0.0292198 0.0813087 -0.0432744 255 0 0
-0.0275486 0.0812960 -0.0432796 255 0 0
-0.0258771 0.0812853 -0.0432844 255 0 0
-0.0242060 0.0812759 -0.0432892 255 0 0
-0.0225328 0.0812682 -0.0432944 255 0 0
-0.0208625 0.0812612 -0.0432992 255 0 0
-0.0191907 0.0812550 -0.0433028 255 0 0
-0.0175189 0.0812494 -0.0433055 255 0 0
-0.0158470 0.0812470 -0.0433070 255 0 0
-0.0141743 0.0812450 -0.0433081 255 0 0
-0.0125031 0.0812432 -0.0433102 255 0 0
-0.0108312 0.0812420 -0.0433118 255 0 0
-0.0091593 0.0812409 -0.0433126 255 0 0
-0.0074873 0.0812410 -0.0433123 255 0 0
-0.0058150 0.0812423 -0.0433126 255 0 0
-0.0041435 0.0812438 -0.0433130 255 0 0
-0.0024721 0.0812459 -0.0433129 255 0 0
-0.0008003 0.0812487 -0.0433121 255 0 0
0.0008718 0.0812512 -0.0433112 255 0 0
0.0025437 0.0812548 -0.0433093 255 0 0
0.0042147 0.0812607 -0.0433036 255 0 0
0.0058859 0.0812689 -0.0432981 255 0 0
0.0075574 0.0812800 -0.0432936 255 0 0
0.0092291 0.0812934 -0.0432877 255 0 0
0.0109012 0.0813066 -0.0432886 255 0 0
0.0125736 0.0813263 -0.0432898 255 0 0
0.0142464 0.0813382 -0.0433063 255 0 0
0.0159206 0.0813508 -0.0433240 255 0 0
0.0175929 0.0813555 -0.0433585 255 0 0
0.0192664 0.0813592 -0.0433843 255 0 0
0.0209377 0.0813658 -0.0434164 255 0 0
-0.0375846 0.0830443 -0.0433408 255 0 0
-0.0359126 0.0830403 -0.0433014 255 0 0
-0.0342404 0.0830308 -0.0432738 255 0 0
-0.0325655 0.0830179 -0.0432604 255 0 0
-0.0308913 0.0830053 -0.0432496 255 0 0
-0.0292198 0.0829885 -0.0432567 255 0 0
-0.0275485 0.0829735 -0.0432625 255 0 0
-0.0258770 0.0829615 -0.0432682 255 0 0
-0.0242059 0.0829509 -0.0432735 255 0 0
-0.0225328 0.0829426 -0.0432783 255 0 0
-0.0208624 0.0829326 -0.0432833 255 0 0
-0.0191907 0.0829249 -0.0432879 255 0 0
-0.0175189 0.0829189 -0.0432911 255 0 0
-0.0158470 0.0829154 -0.0432930 255 0 0
-0.0141744 0.0829131 -0.0432949 255 0 0
-0.0125032 0.0829092 -0.0432973 255 0 0
-0.0108314 0.0829069 -0.0432992 255 0 0
-0.0091595 0.0829072 -0.0432995 255 0 0
-0.0074875 0.0829081 -0.0432994 255 0 0
-0.0058155 0.0829092 -0.0432990 255 0 0
-0.0041438 0.0829134 -0.0432973 255 0 0
-0.0024724 0.0829176 -0.0432951 255 0 0
-0.0008006 0.0829212 -0.0432933 255 0 0
0.0008715 0.0829255 -0.0432914 255 0 0
0.0025435 0.0829322 -0.0432885 255 0 0
0.0042144 0.0829390 -0.0432848 255 0 0
0.0058858 0.0829488 -0.0432803 255 0 0
0.0075573 0.0829605 -0.0432767 255 0 0
0.0092292 0.0829757 -0.0432723 255 0 0
0.0109012 0.0829896 -0.0432748 255 0 0
0.0125744 0.0830085 -0.0432858 255 0 0
0.0142472 0.0830233 -0.0433043 255 0 0
0.0159208 0.0830324 -0.0433299 255 0 0
0.0175944 0.0830359 -0.0433624 255 0 0
0.0192671 0.0830392 -0.0433884 255 0 0
-0.0359126 0.0847197 -0.0432955 255 0 0
-0.0342406 0.0847126 -0.0432650 255 0 0
-0.0325661 0.0847004 -0.0432478 255 0 0
-0.0308915 0.0846890 -0.0432347 255 0 0
-0.0292197 0.0846700 -0.0432410 255 0 0
-0.0275482 0.0846542 -0.0432470 255 0 0
-0.0258767 0.0846410 -0.0432526 255 0 0
-0.0242058 0.0846313 -0.0432581 255 0 0
-0.0225329 0.0846225 -0.0432622 255 0 0
-0.0208625 0.0846114 -0.0432674 255 0 0
-0.0191909 0.0846034 -0.0432716 255 0 0
-0.0175191 0.0845968 -0.0432753 255 0 0
-0.0158472 0.0845934 -0.0432780 255 0 0
-0.0141745 0.0845908 -0.0432800 255 0 0
-0.0125033 0.0845866 -0.0432835 255 0 0
-0.0108315 0.0845837 -0.0432851 255 0 0
-0.0091596 0.0845840 -0.0432860 255 0 0
-0.0074879 0.0845844 -0.0432855 255 0 0
-0.0058159 0.0845866 -0.0432848 255 0 0
-0.0041444 0.0845916 -0.0432816 255 0 0
-0.0024728 0.0845971 -0.0432787 255 0 0
-0.0008009 0.0846027 -0.0432766 255 0 0
0.0008712 0.0846074 -0.0432748 255 0 0
0.0025433 0.0846155 -0.0432732 255 0 0
0.0042142 0.0846217 -0.0432693 255 0 0
0.0058857 0.0846309 -0.0432662 255 0 0
0.0075574 0.0846434 -0.0432644 255 0 0
0.0092294 0.0846592 -0.0432625 255 0 0
0.0109019 0.0846742 -0.0432665 255 0 0
0.0125748 0.0846914 -0.0432868 255 0 0
0.0142482 0.0847036 -0.0433111 255 0 0
0.0159209 0.0847107 -0.0433391 255 0 0
0.0175944 0.0847149 -0.0433705 255 0 0
0.0192673 0.0847168 -0.0433951 255 0 0
-0.0359125 0.0863985 -0.0433002 255 0 0
-0.0342406 0.0863926 -0.0432680 255 0 0
-0.0325675 0.0863825 -0.0432456 255 0 0
-0.0308916 0.0863717 -0.0432310 255 0 0
-0.0292196 0.0863537 -0.0432339 255 0 0
-0.0275482 0.0863370 -0.0432372 255 0 0
-0.0258766 0.0863246 -0.0432415 255 0 0
-0.0242051 0.0863138 -0.0432458 255 0 0
-0.0225328 0.0863052 -0.0432497 255 0 0
-0.0208625 0.0862948 -0.0432552 255 0 0
-0.0191908 0.0862862 -0.0432595 255 0 0
-0.0175190 0.0862805 -0.0432636 255 0 0
-0.0158471 0.0862763 -0.0432662 255 0 0
-0.0141745 0.0862735 -0.0432683 255 0 0
-0.0125033 0.0862689 -0.0432715 255 0 0
-0.0108316 0.0862658 -0.0432736 255 0 0
-0.0091597 0.0862654 -0.0432742 255 0 0
-0.0074882 0.0862672 -0.0432736 255 0 0
-0.0058161 0.0862697 -0.0432726 255 0 0
-0.0041445 0.0862767 -0.0432695 255 0 0
-0.0024729 0.0862829 -0.0432668 255 0 0
-0.0008011 0.0862888 -0.0432654 255 0 0
0.0008711 0.0862944 -0.0432652 255 0 0
0.0025433 0.0863021 -0.0432653 255 0 0
0.0042142 0.0863084 -0.0432623 255 0 0
0.0058858 0.0863174 -0.0432609 255 0 0
0.0075578 0.0863291 -0.0432617 255 0 0
0.0092300 0.0863444 -0.0432628 255 0 0
0.0109022 0.0863571 -0.0432684 255 0 0
0.0125756 0.0863727 -0.0432963 255 0 0
0.0142488 0.0863834 -0.0433247 255 0 0
0.0159216 0.0863893 -0.0433531 255 0 0
0.0175945 0.0863918 -0.0433814 255 0 0
-0.0359125 0.0880720 -0.0433317 255 0 0
-0.0342405 0.0880692 -0.0433008 255 0 0
-0.0325681 0.0880636 -0.0432743 255 0 0
-0.0308936 0.0880565 -0.0432534 255 0 0
-0.0292202 0.0880410 -0.0432505 255 0 0
-0.0275481 0.0880276 -0.0432497 255 0 0
-0.0258762 0.0880152 -0.0432514 255 0 0
-0.0242044 0.0880056 -0.0432567 255 0 0
-0.0225316 0.0879977 -0.0432617 255 0 0
-0.0208622 0.0879890 -0.0432675 255 0 0
-0.0191905 0.0879814 -0.0432714 255 0 0
-0.0175187 0.0879760 -0.0432750 255 0 0
-0.0158468 0.0879724 -0.0432773 255 0 0
-0.0141744 0.0879701 -0.0432792 255 0 0
-0.0125032 0.0879659 -0.0432820 255 0 0
-0.0108314 0.0879638 -0.0432836 255 0 0
-0.0091598 0.0879633 -0.0432838 255 0 0
-0.0074884 0.0879660 -0.0432823 255 0 0
-0.0058166 0.0879687 -0.0432823 255 0 0
-0.0041449 0.0879771 -0.0432798 255 0 0
-0.0024731 0.0879847 -0.0432797 255 0 0
-0.0008011 0.0879922 -0.0432812 255 0 0
0.0008710 0.0879974 -0.0432863 255 0 0
0.0025432 0.0880033 -0.0432916 255 0 0
0.0042143 0.0880086 -0.0432826 255 0 0
0.0058860 0.0880157 -0.0432791 255 0 0
0.0075580 0.0880244 -0.0432808 255 0 0
0.0092308 0.0880355 -0.0432864 255 0 0
0.0109032 0.0880444 -0.0432966 255 0 0
0.0125761 0.0880535 -0.0433290 255 0 0
0.0142488 0.0880601 -0.0433571 255 0 0
0.0159209 0.0880629 -0.0433812 255 0 0
0.0175942 0.0880638 -0.0434013 255 0 0
-0.0342403 0.0897444 -0.0433314 255 0 0
-0.0325680 0.0897432 -0.0432985 255 0 0
-0.0308948 0.0897414 -0.0432738 255 0 0
-0.0292206 0.0897234 -0.0432739 255 0 0
-0.0275482 0.0897105 -0.0432717 255 0 0
-0.0258761 0.0897032 -0.0432650 255 0 0
-0.0242041 0.0896965 -0.0432674 255 0 0
-0.0225313 0.0896891 -0.0432712 255 0 0
-0.0208619 0.0896825 -0.0432771 255 0 0
-0.0191903 0.0896758 -0.0432817 255 0 0
-0.0175185 0.0896708 -0.0432853 255 0 0
-0.0158467 0.0896683 -0.0432877 255 0 0
-0.0141743 0.0896662 -0.0432892 255 0 0
-0.0125031 0.0896624 -0.0432902 255 0 0
-0.0108313 0.0896608 -0.0432912 255 0 0
-0.0091598 0.0896609 -0.0432910 255 0 0
-0.0074886 0.0896629 -0.0432895 255 0 0
-0.0058168 0.0896666 -0.0432897 255 0 0
-0.0041450 0.0896759 -0.0432882 255 0 0
-0.0024730 0.0896833 -0.0432934 255 0 0
-0.0008011 0.0896865 -0.0433058 255 0 0
0.0008710 0.0896905 -0.0433155 255 0 0
0.0025433 0.0896986 -0.0433194 255 0 0
0.0042144 0.0897024 -0.0433054 255 0 0
0.0058863 0.0897085 -0.0432970 255 0 0
0.0075586 0.0897157 -0.0432964 255 0 0
0.0092314 0.0897237 -0.0433061 255 0 0
0.0109041 0.0897279 -0.0433204 255 0 0
0.0125767 0.0897321 -0.0433568 255 0 0
0.0142487 0.0897358 -0.0433837 255 0 0
0.0159207 0.0897359 -0.0434044 255 0 0
-0.0342401 0.0914189 -0.0433515 255 0 0
-0.0325680 0.0914187 -0.0433215 255 0 0
-0.0308950 0.0914174 -0.0432977 255 0 0
-0.0292228 0.0914097 -0.0432729 255 0 0
-0.0275496 0.0914019 -0.0432577 255 0 0
-0.0258763 0.0913935 -0.0432490 255 0 0
-0.0242042 0.0913854 -0.0432495 255 0 0
-0.0225321 0.0913781 -0.0432502 255 0 0
-0.0208619 0.0913698 -0.0432552 255 0 0
-0.0191903 0.0913635 -0.0432593 255 0 0
-0.0175185 0.0913582 -0.0432624 255 0 0
-0.0158466 0.0913555 -0.0432634 255 0 0
-0.0141743 0.0913534 -0.0432647 255 0 0
-0.0125031 0.0913496 -0.0432666 255 0 0
-0.0108314 0.0913480 -0.0432675 255 0 0
-0.0091598 0.0913488 -0.0432678 255 0 0
-0.0074887 0.0913522 -0.0432666 255 0 0
-0.0058168 0.0913558 -0.0432678 255 0 0
-0.0041449 0.0913657 -0.0432709 255 0 0
-0.0024727 0.0913742 -0.0432756 255 0 0
-0.0008006 0.0913807 -0.0432811 255 0 0
0.0008715 0.0913844 -0.0432907 255 0 0
0.0025439 0.0913881 -0.0433012 255 0 0
0.0042154 0.0913915 -0.0433038 255 0 0
0.0058872 0.0913953 -0.0433101 255 0 0
0.0075596 0.0913997 -0.0433211 255 0 0
0.0092328 0.0914034 -0.0433361 255 0 0
0.0109051 0.0914079 -0.0433497 255 0 0
0.0125768 0.0914096 -0.0433823 255 0 0
0.0142488 0.0914091 -0.0434063 255 0 0
-0.0325680 0.0930939 -0.0433416 255 0 0
-0.0308957 0.0930930 -0.0433184 255 0 0
-0.0292231 0.0930906 -0.0432837 255 0 0
-0.0275509 0.0930865 -0.0432582 255 0 0
-0.0258787 0.0930798 -0.0432436 255 0 0
-0.0242056 0.0930728 -0.0432392 255 0 0
-0.0225335 0.0930660 -0.0432355 255 0 0
-0.0208621 0.0930572 -0.0432390 255 0 0
-0.0191904 0.0930509 -0.0432417 255 0 0
-0.0175186 0.0930457 -0.0432441 255 0 0
-0.0158467 0.0930430 -0.0432449 255 0 0
-0.0141742 0.0930421 -0.0432462 255 0 0
-0.0125031 0.0930382 -0.0432479 255 0 0
-0.0108314 0.0930372 -0.0432492 255 0 0
-0.0091597 0.0930381 -0.0432501 255 0 0
-0.0074886 0.0930401 -0.0432499 255 0 0
-0.0058168 0.0930431 -0.0432518 255 0 0
-0.0041445 0.0930539 -0.0432591 255 0 0
-0.0024724 0.0930616 -0.0432647 255 0 0
-0.0008002 0.0930677 -0.0432736 255 0 0
0.0008721 0.0930695 -0.0432832 255 0 0
0.0025444 0.0930727 -0.0432948 255 0 0
0.0042161 0.0930752 -0.0433114 255 0 0
0.0058881 0.0930785 -0.0433273 255 0 0
0.0075606 0.0930806 -0.0433436 255 0 0
0.0092331 0.0930815 -0.0433596 255 0 0
0.0109061 0.0930843 -0.0433737 255 0 0
0.0125770 0.0930845 -0.0434031 255 0 0
-0.0325677 0.0947679 -0.0433618 255 0 0
-0.0308958 0.0947675 -0.0433407 255 0 0
-0.0292232 0.0947666 -0.0433023 255 0 0
-0.0275510 0.0947653 -0.0432733 255 0 0
-0.0258789 0.0947617 -0.0432524 255 0 0
-0.0242059 0.0947556 -0.0432424 255 0 0
-0.0225337 0.0947505 -0.0432349 255 0 0
-0.0208621 0.0947421 -0.0432378 255 0 0
-0.0191903 0.0947365 -0.0432389 255 0 0
-0.0175186 0.0947322 -0.0432404 255 0 0
-0.0158467 0.0947297 -0.0432416 255 0 0
-0.0141742 0.0947286 -0.0432426 255 0 0
-0.0125031 0.0947253 -0.0432433 255 0 0
-0.0108314 0.0947242 -0.0432444 255 0 0
-0.0091596 0.0947250 -0.0432457 255 0 0
-0.0074882 0.0947271 -0.0432464 255 0 0
-0.0058164 0.0947295 -0.0432496 255 0 0
-0.0041441 0.0947388 -0.0432586 255 0 0
-0.0024719 0.0947458 -0.0432687 255 0 0
-0.0007998 0.0947499 -0.0432791 255 0 0
0.0008726 0.0947519 -0.0432894 255 0 0
0.0042168 0.0947559 -0.0433261 255 0 0
0.0058888 0.0947565 -0.0433477 255 0 0
0.0075609 0.0947582 -0.0433666 255 0 0
0.0092335 0.0947589 -0.0433820 255 0 0
0.0109062 0.0947593 -0.0433949 255 0 0
-0.0308949 0.0964386 -0.0433739 255 0 0
-0.0292231 0.0964388 -0.0433435 255 0 0
-0.0275512 0.0964384 -0.0433180 255 0 0
-0.0258793 0.0964361 -0.0432974 255 0 0
-0.0242071 0.0964336 -0.0432814 255 0 0
-0.0225341 0.0964315 -0.0432683 255 0 0
-0.0208623 0.0964282 -0.0432615 255 0 0
-0.0191905 0.0964249 -0.0432574 255 0 0
-0.0175186 0.0964215 -0.0432552 255 0 0
-0.0158466 0.0964191 -0.0432558 255 0 0
-0.0141742 0.0964174 -0.0432568 255 0 0
-0.0125030 0.0964149 -0.0432576 255 0 0
-0.0108313 0.0964138 -0.0432590 255 0 0
-0.0091595 0.0964142 -0.0432617 255 0 0
-0.0074879 0.0964167 -0.0432646 255 0 0
-0.0058156 0.0964170 -0.0432689 255 0 0
-0.0041438 0.0964221 -0.0432839 255 0 0
-0.0024715 0.0964244 -0.0432970 255 0 0
-0.0007994 0.0964262 -0.0433103 255 0 0
0.0008731 0.0964268 -0.0433201 255 0 0
0.0025456 0.0964285 -0.0433302 255 0 0
0.0042170 0.0964293 -0.0433582 255 0 0
0.0058889 0.0964296 -0.0433798 255 0 0
0.0075609 0.0964303 -0.0433962 255 0 0
-0.0292238 0.0981112 -0.0433766 255 0 0
-0.0275522 0.0981116 -0.0433516 255 0 0
-0.0258801 0.0981123 -0.0433296 255 0 0
-0.0242074 0.0981122 -0.0433100 255 0 0
-0.0225352 0.0981119 -0.0432942 255 0 0
-0.0208628 0.0981136 -0.0432794 255 0 0
-0.0191906 0.0981134 -0.0432693 255 0 0
-0.0175186 0.0981118 -0.0432643 255 0 0
-0.0158466 0.0981091 -0.0432655 255 0 0
-0.0141743 0.0981067 -0.0432674 255 0 0
-0.0125031 0.0981048 -0.0432679 255 0 0
-0.0108313 0.0981038 -0.0432697 255 0 0
-0.0091594 0.0981029 -0.0432737 255 0 0
-0.0074876 0.0981030 -0.0432788 255 0 0
-0.0058153 0.0981041 -0.0432849 255 0 0
-0.0041435 0.0981024 -0.0433048 255 0 0
-0.0024715 0.0981033 -0.0433203 255 0 0
-0.0007991 0.0981040 -0.0433332 255 0 0
0.0008736 0.0981045 -0.0433417 255 0 0
0.0025462 0.0981039 -0.0433502 255 0 0
0.0042174 0.0981034 -0.0433817 255 0 0
0.0058892 0.0981023 -0.0434046 255 0 0
-0.0275511 0.0997792 -0.0433890 255 0 0
-0.0258791 0.0997796 -0.0433747 255 0 0
-0.0242070 0.0997807 -0.0433576 255 0 0
-0.0225350 0.0997813 -0.0433434 255 0 0
-0.0208626 0.0997813 -0.0433348 255 0 0
-0.0191903 0.0997800 -0.0433278 255 0 0
-0.0175185 0.0997790 -0.0433227 255 0 0
-0.0158466 0.0997783 -0.0433193 255 0 0
-0.0141747 0.0997769 -0.0433177 255 0 0
-0.0125030 0.0997755 -0.0433168 255 0 0
-0.0108311 0.0997747 -0.0433180 255 0 0
-0.0091592 0.0997748 -0.0433216 255 0 0
-0.0074870 0.0997750 -0.0433271 255 0 0
-0.0058147 0.0997747 -0.0433334 255 0 0
-0.0041428 0.0997762 -0.0433507 255 0 0
-0.0024709 0.0997766 -0.0433652 255 0 0
-0.0007990 0.0997758 -0.0433774 255 0 0
0.0008733 0.0997748 -0.0433864 255 0 0
0.0025455 0.0997751 -0.0433942 255 0 0
0.0042170 0.0997738 -0.0434161 255 0 0
-0.0242068 0.1014516 -0.0433906 255 0 0
-0.0225349 0.1014527 -0.0433778 255 0 0
-0.0208625 0.1014509 -0.0433737 255 0 0
-0.0191903 0.1014499 -0.0433687 255 0 0
-0.0175185 0.1014493 -0.0433638 255 0 0
-0.0158467 0.1014494 -0.0433580 255 0 0
-0.0141747 0.1014486 -0.0433547 255 0 0
-0.0125031 0.1014479 -0.0433533 255 0 0
-0.0108310 0.1014473 -0.0433544 255 0 0
-0.0091591 0.1014476 -0.0433580 255 0 0
-0.0074868 0.1014473 -0.0433641 255 0 0
-0.0058145 0.1014479 -0.0433706 255 0 0
-0.0041427 0.1014487 -0.0433857 255 0 0
-0.0024708 0.1014485 -0.0433991 255 0 0
-0.0007989 0.1014483 -0.0434103 255 0 0
0.0008731 0.1014477 -0.0434181 255 0 0
-0.0175185 0.1031202 -0.0433941 255 0 0
-0.0158467 0.1031206 -0.0433880 255 0 0
-0.0141747 0.1031215 -0.0433841 255 0 0
-0.0125032 0.1031219 -0.0433830 255 0 0
-0.0108310 0.1031210 -0.0433844 255 0 0
-0.0091590 0.1031213 -0.0433881 255 0 0
-0.0074868 0.1031207 -0.0433945 255 0 0
-0.0058145 0.1031206 -0.0434008 255 0 0
-0.0041427 0.1031207 -0.0434133 255 0 0
-0.0108328 0.0462072 -0.0417894 255 0 0
-0.0091598 0.0462044 -0.0417870 255 0 0
-0.0074876 0.0462019 -0.0417849 255 0 0
-0.0058157 0.0461998 -0.0417833 255 0 0
-0.0041438 0.0461983 -0.0417830 255 0 0
-0.0024720 0.0461976 -0.0417831 255 0 0
-0.0008000 0.0461981 -0.0417837 255 0 0
0.0008723 0.0461988 -0.0417844 255 0 0
0.0025449 0.0461999 -0.0417850 255 0 0
-0.0175186 0.0478786 -0.0417980 255 0 0
-0.0158467 0.0478756 -0.0417949 255 0 0
-0.0141751 0.0478723 -0.0417919 255 0 0
-0.0125035 0.0478707 -0.0417888 255 0 0
-0.0108316 0.0478686 -0.0417857 255 0 0
-0.0091596 0.0478659 -0.0417831 255 0 0
-0.0074876 0.0478626 -0.0417805 255 0 0
-0.0058157 0.0478602 -0.0417788 255 0 0
-0.0041439 0.0478581 -0.0417781 255 0 0
-0.0024721 0.0478572 -0.0417781 255 0 0
-0.0008002 0.0478576 -0.0417791 255 0 0
0.0008720 0.0478593 -0.0417808 255 0 0
0.0025444 0.0478616 -0.0417826 255 0 0
0.0042163 0.0478705 -0.0417897 255 0 0
0.0058885 0.0478773 -0.0417949 255 0 0
0.0075610 0.0478829 -0.0417982 255 0 0
-0.0208624 0.0495394 -0.0417931 255 0 0
-0.0191906 0.0495332 -0.0417911 255 0 0
-0.0175188 0.0495282 -0.0417895 255 0 0
-0.0158469 0.0495243 -0.0417881 255 0 0
-0.0141751 0.0495205 -0.0417867 255 0 0
-0.0125033 0.0495190 -0.0417855 255 0 0
-0.0108315 0.0495171 -0.0417844 255 0 0
-0.0091596 0.0495147 -0.0417830 255 0 0
-0.0074878 0.0495119 -0.0417816 255 0 0
-0.0058159 0.0495100 -0.0417804 255 0 0
-0.0041441 0.0495079 -0.0417804 255 0 0
-0.0024725 0.0495071 -0.0417804 255 0 0
-0.0008006 0.0495076 -0.0417805 255 0 0
0.0008715 0.0495096 -0.0417805 255 0 0
0.0025438 0.0495126 -0.0417808 255 0 0
0.0042156 0.0495210 -0.0417835 255 0 0
0.0058881 0.0495288 -0.0417857 255 0 0
0.0075603 0.0495364 -0.0417885 255 0 0
0.0092328 0.0495432 -0.0417910 255 0 0
-0.0242062 0.0512075 -0.0417888 255 0 0
-0.0225343 0.0511982 -0.0417863 255 0 0
-0.0208625 0.0511902 -0.0417850 255 0 0
-0.0191908 0.0511838 -0.0417841 255 0 0
-0.0175190 0.0511784 -0.0417837 255 0 0
-0.0158472 0.0511745 -0.0417836 255 0 0
-0.0141753 0.0511711 -0.0417832 255 0 0
-0.0125035 0.0511699 -0.0417839 255 0 0
-0.0108317 0.0511683 -0.0417841 255 0 0
-0.0091598 0.0511667 -0.0417841 255 0 0
-0.0074879 0.0511647 -0.0417836 255 0 0
-0.0058160 0.0511635 -0.0417830 255 0 0
-0.0041443 0.0511613 -0.0417835 255 0 0
-0.0024727 0.0511604 -0.0417831 255 0 0
-0.0008009 0.0511611 -0.0417825 255 0 0
0.0008711 0.0511625 -0.0417810 255 0 0
0.0025432 0.0511657 -0.0417802 255 0 0
0.0042152 0.0511736 -0.0417796 255 0 0
0.0058872 0.0511813 -0.0417798 255 0 0
0.0075595 0.0511901 -0.0417812 255 0 0
0.0092326 0.0511988 -0.0417840 255 0 0
0.0109047 0.0512061 -0.0417861 255 0 0
-0.0258790 0.0528745 -0.0417840 255 0 0
-0.0242062 0.0528626 -0.0417812 255 0 0
-0.0225344 0.0528525 -0.0417793 255 0 0
-0.0208627 0.0528442 -0.0417792 255 0 0
-0.0191909 0.0528376 -0.0417793 255 0 0
-0.0175191 0.0528326 -0.0417800 255 0 0
-0.0158472 0.0528289 -0.0417808 255 0 0
-0.0141753 0.0528258 -0.0417814 255 0 0
-0.0125035 0.0528246 -0.0417832 255 0 0
-0.0108317 0.0528234 -0.0417843 255 0 0
-0.0091599 0.0528222 -0.0417850 255 0 0
