ply
format ascii 1.0
element vertex 1206
property float x
property float y
property float z
property uchar red
property uchar green
property uchar blue
end_header
-0.0392525 0.0880645 -0.0351324 255 0 0
-0.0375807 0.0880596 -0.0351311 255 0 0
-0.0359088 0.0880567 -0.0351300 255 0 0
-0.0342369 0.0880536 -0.0351290 255 0 0
-0.0325651 0.0880500 -0.0351285 255 0 0
-0.0308932 0.0880475 -0.0351280 255 0 0
-0.0292213 0.0880432 -0.0351279 255 0 0
-0.0275495 0.0880397 -0.0351279 255 0 0
-0.0258776 0.0880376 -0.0351281 255 0 0
-0.0242057 0.0880360 -0.0351282 255 0 0
-0.0225339 0.0880344 -0.0351284 255 0 0
-0.0208620 0.0880328 -0.0351288 255 0 0
-0.0191902 0.0880316 -0.0351290 255 0 0
-0.0175183 0.0880307 -0.0351293 255 0 0
-0.0158464 0.0880303 -0.0351295 255 0 0
-0.0141747 0.0880302 -0.0351295 255 0 0
-0.0125029 0.0880301 -0.0351296 255 0 0
-0.0108310 0.0880301 -0.0351296 255 0 0
-0.0091591 0.0880305 -0.0351295 255 0 0
-0.0074873 0.0880314 -0.0351293 255 0 0
-0.0058155 0.0880326 -0.0351292 255 0 0
-0.0041436 0.0880346 -0.0351289 255 0 0
-0.0024717 0.0880362 -0.0351287 255 0 0
-0.0007999 0.0880375 -0.0351283 255 0 0
0.0008720 0.0880392 -0.0351281 255 0 0
0.0025439 0.0880412 -0.0351280 255 0 0
0.0042158 0.0880425 -0.0351279 255 0 0
0.0058877 0.0880440 -0.0351276 255 0 0
0.0075595 0.0880470 -0.0351277 255 0 0
0.0092315 0.0880487 -0.0351279 255 0 0
0.0109034 0.0880504 -0.0351282 255 0 0
0.0125752 0.0880544 -0.0351289 255 0 0
0.0142471 0.0880584 -0.0351297 255 0 0
0.0159190 0.0880606 -0.0351304 255 0 0
0.0175908 0.0880637 -0.0351313 255 0 0
0.0192627 0.0880653 -0.0351320 255 0 0
0.0209345 0.0880676 -0.0351330 255 0 0
0.0226064 0.0880696 -0.0351336 255 0 0
0.0242783 0.0880698 -0.0351341 255 0 0
0.0259501 0.0880701 -0.0351344 255 0 0
-0.0409244 0.0897375 -0.0351329 255 0 0
-0.0392525 0.0897367 -0.0351325 255 0 0
-0.0375807 0.0897325 -0.0351314 255 0 0
-0.0359088 0.0897300 -0.0351303 255 0 0
-0.0342369 0.0897273 -0.0351294 255 0 0
-0.0325651 0.0897244 -0.0351288 255 0 0
-0.0308932 0.0897217 -0.0351283 255 0 0
-0.0292213 0.0897171 -0.0351280 255 0 0
-0.0275495 0.0897148 -0.0351281 255 0 0
-0.0258776 0.0897125 -0.0351282 255 0 0
-0.0242057 0.0897110 -0.0351283 255 0 0
-0.0225339 0.0897096 -0.0351286 255 0 0
-0.0208620 0.0897080 -0.0351288 255 0 0
-0.0191902 0.0897067 -0.0351291 255 0 0
-0.0175183 0.0897059 -0.0351293 255 0 0
-0.0158464 0.0897057 -0.0351293 255 0 0
-0.0141747 0.0897056 -0.0351294 255 0 0
-0.0125028 0.0897055 -0.0351294 255 0 0
-0.0108310 0.0897055 -0.0351294 255 0 0
-0.0091591 0.0897057 -0.0351294 255 0 0
-0.0074873 0.0897067 -0.0351292 255 0 0
-0.0058154 0.0897075 -0.0351291 255 0 0
-0.0041436 0.0897099 -0.0351289 255 0 0
-0.0024717 0.0897113 -0.0351286 255 0 0
-0.0007999 0.0897127 -0.0351283 255 0 0
0.0008720 0.0897141 -0.0351281 255 0 0
0.0025439 0.0897165 -0.0351280 255 0 0
0.0042158 0.0897185 -0.0351278 255 0 0
0.0058877 0.0897195 -0.0351277 255 0 0
0.0075596 0.0897212 -0.0351279 255 0 0
0.0092315 0.0897232 -0.0351281 255 0 0
0.0109034 0.0897256 -0.0351285 255 0 0
0.0125752 0.0897281 -0.0351293 255 0 0
0.0142471 0.0897315 -0.0351299 255 0 0
0.0159190 0.0897337 -0.0351308 255 0 0
0.0175908 0.0897364 -0.0351316 255 0 0
0.0192627 0.0897380 -0.0351325 255 0 0
0.0209345 0.0897409 -0.0351332 255 0 0
0.0226064 0.0897416 -0.0351338 255 0 0
0.0242783 0.0897417 -0.0351341 255 0 0
0.0259501 0.0897419 -0.0351344 255 0 0
-0.0392525 0.0914088 -0.0351328 255 0 0
-0.0375807 0.0914080 -0.0351320 255 0 0
-0.0359088 0.0914048 -0.0351313 255 0 0
-0.0342369 0.0914024 -0.0351304 255 0 0
-0.0325651 0.0913982 -0.0351295 255 0 0
-0.0308932 0.0913963 -0.0351288 255 0 0
-0.0292213 0.0913923 -0.0351282 255 0 0
-0.0275495 0.0913892 -0.0351279 255 0 0
-0.0258776 0.0913862 -0.0351275 255 0 0
-0.0242057 0.0913849 -0.0351275 255 0 0
-0.0225339 0.0913838 -0.0351274 255 0 0
-0.0208620 0.0913815 -0.0351276 255 0 0
-0.0191902 0.0913800 -0.0351276 255 0 0
-0.0175183 0.0913794 -0.0351278 255 0 0
-0.0158464 0.0913790 -0.0351280 255 0 0
-0.0141747 0.0913789 -0.0351280 255 0 0
-0.0125028 0.0913790 -0.0351280 255 0 0
-0.0108310 0.0913793 -0.0351280 255 0 0
-0.0091591 0.0913799 -0.0351280 255 0 0
-0.0074873 0.0913805 -0.0351278 255 0 0
-0.0058154 0.0913816 -0.0351278 255 0 0
-0.0041436 0.0913840 -0.0351278 255 0 0
-0.0024717 0.0913857 -0.0351278 255 0 0
-0.0007998 0.0913877 -0.0351278 255 0 0
0.0008721 0.0913898 -0.0351279 255 0 0
0.0025440 0.0913911 -0.0351280 255 0 0
0.0042159 0.0913934 -0.0351281 255 0 0
0.0058878 0.0913953 -0.0351284 255 0 0
0.0075596 0.0913970 -0.0351288 255 0 0
0.0092315 0.0913990 -0.0351292 255 0 0
0.0109034 0.0914009 -0.0351297 255 0 0
0.0125752 0.0914043 -0.0351305 255 0 0
0.0142471 0.0914075 -0.0351313 255 0 0
0.0159190 0.0914087 -0.0351320 255 0 0
0.0175908 0.0914098 -0.0351327 255 0 0
0.0192627 0.0914124 -0.0351331 255 0 0
0.0209345 0.0914132 -0.0351337 255 0 0
0.0226064 0.0914133 -0.0351341 255 0 0
0.0242783 0.0914135 -0.0351344 255 0 0
-0.0392525 0.0930824 -0.0351332 255 0 0
-0.0375807 0.0930808 -0.0351327 255 0 0
-0.0359088 0.0930793 -0.0351318 255 0 0
-0.0342369 0.0930762 -0.0351310 255 0 0
-0.0325651 0.0930741 -0.0351300 255 0 0
-0.0308932 0.0930704 -0.0351294 255 0 0
-0.0292213 0.0930663 -0.0351286 255 0 0
-0.0275495 0.0930645 -0.0351279 255 0 0
-0.0258776 0.0930609 -0.0351273 255 0 0
-0.0242057 0.0930599 -0.0351271 255 0 0
-0.0225339 0.0930585 -0.0351269 255 0 0
-0.0208620 0.0930551 -0.0351268 255 0 0
-0.0191902 0.0930535 -0.0351269 255 0 0
-0.0175183 0.0930526 -0.0351269 255 0 0
-0.0158464 0.0930523 -0.0351269 255 0 0
-0.0141747 0.0930522 -0.0351269 255 0 0
-0.0125028 0.0930522 -0.0351269 255 0 0
-0.0108309 0.0930524 -0.0351269 255 0 0
-0.0091591 0.0930534 -0.0351269 255 0 0
-0.0074873 0.0930545 -0.0351269 255 0 0
-0.0058154 0.0930560 -0.0351269 255 0 0
-0.0041435 0.0930581 -0.0351270 255 0 0
-0.0024716 0.0930601 -0.0351273 255 0 0
-0.0007998 0.0930628 -0.0351275 255 0 0
0.0008721 0.0930643 -0.0351278 255 0 0
0.0025440 0.0930671 -0.0351281 255 0 0
0.0042159 0.0930689 -0.0351285 255 0 0
0.0058878 0.0930702 -0.0351290 255 0 0
0.0075596 0.0930728 -0.0351294 255 0 0
0.0092315 0.0930748 -0.0351301 255 0 0
0.0109034 0.0930757 -0.0351306 255 0 0
0.0125752 0.0930794 -0.0351314 255 0 0
0.0142471 0.0930806 -0.0351322 255 0 0
0.0159190 0.0930825 -0.0351329 255 0 0
0.0175908 0.0930846 -0.0351334 255 0 0
0.0192627 0.0930847 -0.0351338 255 0 0
0.0209345 0.0930851 -0.0351343 255 0 0
0.0226064 0.0930851 -0.0351344 255 0 0
-0.0375807 0.0947535 -0.0351329 255 0 0
-0.0359088 0.0947524 -0.0351325 255 0 0
-0.0342369 0.0947508 -0.0351317 255 0 0
-0.0325651 0.0947483 -0.0351308 255 0 0
-0.0308932 0.0947448 -0.0351299 255 0 0
-0.0292213 0.0947416 -0.0351290 255 0 0
-0.0275495 0.0947390 -0.0351282 255 0 0
-0.0258776 0.0947364 -0.0351276 255 0 0
-0.0242057 0.0947345 -0.0351272 255 0 0
-0.0225339 0.0947332 -0.0351268 255 0 0
-0.0208620 0.0947308 -0.0351267 255 0 0
-0.0191902 0.0947291 -0.0351266 255 0 0
-0.0175183 0.0947282 -0.0351266 255 0 0
-0.0158464 0.0947279 -0.0351266 255 0 0
-0.0141746 0.0947279 -0.0351266 255 0 0
-0.0125028 0.0947279 -0.0351265 255 0 0
-0.0108309 0.0947281 -0.0351265 255 0 0
-0.0091590 0.0947287 -0.0351266 255 0 0
-0.0074873 0.0947294 -0.0351266 255 0 0
-0.0058154 0.0947316 -0.0351267 255 0 0
-0.0041435 0.0947341 -0.0351270 255 0 0
-0.0024716 0.0947357 -0.0351273 255 0 0
-0.0007998 0.0947376 -0.0351277 255 0 0
0.0008721 0.0947399 -0.0351279 255 0 0
0.0025440 0.0947413 -0.0351284 255 0 0
0.0042159 0.0947428 -0.0351291 255 0 0
0.0058878 0.0947454 -0.0351297 255 0 0
0.0075596 0.0947476 -0.0351303 255 0 0
0.0092315 0.0947489 -0.0351309 255 0 0
0.0109034 0.0947506 -0.0351314 255 0 0
0.0125752 0.0947531 -0.0351323 255 0 0
0.0142471 0.0947545 -0.0351330 255 0 0
0.0159190 0.0947564 -0.0351336 255 0 0
0.0175908 0.0947565 -0.0351339 255 0 0
0.0192627 0.0947566 -0.0351343 255 0 0
0.0209345 0.0947569 -0.0351344 255 0 0
0.0226064 0.0947570 -0.0351346 255 0 0
-0.0375807 0.0964266 -0.0351331 255 0 0
-0.0359088 0.0964251 -0.0351327 255 0 0
-0.0342369 0.0964235 -0.0351321 255 0 0
-0.0325651 0.0964217 -0.0351313 255 0 0
-0.0308932 0.0964195 -0.0351305 255 0 0
-0.0292213 0.0964156 -0.0351295 255 0 0
-0.0275495 0.0964125 -0.0351288 255 0 0
-0.0258776 0.0964110 -0.0351281 255 0 0
-0.0242057 0.0964098 -0.0351278 255 0 0
-0.0225339 0.0964082 -0.0351274 255 0 0
-0.0208620 0.0964063 -0.0351271 255 0 0
-0.0191902 0.0964053 -0.0351269 255 0 0
-0.0175183 0.0964042 -0.0351268 255 0 0
-0.0158464 0.0964038 -0.0351267 255 0 0
-0.0141746 0.0964038 -0.0351267 255 0 0
-0.0125027 0.0964037 -0.0351267 255 0 0
-0.0108309 0.0964039 -0.0351267 255 0 0
-0.0091590 0.0964042 -0.0351268 255 0 0
-0.0074872 0.0964054 -0.0351269 255 0 0
-0.0058154 0.0964063 -0.0351271 255 0 0
-0.0041435 0.0964086 -0.0351274 255 0 0
-0.0024716 0.0964102 -0.0351277 255 0 0
-0.0007997 0.0964119 -0.0351280 255 0 0
0.0008721 0.0964137 -0.0351284 255 0 0
0.0025440 0.0964158 -0.0351290 255 0 0
0.0042159 0.0964169 -0.0351297 255 0 0
0.0058878 0.0964200 -0.0351304 255 0 0
0.0075596 0.0964217 -0.0351310 255 0 0
0.0092315 0.0964231 -0.0351315 255 0 0
0.0109034 0.0964243 -0.0351321 255 0 0
0.0125752 0.0964257 -0.0351327 255 0 0
0.0142471 0.0964282 -0.0351334 255 0 0
0.0159190 0.0964282 -0.0351337 255 0 0
0.0175908 0.0964284 -0.0351342 255 0 0
0.0192627 0.0964285 -0.0351344 255 0 0
0.0209345 0.0964288 -0.0351345 255 0 0
-0.0359088 0.0980974 -0.0351329 255 0 0
-0.0342369 0.0980956 -0.0351323 255 0 0
-0.0325651 0.0980953 -0.0351316 255 0 0
-0.0308932 0.0980931 -0.0351311 255 0 0
-0.0292213 0.0980898 -0.0351299 255 0 0
-0.0275495 0.0980875 -0.0351290 255 0 0
-0.0258776 0.0980853 -0.0351285 255 0 0
-0.0242057 0.0980841 -0.0351281 255 0 0
-0.0225339 0.0980833 -0.0351279 255 0 0
-0.0208620 0.0980816 -0.0351274 255 0 0
-0.0191902 0.0980802 -0.0351272 255 0 0
-0.0175183 0.0980794 -0.0351270 255 0 0
-0.0158464 0.0980790 -0.0351270 255 0 0
-0.0141746 0.0980791 -0.0351269 255 0 0
-0.0125027 0.0980792 -0.0351269 255 0 0
-0.0108308 0.0980794 -0.0351269 255 0 0
-0.0091590 0.0980798 -0.0351271 255 0 0
-0.0074872 0.0980808 -0.0351273 255 0 0
-0.0058153 0.0980819 -0.0351274 255 0 0
-0.0041435 0.0980838 -0.0351278 255 0 0
-0.0024716 0.0980855 -0.0351281 255 0 0
-0.0007997 0.0980865 -0.0351284 255 0 0
0.0008721 0.0980880 -0.0351289 255 0 0
0.0025440 0.0980891 -0.0351294 255 0 0
0.0042159 0.0980909 -0.0351302 255 0 0
0.0058878 0.0980942 -0.0351309 255 0 0
0.0075596 0.0980953 -0.0351314 255 0 0
0.0092315 0.0980956 -0.0351320 255 0 0
0.0109034 0.0980978 -0.0351324 255 0 0
0.0125752 0.0980995 -0.0351330 255 0 0
0.0142471 0.0981001 -0.0351335 255 0 0
0.0159190 0.0981001 -0.0351339 255 0 0
0.0175908 0.0981002 -0.0351343 255 0 0
0.0192627 0.0981003 -0.0351344 255 0 0
-0.0342369 0.0997703 -0.0351332 255 0 0
-0.0325651 0.0997683 -0.0351326 255 0 0
-0.0308932 0.0997676 -0.0351322 255 0 0
-0.0292213 0.0997660 -0.0351314 255 0 0
-0.0275495 0.0997634 -0.0351307 255 0 0
-0.0258776 0.0997621 -0.0351302 255 0 0
-0.0242057 0.0997611 -0.0351299 255 0 0
-0.0225339 0.0997599 -0.0351296 255 0 0
-0.0208620 0.0997586 -0.0351293 255 0 0
-0.0191902 0.0997579 -0.0351290 255 0 0
-0.0175183 0.0997575 -0.0351288 255 0 0
-0.0158464 0.0997573 -0.0351287 255 0 0
-0.0141746 0.0997571 -0.0351287 255 0 0
-0.0125027 0.0997569 -0.0351287 255 0 0
-0.0108308 0.0997572 -0.0351286 255 0 0
-0.0091590 0.0997575 -0.0351287 255 0 0
-0.0074872 0.0997581 -0.0351288 255 0 0
-0.0058153 0.0997585 -0.0351290 255 0 0
-0.0041434 0.0997597 -0.0351294 255 0 0
-0.0024716 0.0997610 -0.0351298 255 0 0
-0.0007997 0.0997624 -0.0351303 255 0 0
0.0008722 0.0997641 -0.0351306 255 0 0
0.0025441 0.0997663 -0.0351310 255 0 0
0.0042159 0.0997675 -0.0351316 255 0 0
0.0058878 0.0997680 -0.0351321 255 0 0
0.0075596 0.0997698 -0.0351327 255 0 0
0.0092315 0.0997714 -0.0351330 255 0 0
0.0109034 0.0997719 -0.0351334 255 0 0
0.0125752 0.0997719 -0.0351338 255 0 0
0.0142471 0.0997720 -0.0351343 255 0 0
0.0159190 0.0997721 -0.0351345 255 0 0
0.0175908 0.0997722 -0.0351346 255 0 0
-0.0325651 0.1014429 -0.0351333 255 0 0
-0.0308932 0.1014405 -0.0351330 255 0 0
-0.0292213 0.1014400 -0.0351326 255 0 0
-0.0275495 0.1014394 -0.0351321 255 0 0
-0.0258776 0.1014385 -0.0351318 255 0 0
-0.0242057 0.1014368 -0.0351315 255 0 0
-0.0225339 0.1014357 -0.0351312 255 0 0
-0.0208620 0.1014346 -0.0351309 255 0 0
-0.0191902 0.1014341 -0.0351306 255 0 0
-0.0175183 0.1014327 -0.0351304 255 0 0
-0.0158464 0.1014325 -0.0351302 255 0 0
-0.0141746 0.1014323 -0.0351302 255 0 0
-0.0125027 0.1014326 -0.0351301 255 0 0
-0.0108308 0.1014333 -0.0351301 255 0 0
-0.0091590 0.1014336 -0.0351302 255 0 0
-0.0074871 0.1014342 -0.0351303 255 0 0
-0.0058153 0.1014350 -0.0351305 255 0 0
-0.0041434 0.1014358 -0.0351308 255 0 0
-0.0024716 0.1014376 -0.0351312 255 0 0
-0.0007997 0.1014387 -0.0351316 255 0 0
0.0008722 0.1014390 -0.0351320 255 0 0
0.0025441 0.1014398 -0.0351323 255 0 0
0.0042159 0.1014411 -0.0351328 255 0 0
0.0058878 0.1014433 -0.0351333 255 0 0
0.0075596 0.1014437 -0.0351336 255 0 0
0.0092315 0.1014438 -0.0351338 255 0 0
0.0109034 0.1014438 -0.0351340 255 0 0
0.0125752 0.1014438 -0.0351344 255 0 0
0.0142471 0.1014438 -0.0351345 255 0 0
0.0159190 0.1014441 -0.0351348 255 0 0
-0.0308932 0.1031152 -0.0351335 255 0 0
-0.0292213 0.1031135 -0.0351331 255 0 0
-0.0275495 0.1031121 -0.0351329 255 0 0
-0.0258776 0.1031118 -0.0351326 255 0 0
-0.0242057 0.1031113 -0.0351323 255 0 0
-0.0225339 0.1031109 -0.0351322 255 0 0
-0.0208620 0.1031107 -0.0351318 255 0 0
-0.0191902 0.1031096 -0.0351315 255 0 0
-0.0175183 0.1031085 -0.0351314 255 0 0
-0.0158464 0.1031082 -0.0351312 255 0 0
-0.0141746 0.1031080 -0.0351312 255 0 0
-0.0125027 0.1031079 -0.0351311 255 0 0
-0.0108308 0.1031081 -0.0351311 255 0 0
-0.0091590 0.1031086 -0.0351312 255 0 0
-0.0074871 0.1031089 -0.0351314 255 0 0
-0.0058153 0.1031096 -0.0351316 255 0 0
-0.0041434 0.1031106 -0.0351319 255 0 0
-0.0024715 0.1031109 -0.0351322 255 0 0
-0.0007997 0.1031125 -0.0351326 255 0 0
0.0008722 0.1031132 -0.0351329 255 0 0
0.0025441 0.1031147 -0.0351332 255 0 0
0.0042159 0.1031151 -0.0351336 255 0 0
0.0058878 0.1031155 -0.0351338 255 0 0
0.0075596 0.1031161 -0.0351341 255 0 0
0.0092315 0.1031161 -0.0351342 255 0 0
0.0109034 0.1031161 -0.0351344 255 0 0
0.0125752 0.1031162 -0.0351347 255 0 0
0.0142471 0.1031163 -0.0351349 255 0 0
-0.0292213 0.1047860 -0.0351331 255 0 0
-0.0275495 0.1047847 -0.0351330 255 0 0
-0.0258776 0.1047839 -0.0351327 255 0 0
-0.0242057 0.1047833 -0.0351326 255 0 0
-0.0225339 0.1047828 -0.0351324 255 0 0
-0.0208620 0.1047827 -0.0351322 255 0 0
-0.0191902 0.1047827 -0.0351321 255 0 0
-0.0175183 0.1047827 -0.0351320 255 0 0
-0.0158464 0.1047826 -0.0351320 255 0 0
-0.0141746 0.1047825 -0.0351319 255 0 0
-0.0125027 0.1047824 -0.0351319 255 0 0
-0.0108308 0.1047824 -0.0351319 255 0 0
-0.0091590 0.1047825 -0.0351319 255 0 0
-0.0074871 0.1047826 -0.0351321 255 0 0
-0.0058153 0.1047834 -0.0351322 255 0 0
-0.0041434 0.1047842 -0.0351324 255 0 0
-0.0024715 0.1047853 -0.0351328 255 0 0
-0.0007997 0.1047859 -0.0351331 255 0 0
0.0008722 0.1047874 -0.0351333 255 0 0
0.0025441 0.1047874 -0.0351336 255 0 0
0.0042159 0.1047877 -0.0351338 255 0 0
0.0058878 0.1047880 -0.0351341 255 0 0
0.0075596 0.1047880 -0.0351343 255 0 0
0.0092315 0.1047880 -0.0351343 255 0 0
0.0109034 0.1047880 -0.0351344 255 0 0
-0.0258776 0.1064548 -0.0351326 255 0 0
-0.0242057 0.1064548 -0.0351322 255 0 0
-0.0225339 0.1064548 -0.0351319 255 0 0
-0.0208620 0.1064548 -0.0351321 255 0 0
-0.0191902 0.1064549 -0.0351321 255 0 0
-0.0175183 0.1064555 -0.0351322 255 0 0
-0.0158464 0.1064556 -0.0351323 255 0 0
-0.0141746 0.1064557 -0.0351324 255 0 0
-0.0125027 0.1064558 -0.0351324 255 0 0
-0.0108308 0.1064559 -0.0351325 255 0 0
-0.0091590 0.1064561 -0.0351326 255 0 0
-0.0074871 0.1064562 -0.0351326 255 0 0
-0.0058153 0.1064566 -0.0351328 255 0 0
-0.0041434 0.1064574 -0.0351330 255 0 0
-0.0024715 0.1064588 -0.0351332 255 0 0
-0.0007997 0.1064593 -0.0351334 255 0 0
0.0008722 0.1064593 -0.0351337 255 0 0
0.0025441 0.1064593 -0.0351338 255 0 0
0.0042159 0.1064596 -0.0351340 255 0 0
0.0058878 0.1064599 -0.0351343 255 0 0
0.0075596 0.1064599 -0.0351343 255 0 0
0.0092315 0.1064599 -0.0351343 255 0 0
-0.0208620 0.1081308 -0.0351344 255 0 0
-0.0191902 0.1081307 -0.0351340 255 0 0
-0.0175183 0.1081307 -0.0351337 255 0 0
-0.0158464 0.1081307 -0.0351335 255 0 0
-0.0141746 0.1081309 -0.0351334 255 0 0
-0.0125027 0.1081309 -0.0351334 255 0 0
-0.0108308 0.1081309 -0.0351334 255 0 0
-0.0091590 0.1081311 -0.0351334 255 0 0
-0.0074871 0.1081312 -0.0351335 255 0 0
-0.0058153 0.1081312 -0.0351337 255 0 0
-0.0041434 0.1081312 -0.0351339 255 0 0
-0.0024715 0.1081312 -0.0351340 255 0 0
-0.0007997 0.1081312 -0.0351341 255 0 0
0.0008722 0.1081313 -0.0351342 255 0 0
0.0025441 0.1081315 -0.0351344 255 0 0
0.0042159 0.1081318 -0.0351345 255 0 0
0.0058878 0.1081318 -0.0351346 255 0 0
-0.0175183 0.1098026 -0.0351346 255 0 0
-0.0158464 0.1098026 -0.0351344 255 0 0
-0.0141746 0.1098031 -0.0351343 255 0 0
-0.0125027 0.1098032 -0.0351343 255 0 0
-0.0108308 0.1098036 -0.0351342 255 0 0
-0.0091590 0.1098036 -0.0351342 255 0 0
-0.0074871 0.1098036 -0.0351343 255 0 0
-0.0058153 0.1098036 -0.0351343 255 0 0
-0.0041434 0.1098037 -0.0351344 255 0 0
-0.0024715 0.1098037 -0.0351346 255 0 0
-0.0007997 0.1098041 -0.0351346 255 0 0
0.0008722 0.1098044 -0.0351347 255 0 0
0.0025441 0.1098044 -0.0351347 255 0 0
0.0042159 0.1098045 -0.0351348 255 0 0
-0.0141746 0.1114756 -0.0351347 255 0 0
-0.0125027 0.1114758 -0.0351346 255 0 0
-0.0108308 0.1114758 -0.0351346 255 0 0
-0.0091590 0.1114758 -0.0351346 255 0 0
-0.0074871 0.1114758 -0.0351347 255 0 0
-0.0058153 0.1114758 -0.0351347 255 0 0
-0.0041434 0.1114759 -0.0351347 255 0 0
-0.0024715 0.1114762 -0.0351347 255 0 0
-0.0007997 0.1114765 -0.0351347 255 0 0
0.0008722 0.1114767 -0.0351348 255 0 0
-0.0041434 0.0412567 -0.0334624 255 0 0
-0.0024715 0.0412567 -0.0334624 255 0 0
-0.0141746 0.0429284 -0.0334627 255 0 0
-0.0125027 0.0429282 -0.0334626 255 0 0
-0.0108308 0.0429281 -0.0334625 255 0 0
-0.0091590 0.0429279 -0.0334624 255 0 0
-0.0074871 0.0429278 -0.0334623 255 0 0
-0.0058153 0.0429277 -0.0334623 255 0 0
-0.0041434 0.0429277 -0.0334622 255 0 0
-0.0024715 0.0429277 -0.0334622 255 0 0
-0.0007997 0.0429279 -0.0334623 255 0 0
0.0008722 0.0429282 -0.0334624 255 0 0
0.0025441 0.0429283 -0.0334624 255 0 0
0.0042159 0.0429285 -0.0334624 255 0 0
0.0058878 0.0429286 -0.0334625 255 0 0
-0.0208620 0.0446002 -0.0334626 255 0 0
-0.0191902 0.0445999 -0.0334626 255 0 0
-0.0175183 0.0445997 -0.0334625 255 0 0
-0.0158464 0.0445995 -0.0334623 255 0 0
-0.0141746 0.0445994 -0.0334622 255 0 0
-0.0125027 0.0445993 -0.0334621 255 0 0
-0.0108308 0.0445992 -0.0334621 255 0 0
-0.0091590 0.0445991 -0.0334619 255 0 0
-0.0074871 0.0445990 -0.0334619 255 0 0
-0.0058153 0.0445990 -0.0334618 255 0 0
-0.0041434 0.0445990 -0.0334617 255 0 0
-0.0024715 0.0445991 -0.0334618 255 0 0
-0.0007997 0.0445991 -0.0334619 255 0 0
0.0008722 0.0445992 -0.0334620 255 0 0
0.0025441 0.0445992 -0.0334620 255 0 0
0.0042159 0.0445994 -0.0334622 255 0 0
0.0058878 0.0445999 -0.0334623 255 0 0
0.0075596 0.0446000 -0.0334624 255 0 0
0.0092315 0.0446002 -0.0334624 255 0 0
-0.0242057 0.0462720 -0.0334622 255 0 0
-0.0225339 0.0462718 -0.0334623 255 0 0
-0.0208620 0.0462716 -0.0334625 255 0 0
-0.0191902 0.0462711 -0.0334623 255 0 0
-0.0175183 0.0462709 -0.0334623 255 0 0
-0.0158464 0.0462705 -0.0334620 255 0 0
-0.0141746 0.0462702 -0.0334620 255 0 0
-0.0125027 0.0462700 -0.0334620 255 0 0
-0.0108308 0.0462699 -0.0334619 255 0 0
-0.0091590 0.0462698 -0.0334618 255 0 0
-0.0074871 0.0462697 -0.0334618 255 0 0
-0.0058153 0.0462697 -0.0334618 255 0 0
-0.0041434 0.0462697 -0.0334617 255 0 0
-0.0024716 0.0462697 -0.0334617 255 0 0
-0.0007997 0.0462698 -0.0334617 255 0 0
0.0008721 0.0462699 -0.0334618 255 0 0
0.0025440 0.0462701 -0.0334618 255 0 0
0.0042159 0.0462705 -0.0334619 255 0 0
0.0058878 0.0462709 -0.0334620 255 0 0
0.0075596 0.0462712 -0.0334620 255 0 0
0.0092315 0.0462716 -0.0334621 255 0 0
0.0109034 0.0462718 -0.0334621 255 0 0
0.0125752 0.0462721 -0.0334621 255 0 0
-0.0275495 0.0479439 -0.0334624 255 0 0
-0.0258776 0.0479436 -0.0334625 255 0 0
-0.0242057 0.0479435 -0.0334623 255 0 0
-0.0225339 0.0479433 -0.0334623 255 0 0
-0.0208620 0.0479429 -0.0334623 255 0 0
-0.0191902 0.0479425 -0.0334621 255 0 0
-0.0175183 0.0479422 -0.0334621 255 0 0
-0.0158464 0.0479417 -0.0334619 255 0 0
-0.0141746 0.0479415 -0.0334620 255 0 0
-0.0125027 0.0479412 -0.0334618 255 0 0
-0.0108308 0.0479411 -0.0334617 255 0 0
-0.0091590 0.0479409 -0.0334616 255 0 0
-0.0074871 0.0479408 -0.0334615 255 0 0
-0.0058153 0.0479408 -0.0334615 255 0 0
-0.0041434 0.0479407 -0.0334614 255 0 0
-0.0024716 0.0479408 -0.0334615 255 0 0
-0.0007997 0.0479409 -0.0334615 255 0 0
0.0008721 0.0479411 -0.0334615 255 0 0
0.0025440 0.0479413 -0.0334617 255 0 0
0.0042159 0.0479418 -0.0334617 255 0 0
0.0058878 0.0479423 -0.0334618 255 0 0
0.0075596 0.0479426 -0.0334618 255 0 0
0.0092315 0.0479431 -0.0334620 255 0 0
0.0109034 0.0479433 -0.0334619 255 0 0
0.0125752 0.0479436 -0.0334621 255 0 0
0.0142471 0.0479440 -0.0334622 255 0 0
-0.0292213 0.0496154 -0.0334624 255 0 0
-0.0275495 0.0496150 -0.0334621 255 0 0
-0.0258776 0.0496144 -0.0334618 255 0 0
-0.0242057 0.0496139 -0.0334617 255 0 0
-0.0225339 0.0496134 -0.0334615 255 0 0
-0.0208620 0.0496126 -0.0334613 255 0 0
-0.0191902 0.0496121 -0.0334612 255 0 0
-0.0175183 0.0496117 -0.0334610 255 0 0
-0.0158464 0.0496113 -0.0334610 255 0 0
-0.0141746 0.0496109 -0.0334609 255 0 0
-0.0125027 0.0496104 -0.0334610 255 0 0
-0.0108308 0.0496101 -0.0334609 255 0 0
-0.0091590 0.0496099 -0.0334608 255 0 0
-0.0074871 0.0496098 -0.0334608 255 0 0
-0.0058153 0.0496098 -0.0334608 255 0 0
-0.0041434 0.0496098 -0.0334607 255 0 0
-0.0024716 0.0496099 -0.0334607 255 0 0
-0.0007998 0.0496101 -0.0334608 255 0 0
0.0008721 0.0496104 -0.0334608 255 0 0
0.0025440 0.0496108 -0.0334609 255 0 0
0.0042159 0.0496114 -0.0334606 255 0 0
0.0058878 0.0496120 -0.0334608 255 0 0
0.0075596 0.0496126 -0.0334611 255 0 0
0.0092315 0.0496129 -0.0334613 255 0 0
0.0109034 0.0496140 -0.0334614 255 0 0
0.0125752 0.0496145 -0.0334618 255 0 0
0.0142471 0.0496152 -0.0334619 255 0 0
0.0159190 0.0496155 -0.0334622 255 0 0
-0.0308932 0.0512874 -0.0334622 255 0 0
-0.0292213 0.0512867 -0.0334621 255 0 0
-0.0275495 0.0512860 -0.0334616 255 0 0
-0.0258776 0.0512853 -0.0334613 255 0 0
-0.0242057 0.0512845 -0.0334610 255 0 0
-0.0225339 0.0512839 -0.0334609 255 0 0
-0.0208620 0.0512828 -0.0334606 255 0 0
-0.0191902 0.0512820 -0.0334605 255 0 0
-0.0175183 0.0512816 -0.0334604 255 0 0
-0.0158464 0.0512811 -0.0334606 255 0 0
-0.0141746 0.0512808 -0.0334605 255 0 0
-0.0125027 0.0512803 -0.0334606 255 0 0
-0.0108308 0.0512800 -0.0334608 255 0 0
-0.0091590 0.0512797 -0.0334609 255 0 0
-0.0074872 0.0512797 -0.0334609 255 0 0
-0.0058153 0.0512797 -0.0334608 255 0 0
-0.0041434 0.0512796 -0.0334607 255 0 0
-0.0024716 0.0512797 -0.0334606 255 0 0
-0.0007998 0.0512799 -0.0334605 255 0 0
0.0008721 0.0512803 -0.0334600 255 0 0
0.0025440 0.0512808 -0.0334601 255 0 0
0.0042159 0.0512814 -0.0334601 255 0 0
0.0058878 0.0512821 -0.0334601 255 0 0
0.0075596 0.0512830 -0.0334603 255 0 0
0.0092315 0.0512838 -0.0334605 255 0 0
0.0109034 0.0512844 -0.0334608 255 0 0
0.0125752 0.0512856 -0.0334612 255 0 0
0.0142471 0.0512865 -0.0334616 255 0 0
0.0159190 0.0512869 -0.0334619 255 0 0
0.0175908 0.0512870 -0.0334619 255 0 0
-0.0325651 0.0529592 -0.0334622 255 0 0
-0.0308932 0.0529585 -0.0334618 255 0 0
-0.0292213 0.0529577 -0.0334615 255 0 0
-0.0275495 0.0529568 -0.0334613 255 0 0
-0.0258776 0.0529561 -0.0334610 255 0 0
-0.0242057 0.0529549 -0.0334608 255 0 0
-0.0225339 0.0529543 -0.0334605 255 0 0
-0.0208620 0.0529534 -0.0334604 255 0 0
-0.0191902 0.0529523 -0.0334604 255 0 0
-0.0175183 0.0529517 -0.0334604 255 0 0
-0.0158464 0.0529513 -0.0334605 255 0 0
-0.0141746 0.0529510 -0.0334604 255 0 0
-0.0125027 0.0529507 -0.0334605 255 0 0
-0.0108308 0.0529505 -0.0334606 255 0 0
-0.0091590 0.0529502 -0.0334607 255 0 0
-0.0074872 0.0529501 -0.0334607 255 0 0
-0.0058153 0.0529501 -0.0334606 255 0 0
-0.0041435 0.0529501 -0.0334605 255 0 0
-0.0024716 0.0529502 -0.0334604 255 0 0
-0.0007998 0.0529504 -0.0334604 255 0 0
0.0008721 0.0529506 -0.0334603 255 0 0
0.0025440 0.0529510 -0.0334602 255 0 0
0.0042158 0.0529518 -0.0334599 255 0 0
0.0058878 0.0529527 -0.0334600 255 0 0
0.0075596 0.0529534 -0.0334598 255 0 0
0.0092315 0.0529543 -0.0334599 255 0 0
0.0109034 0.0529551 -0.0334603 255 0 0
0.0125752 0.0529566 -0.0334608 255 0 0
0.0142471 0.0529572 -0.0334611 255 0 0
0.0159190 0.0529581 -0.0334616 255 0 0
0.0175908 0.0529587 -0.0334616 255 0 0
0.0192627 0.0529590 -0.0334616 255 0 0
-0.0342369 0.0546313 -0.0334622 255 0 0
-0.0325651 0.0546304 -0.0334619 255 0 0
-0.0308932 0.0546299 -0.0334617 255 0 0
-0.0292213 0.0546287 -0.0334614 255 0 0
-0.0275495 0.0546277 -0.0334609 255 0 0
-0.0258776 0.0546268 -0.0334608 255 0 0
-0.0242057 0.0546262 -0.0334607 255 0 0
-0.0225339 0.0546251 -0.0334606 255 0 0
-0.0208620 0.0546244 -0.0334606 255 0 0
-0.0191902 0.0546238 -0.0334607 255 0 0
-0.0175183 0.0546233 -0.0334608 255 0 0
-0.0158464 0.0546228 -0.0334608 255 0 0
-0.0141746 0.0546224 -0.0334608 255 0 0
-0.0125027 0.0546220 -0.0334610 255 0 0
-0.0108308 0.0546218 -0.0334612 255 0 0
-0.0091590 0.0546217 -0.0334613 255 0 0
-0.0074872 0.0546216 -0.0334613 255 0 0
-0.0058153 0.0546216 -0.0334612 255 0 0
-0.0041435 0.0546216 -0.0334611 255 0 0
-0.0024716 0.0546216 -0.0334609 255 0 0
-0.0007998 0.0546218 -0.0334608 255 0 0
0.0008721 0.0546224 -0.0334608 255 0 0
0.0025440 0.0546228 -0.0334606 255 0 0
0.0042158 0.0546233 -0.0334603 255 0 0
0.0058877 0.0546239 -0.0334602 255 0 0
0.0075596 0.0546245 -0.0334600 255 0 0
0.0092315 0.0546257 -0.0334601 255 0 0
0.0109034 0.0546264 -0.0334601 255 0 0
0.0125752 0.0546275 -0.0334604 255 0 0
0.0142471 0.0546286 -0.0334608 255 0 0
0.0159190 0.0546293 -0.0334611 255 0 0
0.0175908 0.0546300 -0.0334613 255 0 0
0.0192627 0.0546304 -0.0334615 255 0 0
0.0209345 0.0546311 -0.0334618 255 0 0
-0.0359088 0.0563031 -0.0334623 255 0 0
-0.0342369 0.0563022 -0.0334620 255 0 0
-0.0325651 0.0563016 -0.0334618 255 0 0
-0.0308932 0.0563011 -0.0334616 255 0 0
-0.0292213 0.0563000 -0.0334612 255 0 0
-0.0275495 0.0562992 -0.0334609 255 0 0
-0.0258776 0.0562982 -0.0334609 255 0 0
-0.0242057 0.0562974 -0.0334609 255 0 0
-0.0225339 0.0562967 -0.0334607 255 0 0
-0.0208620 0.0562959 -0.0334609 255 0 0
-0.0191902 0.0562952 -0.0334609 255 0 0
-0.0175183 0.0562946 -0.0334611 255 0 0
-0.0158464 0.0562943 -0.0334612 255 0 0
-0.0141746 0.0562940 -0.0334613 255 0 0
-0.0125027 0.0562936 -0.0334615 255 0 0
-0.0108308 0.0562933 -0.0334616 255 0 0
-0.0091590 0.0562932 -0.0334617 255 0 0
-0.0074872 0.0562932 -0.0334617 255 0 0
-0.0058153 0.0562932 -0.0334616 255 0 0
-0.0041435 0.0562933 -0.0334616 255 0 0
-0.0024717 0.0562935 -0.0334615 255 0 0
-0.0007998 0.0562937 -0.0334614 255 0 0
0.0008721 0.0562940 -0.0334612 255 0 0
0.0025440 0.0562945 -0.0334610 255 0 0
0.0042159 0.0562952 -0.0334607 255 0 0
0.0058877 0.0562958 -0.0334605 255 0 0
0.0075596 0.0562965 -0.0334603 255 0 0
0.0092315 0.0562970 -0.0334603 255 0 0
0.0109034 0.0562980 -0.0334603 255 0 0
0.0125752 0.0562990 -0.0334603 255 0 0
0.0142471 0.0562999 -0.0334607 255 0 0
0.0159190 0.0563011 -0.0334609 255 0 0
0.0175908 0.0563014 -0.0334612 255 0 0
0.0192627 0.0563020 -0.0334614 255 0 0
0.0209345 0.0563028 -0.0334619 255 0 0
0.0226064 0.0563033 -0.0334620 255 0 0
-0.0359088 0.0579739 -0.0334619 255 0 0
-0.0342369 0.0579731 -0.0334618 255 0 0
-0.0325651 0.0579723 -0.0334614 255 0 0
-0.0308932 0.0579715 -0.0334611 255 0 0
-0.0292213 0.0579697 -0.0334607 255 0 0
-0.0275495 0.0579688 -0.0334603 255 0 0
-0.0258776 0.0579674 -0.0334600 255 0 0
-0.0242057 0.0579667 -0.0334601 255 0 0
-0.0225339 0.0579659 -0.0334602 255 0 0
-0.0208620 0.0579653 -0.0334604 255 0 0
-0.0191902 0.0579645 -0.0334606 255 0 0
-0.0175183 0.0579641 -0.0334607 255 0 0
-0.0158464 0.0579638 -0.0334610 255 0 0
-0.0141746 0.0579634 -0.0334611 255 0 0
-0.0125027 0.0579631 -0.0334612 255 0 0
-0.0108308 0.0579629 -0.0334613 255 0 0
-0.0091590 0.0579627 -0.0334614 255 0 0
-0.0074872 0.0579627 -0.0334613 255 0 0
-0.0058154 0.0579628 -0.0334613 255 0 0
-0.0041435 0.0579628 -0.0334613 255 0 0
-0.0024717 0.0579629 -0.0334612 255 0 0
-0.0007998 0.0579631 -0.0334610 255 0 0
0.0008721 0.0579635 -0.0334608 255 0 0
0.0025439 0.0579641 -0.0334606 255 0 0
0.0042158 0.0579645 -0.0334602 255 0 0
0.0058877 0.0579650 -0.0334601 255 0 0
0.0075596 0.0579658 -0.0334598 255 0 0
0.0092315 0.0579667 -0.0334598 255 0 0
0.0109034 0.0579679 -0.0334598 255 0 0
0.0125752 0.0579690 -0.0334599 255 0 0
0.0142471 0.0579702 -0.0334599 255 0 0
0.0159190 0.0579715 -0.0334601 255 0 0
0.0175908 0.0579721 -0.0334606 255 0 0
0.0192627 0.0579732 -0.0334610 255 0 0
0.0209345 0.0579740 -0.0334616 255 0 0
0.0226064 0.0579748 -0.0334619 255 0 0
0.0242783 0.0579752 -0.0334621 255 0 0
-0.0375807 0.0596459 -0.0334622 255 0 0
-0.0359088 0.0596449 -0.0334619 255 0 0
-0.0342369 0.0596440 -0.0334614 255 0 0
-0.0325651 0.0596428 -0.0334610 255 0 0
-0.0308932 0.0596418 -0.0334606 255 0 0
-0.0292213 0.0596402 -0.0334601 255 0 0
-0.0275495 0.0596388 -0.0334598 255 0 0
-0.0258776 0.0596377 -0.0334598 255 0 0
-0.0242057 0.0596368 -0.0334597 255 0 0
-0.0225339 0.0596361 -0.0334599 255 0 0
-0.0208620 0.0596351 -0.0334601 255 0 0
-0.0191902 0.0596345 -0.0334605 255 0 0
-0.0175183 0.0596340 -0.0334608 255 0 0
-0.0158464 0.0596337 -0.0334610 255 0 0
-0.0141746 0.0596335 -0.0334611 255 0 0
-0.0125027 0.0596333 -0.0334613 255 0 0
-0.0108308 0.0596332 -0.0334614 255 0 0
-0.0091590 0.0596331 -0.0334614 255 0 0
-0.0074873 0.0596331 -0.0334614 255 0 0
-0.0058154 0.0596331 -0.0334614 255 0 0
-0.0041435 0.0596332 -0.0334612 255 0 0
-0.0024717 0.0596332 -0.0334611 255 0 0
-0.0007998 0.0596334 -0.0334609 255 0 0
0.0008720 0.0596337 -0.0334606 255 0 0
0.0025439 0.0596340 -0.0334604 255 0 0
0.0042158 0.0596345 -0.0334601 255 0 0
0.0058877 0.0596355 -0.0334598 255 0 0
0.0075595 0.0596362 -0.0334596 255 0 0
0.0092315 0.0596372 -0.0334592 255 0 0
0.0109034 0.0596380 -0.0334593 255 0 0
0.0125752 0.0596395 -0.0334594 255 0 0
0.0142471 0.0596407 -0.0334596 255 0 0
0.0159190 0.0596421 -0.0334597 255 0 0
0.0175908 0.0596432 -0.0334601 255 0 0
0.0192627 0.0596440 -0.0334607 255 0 0
0.0209345 0.0596454 -0.0334612 255 0 0
0.0226064 0.0596464 -0.0334616 255 0 0
0.0242783 0.0596468 -0.0334620 255 0 0
-0.0375807 0.0613170 -0.0334620 255 0 0
-0.0359088 0.0613159 -0.0334615 255 0 0
-0.0342369 0.0613150 -0.0334610 255 0 0
-0.0325651 0.0613136 -0.0334607 255 0 0
-0.0308932 0.0613121 -0.0334602 255 0 0
-0.0292213 0.0613106 -0.0334598 255 0 0
-0.0275495 0.0613092 -0.0334597 255 0 0
-0.0258776 0.0613081 -0.0334597 255 0 0
-0.0242057 0.0613070 -0.0334599 255 0 0
-0.0225339 0.0613064 -0.0334601 255 0 0
-0.0208620 0.0613055 -0.0334605 255 0 0
-0.0191902 0.0613049 -0.0334608 255 0 0
-0.0175183 0.0613046 -0.0334610 255 0 0
-0.0158464 0.0613041 -0.0334611 255 0 0
-0.0141746 0.0613039 -0.0334613 255 0 0
-0.0125027 0.0613037 -0.0334615 255 0 0
-0.0108308 0.0613036 -0.0334616 255 0 0
-0.0091590 0.0613036 -0.0334616 255 0 0
-0.0074873 0.0613036 -0.0334616 255 0 0
-0.0058154 0.0613036 -0.0334616 255 0 0
-0.0041436 0.0613036 -0.0334616 255 0 0
-0.0024717 0.0613037 -0.0334615 255 0 0
-0.0007998 0.0613039 -0.0334612 255 0 0
0.0008720 0.0613041 -0.0334609 255 0 0
0.0025439 0.0613047 -0.0334607 255 0 0
0.0042158 0.0613053 -0.0334603 255 0 0
0.0058876 0.0613058 -0.0334598 255 0 0
0.0075595 0.0613067 -0.0334593 255 0 0
0.0092315 0.0613078 -0.0334590 255 0 0
0.0109034 0.0613088 -0.0334592 255 0 0
0.0125752 0.0613103 -0.0334589 255 0 0
0.0142471 0.0613116 -0.0334592 255 0 0
0.0159190 0.0613130 -0.0334595 255 0 0
0.0175908 0.0613142 -0.0334599 255 0 0
0.0192627 0.0613152 -0.0334604 255 0 0
0.0209345 0.0613166 -0.0334610 255 0 0
0.0226064 0.0613180 -0.0334615 255 0 0
0.0242783 0.0613184 -0.0334619 255 0 0
0.0259501 0.0613188 -0.0334621 255 0 0
-0.0392525 0.0629929 -0.0334621 255 0 0
-0.0375807 0.0629913 -0.0334618 255 0 0
-0.0359088 0.0629895 -0.0334612 255 0 0
-0.0342369 0.0629886 -0.0334608 255 0 0
-0.0325651 0.0629875 -0.0334604 255 0 0
-0.0308932 0.0629859 -0.0334602 255 0 0
-0.0292213 0.0629845 -0.0334601 255 0 0
-0.0275495 0.0629830 -0.0334600 255 0 0
-0.0258776 0.0629819 -0.0334601 255 0 0
-0.0242057 0.0629810 -0.0334603 255 0 0
-0.0225339 0.0629802 -0.0334606 255 0 0
-0.0208620 0.0629796 -0.0334610 255 0 0
-0.0191902 0.0629791 -0.0334611 255 0 0
-0.0175183 0.0629788 -0.0334615 255 0 0
-0.0158464 0.0629787 -0.0334617 255 0 0
-0.0141746 0.0629785 -0.0334618 255 0 0
-0.0125027 0.0629783 -0.0334619 255 0 0
-0.0108308 0.0629782 -0.0334620 255 0 0
-0.0091590 0.0629781 -0.0334620 255 0 0
-0.0074873 0.0629781 -0.0334620 255 0 0
-0.0058154 0.0629783 -0.0334619 255 0 0
-0.0041435 0.0629783 -0.0334618 255 0 0
-0.0024717 0.0629784 -0.0334617 255 0 0
-0.0007998 0.0629786 -0.0334616 255 0 0
0.0008720 0.0629790 -0.0334614 255 0 0
0.0025439 0.0629793 -0.0334611 255 0 0
0.0042158 0.0629795 -0.0334608 255 0 0
0.0058877 0.0629802 -0.0334602 255 0 0
0.0075595 0.0629806 -0.0334598 255 0 0
0.0092315 0.0629824 -0.0334596 255 0 0
0.0109034 0.0629835 -0.0334592 255 0 0
0.0125752 0.0629841 -0.0334592 255 0 0
0.0142471 0.0629857 -0.0334592 255 0 0
0.0159190 0.0629877 -0.0334594 255 0 0
0.0175908 0.0629884 -0.0334598 255 0 0
0.0192627 0.0629899 -0.0334602 255 0 0
0.0209345 0.0629915 -0.0334609 255 0 0
0.0226064 0.0629929 -0.0334613 255 0 0
0.0242783 0.0629934 -0.0334619 255 0 0
0.0259501 0.0629935 -0.0334621 255 0 0
-0.0409244 0.0646649 -0.0334622 255 0 0
-0.0392525 0.0646642 -0.0334620 255 0 0
-0.0375807 0.0646622 -0.0334616 255 0 0
-0.0359088 0.0646607 -0.0334611 255 0 0
-0.0342369 0.0646600 -0.0334607 255 0 0
-0.0325651 0.0646587 -0.0334603 255 0 0
-0.0308932 0.0646572 -0.0334605 255 0 0
-0.0292213 0.0646561 -0.0334603 255 0 0
-0.0275495 0.0646546 -0.0334604 255 0 0
-0.0258776 0.0646535 -0.0334605 255 0 0
-0.0242057 0.0646528 -0.0334609 255 0 0
-0.0225339 0.0646524 -0.0334611 255 0 0
-0.0208620 0.0646517 -0.0334614 255 0 0
-0.0191902 0.0646510 -0.0334618 255 0 0
-0.0175183 0.0646507 -0.0334619 255 0 0
-0.0158464 0.0646505 -0.0334621 255 0 0
-0.0141746 0.0646504 -0.0334622 255 0 0
-0.0125027 0.0646503 -0.0334624 255 0 0
-0.0108308 0.0646502 -0.0334625 255 0 0
-0.0091590 0.0646502 -0.0334625 255 0 0
-0.0074873 0.0646502 -0.0334625 255 0 0
-0.0058154 0.0646502 -0.0334625 255 0 0
-0.0041435 0.0646502 -0.0334624 255 0 0
-0.0024717 0.0646503 -0.0334623 255 0 0
-0.0007998 0.0646504 -0.0334622 255 0 0
0.0008720 0.0646507 -0.0334619 255 0 0
0.0025439 0.0646510 -0.0334616 255 0 0
0.0042158 0.0646515 -0.0334612 255 0 0
0.0058877 0.0646521 -0.0334607 255 0 0
0.0075595 0.0646530 -0.0334604 255 0 0
0.0092315 0.0646542 -0.0334599 255 0 0
0.0109034 0.0646552 -0.0334598 255 0 0
0.0125752 0.0646559 -0.0334593 255 0 0
0.0142471 0.0646577 -0.0334592 255 0 0
0.0159190 0.0646593 -0.0334595 255 0 0
0.0175908 0.0646599 -0.0334598 255 0 0
0.0192627 0.0646614 -0.0334602 255 0 0
0.0209345 0.0646633 -0.0334608 255 0 0
0.0226064 0.0646645 -0.0334614 255 0 0
0.0242783 0.0646653 -0.0334618 255 0 0
0.0259501 0.0646653 -0.0334620 255 0 0
0.0276220 0.0646653 -0.0334622 255 0 0
-0.0409244 0.0663361 -0.0334622 255 0 0
-0.0392525 0.0663348 -0.0334618 255 0 0
-0.0375807 0.0663329 -0.0334611 255 0 0
-0.0359088 0.0663310 -0.0334607 255 0 0
-0.0342369 0.0663291 -0.0334604 255 0 0
-0.0325651 0.0663280 -0.0334602 255 0 0
-0.0308932 0.0663265 -0.0334600 255 0 0
-0.0292213 0.0663251 -0.0334601 255 0 0
-0.0275495 0.0663242 -0.0334602 255 0 0
-0.0258776 0.0663230 -0.0334604 255 0 0
-0.0242057 0.0663221 -0.0334604 255 0 0
-0.0225339 0.0663214 -0.0334606 255 0 0
-0.0208620 0.0663208 -0.0334611 255 0 0
-0.0191902 0.0663206 -0.0334614 255 0 0
-0.0175183 0.0663205 -0.0334616 255 0 0
-0.0158464 0.0663204 -0.0334617 255 0 0
-0.0141746 0.0663203 -0.0334618 255 0 0
-0.0125027 0.0663203 -0.0334619 255 0 0
-0.0108308 0.0663203 -0.0334619 255 0 0
-0.0091590 0.0663203 -0.0334620 255 0 0
-0.0074873 0.0663202 -0.0334619 255 0 0
-0.0058154 0.0663203 -0.0334619 255 0 0
-0.0041435 0.0663202 -0.0334618 255 0 0
-0.0024717 0.0663202 -0.0334617 255 0 0
-0.0007998 0.0663202 -0.0334615 255 0 0
0.0008720 0.0663203 -0.0334613 255 0 0
0.0025439 0.0663207 -0.0334611 255 0 0
0.0042158 0.0663213 -0.0334606 255 0 0
0.0058876 0.0663217 -0.0334604 255 0 0
0.0075595 0.0663224 -0.0334601 255 0 0
0.0092315 0.0663235 -0.0334598 255 0 0
0.0109034 0.0663243 -0.0334596 255 0 0
0.0125752 0.0663263 -0.0334592 255 0 0
0.0142471 0.0663278 -0.0334592 255 0 0
0.0159190 0.0663296 -0.0334589 255 0 0
0.0175908 0.0663306 -0.0334594 255 0 0
0.0192627 0.0663320 -0.0334598 255 0 0
0.0209345 0.0663344 -0.0334608 255 0 0
0.0226064 0.0663359 -0.0334612 255 0 0
0.0242783 0.0663368 -0.0334617 255 0 0
0.0259501 0.0663371 -0.0334621 255 0 0
0.0276220 0.0663371 -0.0334622 255 0 0
-0.0409244 0.0680073 -0.0334620 255 0 0
-0.0392525 0.0680054 -0.0334618 255 0 0
-0.0375807 0.0680036 -0.0334608 255 0 0
-0.0359088 0.0680013 -0.0334606 255 0 0
-0.0342369 0.0679994 -0.0334602 255 0 0
-0.0325651 0.0679983 -0.0334598 255 0 0
-0.0308932 0.0679975 -0.0334598 255 0 0
-0.0292213 0.0679947 -0.0334598 255 0 0
-0.0275495 0.0679936 -0.0334602 255 0 0
-0.0258776 0.0679930 -0.0334601 255 0 0
-0.0242057 0.0679924 -0.0334604 255 0 0
-0.0225339 0.0679919 -0.0334607 255 0 0
-0.0208620 0.0679908 -0.0334611 255 0 0
-0.0191902 0.0679900 -0.0334612 255 0 0
-0.0175183 0.0679897 -0.0334614 255 0 0
-0.0158464 0.0679897 -0.0334615 255 0 0
-0.0141746 0.0679896 -0.0334616 255 0 0
-0.0125027 0.0679895 -0.0334618 255 0 0
-0.0108308 0.0679895 -0.0334618 255 0 0
-0.0091590 0.0679894 -0.0334618 255 0 0
-0.0074873 0.0679894 -0.0334618 255 0 0
-0.0058154 0.0679894 -0.0334618 255 0 0
-0.0041435 0.0679897 -0.0334617 255 0 0
-0.0024717 0.0679899 -0.0334615 255 0 0
-0.0007998 0.0679901 -0.0334614 255 0 0
0.0008720 0.0679904 -0.0334612 255 0 0
0.0025439 0.0679911 -0.0334609 255 0 0
0.0042158 0.0679919 -0.0334606 255 0 0
0.0058876 0.0679926 -0.0334603 255 0 0
0.0075595 0.0679931 -0.0334599 255 0 0
0.0092315 0.0679940 -0.0334595 255 0 0
0.0109034 0.0679948 -0.0334595 255 0 0
0.0125752 0.0679969 -0.0334591 255 0 0
0.0142471 0.0679979 -0.0334590 255 0 0
0.0159190 0.0680006 -0.0334589 255 0 0
0.0175908 0.0680017 -0.0334591 255 0 0
0.0192627 0.0680029 -0.0334598 255 0 0
0.0209345 0.0680057 -0.0334607 255 0 0
0.0226064 0.0680072 -0.0334611 255 0 0
0.0242783 0.0680086 -0.0334618 255 0 0
0.0259501 0.0680087 -0.0334620 255 0 0
0.0276220 0.0680090 -0.0334624 255 0 0
-0.0409244 0.0696785 -0.0334618 255 0 0
-0.0392525 0.0696768 -0.0334616 255 0 0
-0.0375807 0.0696744 -0.0334608 255 0 0
-0.0359088 0.0696720 -0.0334603 255 0 0
-0.0342369 0.0696704 -0.0334598 255 0 0
-0.0325651 0.0696687 -0.0334598 255 0 0
-0.0308932 0.0696673 -0.0334597 255 0 0
-0.0292213 0.0696652 -0.0334597 255 0 0
-0.0275495 0.0696642 -0.0334599 255 0 0
-0.0258776 0.0696631 -0.0334602 255 0 0
-0.0242057 0.0696624 -0.0334605 255 0 0
-0.0225339 0.0696616 -0.0334606 255 0 0
-0.0208620 0.0696613 -0.0334611 255 0 0
-0.0191902 0.0696611 -0.0334614 255 0 0
-0.0175183 0.0696608 -0.0334616 255 0 0
-0.0158464 0.0696608 -0.0334617 255 0 0
-0.0141746 0.0696607 -0.0334619 255 0 0
-0.0125027 0.0696606 -0.0334619 255 0 0
-0.0108308 0.0696605 -0.0334620 255 0 0
-0.0091590 0.0696605 -0.0334620 255 0 0
-0.0074873 0.0696605 -0.0334620 255 0 0
-0.0058154 0.0696605 -0.0334619 255 0 0
-0.0041436 0.0696605 -0.0334618 255 0 0
-0.0024717 0.0696605 -0.0334616 255 0 0
-0.0007998 0.0696606 -0.0334614 255 0 0
0.0008720 0.0696607 -0.0334611 255 0 0
0.0025439 0.0696613 -0.0334609 255 0 0
0.0042158 0.0696623 -0.0334605 255 0 0
0.0058876 0.0696629 -0.0334600 255 0 0
0.0075595 0.0696640 -0.0334598 255 0 0
0.0092315 0.0696651 -0.0334595 255 0 0
0.0109034 0.0696661 -0.0334592 255 0 0
0.0125752 0.0696677 -0.0334590 255 0 0
0.0142471 0.0696696 -0.0334588 255 0 0
0.0159190 0.0696709 -0.0334591 255 0 0
0.0175908 0.0696727 -0.0334592 255 0 0
0.0192627 0.0696742 -0.0334595 255 0 0
0.0209345 0.0696770 -0.0334604 255 0 0
0.0226064 0.0696789 -0.0334613 255 0 0
0.0242783 0.0696805 -0.0334618 255 0 0
0.0259501 0.0696805 -0.0334621 255 0 0
0.0276220 0.0696805 -0.0334624 255 0 0
0.0292939 0.0696809 -0.0334626 255 0 0
-0.0425962 0.0713517 -0.0334623 255 0 0
-0.0409244 0.0713499 -0.0334619 255 0 0
-0.0392525 0.0713487 -0.0334616 255 0 0
-0.0375807 0.0713460 -0.0334610 255 0 0
-0.0359088 0.0713437 -0.0334603 255 0 0
-0.0342369 0.0713421 -0.0334598 255 0 0
-0.0325651 0.0713399 -0.0334599 255 0 0
-0.0308932 0.0713388 -0.0334597 255 0 0
-0.0292213 0.0713373 -0.0334601 255 0 0
-0.0275495 0.0713351 -0.0334602 255 0 0
-0.0258776 0.0713345 -0.0334607 255 0 0
-0.0242057 0.0713341 -0.0334609 255 0 0
-0.0225339 0.0713339 -0.0334612 255 0 0
-0.0208620 0.0713337 -0.0334614 255 0 0
-0.0191902 0.0713333 -0.0334616 255 0 0
-0.0175183 0.0713330 -0.0334617 255 0 0
-0.0158464 0.0713328 -0.0334618 255 0 0
-0.0141746 0.0713327 -0.0334619 255 0 0
-0.0125027 0.0713326 -0.0334619 255 0 0
-0.0108308 0.0713324 -0.0334620 255 0 0
-0.0091590 0.0713324 -0.0334620 255 0 0
-0.0074873 0.0713325 -0.0334620 255 0 0
-0.0058154 0.0713327 -0.0334619 255 0 0
-0.0041436 0.0713329 -0.0334619 255 0 0
-0.0024717 0.0713331 -0.0334618 255 0 0
-0.0007998 0.0713332 -0.0334616 255 0 0
0.0008720 0.0713334 -0.0334615 255 0 0
0.0025439 0.0713337 -0.0334612 255 0 0
0.0042158 0.0713340 -0.0334607 255 0 0
0.0058876 0.0713343 -0.0334603 255 0 0
0.0075595 0.0713356 -0.0334599 255 0 0
0.0092315 0.0713365 -0.0334596 255 0 0
0.0109034 0.0713379 -0.0334594 255 0 0
0.0125752 0.0713400 -0.0334592 255 0 0
0.0142471 0.0713413 -0.0334590 255 0 0
0.0159190 0.0713427 -0.0334592 255 0 0
0.0175908 0.0713447 -0.0334593 255 0 0
0.0192627 0.0713459 -0.0334596 255 0 0
0.0209345 0.0713486 -0.0334605 255 0 0
0.0226064 0.0713503 -0.0334613 255 0 0
0.0242783 0.0713521 -0.0334618 255 0 0
0.0259501 0.0713523 -0.0334622 255 0 0
0.0276220 0.0713524 -0.0334625 255 0 0
0.0292939 0.0713527 -0.0334627 255 0 0
-0.0425962 0.0730235 -0.0334623 255 0 0
-0.0409244 0.0730214 -0.0334618 255 0 0
-0.0392525 0.0730202 -0.0334617 255 0 0
-0.0375807 0.0730173 -0.0334607 255 0 0
-0.0359088 0.0730155 -0.0334604 255 0 0
-0.0342369 0.0730140 -0.0334600 255 0 0
-0.0325651 0.0730116 -0.0334601 255 0 0
-0.0308932 0.0730103 -0.0334600 255 0 0
-0.0292213 0.0730095 -0.0334604 255 0 0
-0.0275495 0.0730077 -0.0334607 255 0 0
-0.0258776 0.0730067 -0.0334610 255 0 0
-0.0242057 0.0730057 -0.0334614 255 0 0
-0.0225339 0.0730053 -0.0334615 255 0 0
-0.0208620 0.0730049 -0.0334619 255 0 0
-0.0191902 0.0730044 -0.0334622 255 0 0
-0.0175183 0.0730043 -0.0334624 255 0 0
-0.0158464 0.0730042 -0.0334624 255 0 0
-0.0141746 0.0730041 -0.0334625 255 0 0
-0.0125027 0.0730041 -0.0334625 255 0 0
-0.0108308 0.0730040 -0.0334626 255 0 0
-0.0091590 0.0730040 -0.0334626 255 0 0
-0.0074873 0.0730040 -0.0334625 255 0 0
-0.0058154 0.0730042 -0.0334624 255 0 0
-0.0041435 0.0730044 -0.0334624 255 0 0
-0.0024717 0.0730045 -0.0334623 255 0 0
-0.0007998 0.0730049 -0.0334622 255 0 0
0.0008720 0.0730052 -0.0334619 255 0 0
0.0025439 0.0730056 -0.0334618 255 0 0
0.0042158 0.0730060 -0.0334613 255 0 0
0.0058877 0.0730066 -0.0334608 255 0 0
0.0075595 0.0730075 -0.0334604 255 0 0
0.0092315 0.0730089 -0.0334600 255 0 0
0.0109034 0.0730106 -0.0334597 255 0 0
0.0125752 0.0730122 -0.0334595 255 0 0
0.0142471 0.0730133 -0.0334592 255 0 0
0.0159190 0.0730150 -0.0334593 255 0 0
0.0175908 0.0730165 -0.0334595 255 0 0
0.0192627 0.0730181 -0.0334596 255 0 0
0.0209345 0.0730205 -0.0334606 255 0 0
0.0226064 0.0730221 -0.0334614 255 0 0
0.0242783 0.0730240 -0.0334618 255 0 0
0.0259501 0.0730240 -0.0334622 255 0 0
0.0276220 0.0730242 -0.0334626 255 0 0
0.0292939 0.0730246 -0.0334628 255 0 0
-0.0425962 0.0746948 -0.0334621 255 0 0
-0.0409244 0.0746928 -0.0334620 255 0 0
-0.0392525 0.0746914 -0.0334616 255 0 0
-0.0375807 0.0746884 -0.0334605 255 0 0
-0.0359088 0.0746860 -0.0334601 255 0 0
-0.0342369 0.0746832 -0.0334598 255 0 0
-0.0325651 0.0746820 -0.0334599 255 0 0
-0.0308932 0.0746806 -0.0334598 255 0 0
-0.0292213 0.0746783 -0.0334600 255 0 0
-0.0275495 0.0746764 -0.0334603 255 0 0
-0.0258776 0.0746753 -0.0334607 255 0 0
-0.0242057 0.0746750 -0.0334609 255 0 0
-0.0225339 0.0746747 -0.0334611 255 0 0
-0.0208620 0.0746743 -0.0334615 255 0 0
-0.0191902 0.0746740 -0.0334616 255 0 0
-0.0175183 0.0746737 -0.0334617 255 0 0
-0.0158464 0.0746736 -0.0334619 255 0 0
-0.0141746 0.0746734 -0.0334619 255 0 0
-0.0125027 0.0746733 -0.0334620 255 0 0
-0.0108308 0.0746732 -0.0334621 255 0 0
-0.0091590 0.0746732 -0.0334621 255 0 0
-0.0074873 0.0746733 -0.0334620 255 0 0
-0.0058154 0.0746734 -0.0334619 255 0 0
-0.0041436 0.0746735 -0.0334618 255 0 0
-0.0024717 0.0746737 -0.0334617 255 0 0
-0.0007998 0.0746738 -0.0334615 255 0 0
0.0008720 0.0746741 -0.0334613 255 0 0
0.0025439 0.0746746 -0.0334610 255 0 0
0.0042158 0.0746753 -0.0334607 255 0 0
0.0058876 0.0746759 -0.0334603 255 0 0
0.0075595 0.0746775 -0.0334598 255 0 0
0.0092315 0.0746789 -0.0334595 255 0 0
0.0109034 0.0746802 -0.0334592 255 0 0
0.0125752 0.0746821 -0.0334588 255 0 0
0.0142471 0.0746847 -0.0334586 255 0 0
0.0159190 0.0746866 -0.0334589 255 0 0
0.0175908 0.0746877 -0.0334594 255 0 0
0.0192627 0.0746896 -0.0334598 255 0 0
0.0209345 0.0746923 -0.0334606 255 0 0
0.0226064 0.0746941 -0.0334612 255 0 0
0.0242783 0.0746955 -0.0334617 255 0 0
0.0259501 0.0746958 -0.0334622 255 0 0
0.0276220 0.0746959 -0.0334625 255 0 0
0.0292939 0.0746961 -0.0334627 255 0 0
-0.0425962 0.0763666 -0.0334620 255 0 0
-0.0409244 0.0763641 -0.0334618 255 0 0
-0.0392525 0.0763631 -0.0334615 255 0 0
-0.0375807 0.0763592 -0.0334604 255 0 0
-0.0359088 0.0763567 -0.0334599 255 0 0
-0.0342369 0.0763546 -0.0334598 255 0 0
-0.0325651 0.0763526 -0.0334596 255 0 0
-0.0308932 0.0763507 -0.0334595 255 0 0
-0.0292213 0.0763485 -0.0334598 255 0 0
-0.0275495 0.0763474 -0.0334602 255 0 0
-0.0258776 0.0763466 -0.0334605 255 0 0
-0.0242057 0.0763457 -0.0334606 255 0 0
-0.0225339 0.0763449 -0.0334609 255 0 0
-0.0208620 0.0763440 -0.0334612 255 0 0
-0.0191902 0.0763435 -0.0334614 255 0 0
-0.0175183 0.0763432 -0.0334616 255 0 0
-0.0158464 0.0763431 -0.0334616 255 0 0
-0.0141746 0.0763430 -0.0334617 255 0 0
-0.0125027 0.0763429 -0.0334617 255 0 0
-0.0108308 0.0763427 -0.0334618 255 0 0
-0.0091590 0.0763427 -0.0334618 255 0 0
-0.0074873 0.0763427 -0.0334618 255 0 0
-0.0058154 0.0763428 -0.0334617 255 0 0
-0.0041435 0.0763429 -0.0334617 255 0 0
-0.0024717 0.0763432 -0.0334616 255 0 0
-0.0007998 0.0763439 -0.0334614 255 0 0
0.0008720 0.0763447 -0.0334610 255 0 0
0.0025439 0.0763455 -0.0334607 255 0 0
0.0042158 0.0763465 -0.0334603 255 0 0
0.0058877 0.0763473 -0.0334599 255 0 0
0.0075595 0.0763481 -0.0334595 255 0 0
0.0092315 0.0763490 -0.0334592 255 0 0
0.0109034 0.0763507 -0.0334590 255 0 0
0.0125752 0.0763537 -0.0334587 255 0 0
0.0142471 0.0763551 -0.0334585 255 0 0
0.0159190 0.0763584 -0.0334588 255 0 0
0.0175908 0.0763592 -0.0334593 255 0 0
0.0192627 0.0763616 -0.0334598 255 0 0
0.0209345 0.0763639 -0.0334605 255 0 0
0.0226064 0.0763657 -0.0334613 255 0 0
0.0242783 0.0763671 -0.0334619 255 0 0
0.0259501 0.0763674 -0.0334622 255 0 0
0.0276220 0.0763677 -0.0334624 255 0 0
0.0292939 0.0763678 -0.0334629 255 0 0
-0.0425962 0.0780383 -0.0334621 255 0 0
-0.0409244 0.0780360 -0.0334617 255 0 0
-0.0392525 0.0780347 -0.0334614 255 0 0
-0.0375807 0.0780305 -0.0334604 255 0 0
-0.0359088 0.0780283 -0.0334600 255 0 0
-0.0342369 0.0780257 -0.0334595 255 0 0
-0.0325651 0.0780239 -0.0334593 255 0 0
-0.0308932 0.0780213 -0.0334596 255 0 0
-0.0292213 0.0780198 -0.0334597 255 0 0
-0.0275495 0.0780185 -0.0334600 255 0 0
-0.0258776 0.0780169 -0.0334602 255 0 0
-0.0242057 0.0780159 -0.0334604 255 0 0
-0.0225339 0.0780152 -0.0334607 255 0 0
-0.0208620 0.0780148 -0.0334610 255 0 0
-0.0191902 0.0780143 -0.0334611 255 0 0
-0.0175183 0.0780139 -0.0334612 255 0 0
-0.0158464 0.0780137 -0.0334613 255 0 0
-0.0141746 0.0780136 -0.0334613 255 0 0
-0.0125027 0.0780134 -0.0334614 255 0 0
-0.0108308 0.0780134 -0.0334614 255 0 0
-0.0091590 0.0780133 -0.0334614 255 0 0
