ply
format ascii 1.0
element vertex 1206
property float x
property float y
property float z
property uchar red
property uchar green
property uchar blue
end_header
-0.0024723 0.1046540 -0.0049264 255 0 0
-0.0008004 0.1046537 -0.0049259 255 0 0
0.0008716 0.1046535 -0.0049254 255 0 0
0.0025436 0.1046529 -0.0049246 255 0 0
0.0042153 0.1046520 -0.0049238 255 0 0
0.0058871 0.1046514 -0.0049227 255 0 0
0.0075591 0.1046504 -0.0049211 255 0 0
0.0092313 0.1046482 -0.0049193 255 0 0
0.0109032 0.1046455 -0.0049162 255 0 0
0.0125751 0.1046406 -0.0049117 255 0 0
0.0142472 0.1046348 -0.0049059 255 0 0
0.0159193 0.1046277 -0.0048984 255 0 0
0.0175915 0.1046200 -0.0048896 255 0 0
-0.0275489 0.1063589 -0.0049330 255 0 0
-0.0258772 0.1063593 -0.0049397 255 0 0
-0.0242063 0.1063466 -0.0049354 255 0 0
-0.0225349 0.1063358 -0.0049318 255 0 0
-0.0208631 0.1063334 -0.0049308 255 0 0
-0.0191912 0.1063319 -0.0049302 255 0 0
-0.0175193 0.1063308 -0.0049298 255 0 0
-0.0158473 0.1063307 -0.0049300 255 0 0
-0.0141753 0.1063304 -0.0049301 255 0 0
-0.0125034 0.1063302 -0.0049305 255 0 0
-0.0108314 0.1063301 -0.0049307 255 0 0
-0.0091595 0.1063296 -0.0049309 255 0 0
-0.0074874 0.1063288 -0.0049310 255 0 0
-0.0058154 0.1063280 -0.0049309 255 0 0
-0.0041434 0.1063270 -0.0049307 255 0 0
-0.0024716 0.1063265 -0.0049302 255 0 0
-0.0007997 0.1063261 -0.0049296 255 0 0
0.0008722 0.1063262 -0.0049286 255 0 0
0.0025442 0.1063265 -0.0049277 255 0 0
0.0042158 0.1063270 -0.0049278 255 0 0
0.0058876 0.1063275 -0.0049276 255 0 0
0.0075595 0.1063279 -0.0049273 255 0 0
0.0092315 0.1063280 -0.0049268 255 0 0
0.0109034 0.1063261 -0.0049245 255 0 0
0.0125752 0.1063277 -0.0049261 255 0 0
0.0142470 0.1063253 -0.0049238 255 0 0
-0.0258831 0.1079175 -0.0048626 255 0 0
-0.0242096 0.1079476 -0.0048839 255 0 0
-0.0225362 0.1079724 -0.0049015 255 0 0
-0.0208642 0.1079800 -0.0049089 255 0 0
-0.0191921 0.1079858 -0.0049142 255 0 0
-0.0175195 0.1079897 -0.0049178 255 0 0
-0.0158475 0.1079910 -0.0049191 255 0 0
-0.0141755 0.1079918 -0.0049200 255 0 0
-0.0125037 0.1079935 -0.0049214 255 0 0
-0.0108319 0.1079945 -0.0049221 255 0 0
-0.0091600 0.1079951 -0.0049222 255 0 0
-0.0074882 0.1079956 -0.0049216 255 0 0
-0.0058162 0.1079953 -0.0049208 255 0 0
-0.0041445 0.1079955 -0.0049191 255 0 0
-0.0024726 0.1079949 -0.0049175 255 0 0
-0.0008007 0.1079931 -0.0049158 255 0 0
0.0008713 0.1079903 -0.0049142 255 0 0
0.0025434 0.1079872 -0.0049120 255 0 0
0.0042150 0.1079833 -0.0049082 255 0 0
0.0058870 0.1079788 -0.0049041 255 0 0
0.0075589 0.1079732 -0.0048992 255 0 0
0.0092311 0.1079680 -0.0048942 255 0 0
0.0109034 0.1079628 -0.0048889 255 0 0
0.0125757 0.1079444 -0.0048719 255 0 0
-0.0225365 0.1096249 -0.0048846 255 0 0
-0.0208645 0.1096370 -0.0048950 255 0 0
-0.0191924 0.1096457 -0.0049026 255 0 0
-0.0175199 0.1096520 -0.0049077 255 0 0
-0.0158476 0.1096539 -0.0049095 255 0 0
-0.0141756 0.1096555 -0.0049108 255 0 0
-0.0125038 0.1096582 -0.0049130 255 0 0
-0.0108319 0.1096601 -0.0049142 255 0 0
-0.0091601 0.1096614 -0.0049144 255 0 0
-0.0074882 0.1096618 -0.0049135 255 0 0
-0.0058162 0.1096614 -0.0049123 255 0 0
-0.0041445 0.1096620 -0.0049097 255 0 0
-0.0024726 0.1096606 -0.0049072 255 0 0
-0.0008007 0.1096576 -0.0049046 255 0 0
0.0008714 0.1096535 -0.0049021 255 0 0
0.0025434 0.1096486 -0.0048987 255 0 0
0.0042151 0.1096423 -0.0048931 255 0 0
0.0058869 0.1096358 -0.0048871 255 0 0
0.0075589 0.1096279 -0.0048803 255 0 0
0.0092313 0.1096204 -0.0048735 255 0 0
0.0109037 0.1096140 -0.0048671 255 0 0
-0.0208645 0.1113002 -0.0048863 255 0 0
-0.0191924 0.1113102 -0.0048947 255 0 0
-0.0175204 0.1113167 -0.0049004 255 0 0
-0.0158477 0.1113194 -0.0049025 255 0 0
-0.0141757 0.1113225 -0.0049033 255 0 0
-0.0125038 0.1113249 -0.0049069 255 0 0
-0.0108320 0.1113289 -0.0049078 255 0 0
-0.0091604 0.1113338 -0.0049060 255 0 0
-0.0074890 0.1113397 -0.0049014 255 0 0
-0.0058173 0.1113400 -0.0048986 255 0 0
-0.0041458 0.1113577 -0.0048870 255 0 0
-0.0024739 0.1113577 -0.0048828 255 0 0
-0.0008018 0.1113511 -0.0048812 255 0 0
0.0008709 0.1113322 -0.0048852 255 0 0
0.0025434 0.1113124 -0.0048882 255 0 0
0.0042150 0.1113043 -0.0048811 255 0 0
0.0058868 0.1112959 -0.0048738 255 0 0
-0.0158474 0.1129882 -0.0048952 255 0 0
-0.0141752 0.1129899 -0.0048959 255 0 0
-0.0125031 0.1129933 -0.0048991 255 0 0
-0.0108309 0.1129952 -0.0049010 255 0 0
-0.0091587 0.1129961 -0.0049013 255 0 0
-0.0074865 0.1129955 -0.0049001 255 0 0
-0.0058143 0.1129935 -0.0048986 255 0 0
-0.0041421 0.1129961 -0.0048937 255 0 0
-0.0024700 0.1129947 -0.0048895 255 0 0
-0.0007981 0.1129902 -0.0048859 255 0 0
-0.0191902 0.0345647 -0.0033699 255 0 0
-0.0175183 0.0345647 -0.0033699 255 0 0
-0.0158464 0.0345647 -0.0033699 255 0 0
-0.0141746 0.0345647 -0.0033699 255 0 0
-0.0125027 0.0345647 -0.0033699 255 0 0
-0.0108308 0.0345647 -0.0033699 255 0 0
-0.0091590 0.0345647 -0.0033699 255 0 0
-0.0074871 0.0345647 -0.0033699 255 0 0
-0.0058153 0.0345647 -0.0033699 255 0 0
-0.0041434 0.0345647 -0.0033699 255 0 0
-0.0024715 0.0345647 -0.0033699 255 0 0
-0.0007997 0.0345647 -0.0033699 255 0 0
-0.0242057 0.0362366 -0.0033698 255 0 0
-0.0225339 0.0362366 -0.0033699 255 0 0
-0.0208620 0.0362366 -0.0033699 255 0 0
-0.0191902 0.0362366 -0.0033699 255 0 0
-0.0175183 0.0362366 -0.0033699 255 0 0
-0.0158464 0.0362366 -0.0033699 255 0 0
-0.0141746 0.0362366 -0.0033699 255 0 0
-0.0125027 0.0362366 -0.0033699 255 0 0
-0.0108308 0.0362366 -0.0033699 255 0 0
-0.0091590 0.0362366 -0.0033699 255 0 0
-0.0074871 0.0362366 -0.0033699 255 0 0
-0.0058153 0.0362366 -0.0033699 255 0 0
-0.0041434 0.0362366 -0.0033699 255 0 0
-0.0024715 0.0362366 -0.0033698 255 0 0
-0.0007997 0.0362366 -0.0033698 255 0 0
0.0008722 0.0362366 -0.0033698 255 0 0
0.0025441 0.0362366 -0.0033698 255 0 0
0.0042159 0.0362365 -0.0033697 255 0 0
-0.0258776 0.0379084 -0.0033698 255 0 0
-0.0242057 0.0379084 -0.0033698 255 0 0
-0.0225339 0.0379084 -0.0033698 255 0 0
-0.0208620 0.0379084 -0.0033698 255 0 0
-0.0191902 0.0379084 -0.0033698 255 0 0
-0.0175183 0.0379084 -0.0033698 255 0 0
-0.0158464 0.0379084 -0.0033698 255 0 0
-0.0141746 0.0379084 -0.0033698 255 0 0
-0.0125027 0.0379084 -0.0033698 255 0 0
-0.0108308 0.0379084 -0.0033698 255 0 0
-0.0091590 0.0379084 -0.0033698 255 0 0
-0.0074871 0.0379084 -0.0033698 255 0 0
-0.0058153 0.0379084 -0.0033698 255 0 0
-0.0041434 0.0379084 -0.0033698 255 0 0
-0.0024715 0.0379084 -0.0033698 255 0 0
-0.0007997 0.0379084 -0.0033698 255 0 0
0.0008722 0.0379084 -0.0033697 255 0 0
0.0025441 0.0379084 -0.0033697 255 0 0
0.0042159 0.0379083 -0.0033697 255 0 0
0.0058878 0.0379083 -0.0033696 255 0 0
0.0075596 0.0379083 -0.0033696 255 0 0
-0.0292213 0.0395801 -0.0033696 255 0 0
-0.0275495 0.0395801 -0.0033697 255 0 0
-0.0258776 0.0395801 -0.0033697 255 0 0
-0.0242057 0.0395801 -0.0033697 255 0 0
-0.0225339 0.0395802 -0.0033697 255 0 0
-0.0208620 0.0395802 -0.0033697 255 0 0
-0.0191902 0.0395802 -0.0033697 255 0 0
-0.0175183 0.0395802 -0.0033697 255 0 0
-0.0158464 0.0395802 -0.0033697 255 0 0
-0.0141746 0.0395802 -0.0033697 255 0 0
-0.0125027 0.0395802 -0.0033697 255 0 0
-0.0108308 0.0395802 -0.0033697 255 0 0
-0.0091590 0.0395802 -0.0033697 255 0 0
-0.0074871 0.0395802 -0.0033697 255 0 0
-0.0058153 0.0395802 -0.0033697 255 0 0
-0.0041434 0.0395802 -0.0033697 255 0 0
-0.0024715 0.0395802 -0.0033696 255 0 0
-0.0007997 0.0395802 -0.0033696 255 0 0
0.0008722 0.0395802 -0.0033696 255 0 0
0.0025441 0.0395801 -0.0033696 255 0 0
0.0042159 0.0395800 -0.0033695 255 0 0
0.0058878 0.0395800 -0.0033695 255 0 0
0.0075596 0.0395799 -0.0033694 255 0 0
0.0092315 0.0395799 -0.0033693 255 0 0
-0.0308932 0.0412518 -0.0033694 255 0 0
-0.0292213 0.0412519 -0.0033695 255 0 0
-0.0275495 0.0412519 -0.0033695 255 0 0
-0.0258776 0.0412519 -0.0033695 255 0 0
-0.0242057 0.0412519 -0.0033695 255 0 0
-0.0225339 0.0412519 -0.0033696 255 0 0
-0.0208620 0.0412519 -0.0033696 255 0 0
-0.0191902 0.0412519 -0.0033696 255 0 0
-0.0175183 0.0412519 -0.0033696 255 0 0
-0.0158464 0.0412519 -0.0033695 255 0 0
-0.0141746 0.0412519 -0.0033695 255 0 0
-0.0125027 0.0412519 -0.0033695 255 0 0
-0.0108308 0.0412519 -0.0033695 255 0 0
-0.0091590 0.0412519 -0.0033695 255 0 0
-0.0074871 0.0412519 -0.0033695 255 0 0
-0.0058153 0.0412518 -0.0033695 255 0 0
-0.0041434 0.0412518 -0.0033695 255 0 0
-0.0024715 0.0412518 -0.0033694 255 0 0
-0.0007997 0.0412518 -0.0033694 255 0 0
0.0008722 0.0412518 -0.0033694 255 0 0
0.0025440 0.0412518 -0.0033694 255 0 0
0.0042159 0.0412518 -0.0033693 255 0 0
0.0058878 0.0412517 -0.0033693 255 0 0
0.0075596 0.0412517 -0.0033692 255 0 0
0.0092315 0.0412516 -0.0033691 255 0 0
0.0109034 0.0412516 -0.0033690 255 0 0
0.0125752 0.0412513 -0.0033687 255 0 0
-0.0342369 0.0429233 -0.0033690 255 0 0
-0.0325651 0.0429234 -0.0033691 255 0 0
-0.0308932 0.0429234 -0.0033692 255 0 0
-0.0292213 0.0429235 -0.0033692 255 0 0
-0.0275495 0.0429236 -0.0033693 255 0 0
-0.0258776 0.0429236 -0.0033693 255 0 0
-0.0242057 0.0429236 -0.0033693 255 0 0
-0.0225339 0.0429236 -0.0033693 255 0 0
-0.0208620 0.0429236 -0.0033693 255 0 0
-0.0191902 0.0429236 -0.0033693 255 0 0
-0.0175183 0.0429236 -0.0033693 255 0 0
-0.0158464 0.0429236 -0.0033693 255 0 0
-0.0141746 0.0429236 -0.0033693 255 0 0
-0.0125027 0.0429236 -0.0033692 255 0 0
-0.0108308 0.0429236 -0.0033692 255 0 0
-0.0091590 0.0429236 -0.0033692 255 0 0
-0.0074871 0.0429236 -0.0033692 255 0 0
-0.0058153 0.0429235 -0.0033692 255 0 0
-0.0041434 0.0429235 -0.0033691 255 0 0
-0.0024715 0.0429235 -0.0033691 255 0 0
-0.0007997 0.0429235 -0.0033691 255 0 0
0.0008722 0.0429235 -0.0033691 255 0 0
0.0025440 0.0429235 -0.0033690 255 0 0
0.0042159 0.0429234 -0.0033690 255 0 0
0.0058878 0.0429233 -0.0033689 255 0 0
0.0075596 0.0429233 -0.0033688 255 0 0
0.0092315 0.0429232 -0.0033687 255 0 0
0.0109034 0.0429230 -0.0033686 255 0 0
0.0125752 0.0429229 -0.0033684 255 0 0
0.0142471 0.0429228 -0.0033681 255 0 0
-0.0359088 0.0445948 -0.0033685 255 0 0
-0.0342369 0.0445949 -0.0033686 255 0 0
-0.0325651 0.0445949 -0.0033686 255 0 0
-0.0308932 0.0445951 -0.0033687 255 0 0
-0.0292213 0.0445951 -0.0033688 255 0 0
-0.0275495 0.0445951 -0.0033688 255 0 0
-0.0258776 0.0445951 -0.0033688 255 0 0
-0.0242057 0.0445951 -0.0033688 255 0 0
-0.0225339 0.0445951 -0.0033688 255 0 0
-0.0208620 0.0445951 -0.0033688 255 0 0
-0.0191902 0.0445951 -0.0033688 255 0 0
-0.0175183 0.0445951 -0.0033687 255 0 0
-0.0158464 0.0445950 -0.0033687 255 0 0
-0.0141746 0.0445950 -0.0033687 255 0 0
-0.0125027 0.0445950 -0.0033687 255 0 0
-0.0108308 0.0445950 -0.0033686 255 0 0
-0.0091590 0.0445950 -0.0033686 255 0 0
-0.0074871 0.0445950 -0.0033686 255 0 0
-0.0058153 0.0445949 -0.0033686 255 0 0
-0.0041434 0.0445949 -0.0033685 255 0 0
-0.0024715 0.0445949 -0.0033685 255 0 0
-0.0007997 0.0445949 -0.0033685 255 0 0
0.0008722 0.0445948 -0.0033684 255 0 0
0.0025440 0.0445948 -0.0033684 255 0 0
0.0042159 0.0445948 -0.0033683 255 0 0
0.0058878 0.0445947 -0.0033683 255 0 0
0.0075596 0.0445947 -0.0033682 255 0 0
0.0092315 0.0445946 -0.0033681 255 0 0
0.0109034 0.0445945 -0.0033679 255 0 0
0.0125752 0.0445943 -0.0033677 255 0 0
0.0142471 0.0445941 -0.0033674 255 0 0
0.0159190 0.0445939 -0.0033672 255 0 0
-0.0375807 0.0462661 -0.0033677 255 0 0
-0.0359088 0.0462663 -0.0033679 255 0 0
-0.0342369 0.0462663 -0.0033680 255 0 0
-0.0325651 0.0462664 -0.0033681 255 0 0
-0.0308932 0.0462665 -0.0033682 255 0 0
-0.0292213 0.0462665 -0.0033682 255 0 0
-0.0275495 0.0462665 -0.0033682 255 0 0
-0.0258776 0.0462665 -0.0033682 255 0 0
-0.0242057 0.0462665 -0.0033682 255 0 0
-0.0225339 0.0462665 -0.0033682 255 0 0
-0.0208620 0.0462665 -0.0033681 255 0 0
-0.0191902 0.0462665 -0.0033681 255 0 0
-0.0175183 0.0462665 -0.0033681 255 0 0
-0.0158464 0.0462665 -0.0033680 255 0 0
-0.0141746 0.0462664 -0.0033680 255 0 0
-0.0125027 0.0462664 -0.0033680 255 0 0
-0.0108308 0.0462664 -0.0033679 255 0 0
-0.0091590 0.0462664 -0.0033679 255 0 0
-0.0074871 0.0462663 -0.0033678 255 0 0
-0.0058153 0.0462663 -0.0033678 255 0 0
-0.0041434 0.0462663 -0.0033678 255 0 0
-0.0024716 0.0462663 -0.0033677 255 0 0
-0.0007997 0.0462662 -0.0033677 255 0 0
0.0008722 0.0462662 -0.0033676 255 0 0
0.0025440 0.0462661 -0.0033676 255 0 0
0.0042159 0.0462661 -0.0033675 255 0 0
0.0058878 0.0462661 -0.0033674 255 0 0
0.0075596 0.0462660 -0.0033673 255 0 0
0.0092315 0.0462659 -0.0033672 255 0 0
0.0109034 0.0462658 -0.0033671 255 0 0
0.0125752 0.0462656 -0.0033669 255 0 0
0.0142471 0.0462654 -0.0033666 255 0 0
0.0159190 0.0462651 -0.0033663 255 0 0
0.0175908 0.0462648 -0.0033659 255 0 0
-0.0375807 0.0479372 -0.0033667 255 0 0
-0.0359088 0.0479373 -0.0033670 255 0 0
-0.0342369 0.0479375 -0.0033671 255 0 0
-0.0325651 0.0479375 -0.0033672 255 0 0
-0.0308932 0.0479376 -0.0033673 255 0 0
-0.0292213 0.0479376 -0.0033673 255 0 0
-0.0275495 0.0479376 -0.0033673 255 0 0
-0.0258776 0.0479376 -0.0033673 255 0 0
-0.0242057 0.0479376 -0.0033672 255 0 0
-0.0225339 0.0479376 -0.0033672 255 0 0
-0.0208620 0.0479376 -0.0033672 255 0 0
-0.0191902 0.0479376 -0.0033671 255 0 0
-0.0175183 0.0479375 -0.0033670 255 0 0
-0.0158464 0.0479375 -0.0033670 255 0 0
-0.0141746 0.0479375 -0.0033670 255 0 0
-0.0125027 0.0479374 -0.0033669 255 0 0
-0.0108309 0.0479374 -0.0033668 255 0 0
-0.0091590 0.0479374 -0.0033668 255 0 0
-0.0074871 0.0479373 -0.0033668 255 0 0
-0.0058153 0.0479373 -0.0033667 255 0 0
-0.0041434 0.0479373 -0.0033666 255 0 0
-0.0024716 0.0479373 -0.0033666 255 0 0
-0.0007997 0.0479372 -0.0033665 255 0 0
0.0008722 0.0479372 -0.0033665 255 0 0
0.0025440 0.0479372 -0.0033664 255 0 0
0.0042159 0.0479371 -0.0033664 255 0 0
0.0058878 0.0479370 -0.0033663 255 0 0
0.0075596 0.0479369 -0.0033662 255 0 0
0.0092315 0.0479368 -0.0033661 255 0 0
0.0109034 0.0479367 -0.0033659 255 0 0
0.0125752 0.0479366 -0.0033657 255 0 0
0.0142471 0.0479363 -0.0033654 255 0 0
0.0159190 0.0479360 -0.0033650 255 0 0
0.0175908 0.0479357 -0.0033645 255 0 0
0.0192627 0.0479355 -0.0033642 255 0 0
-0.0392525 0.0496080 -0.0033653 255 0 0
-0.0375807 0.0496082 -0.0033656 255 0 0
-0.0359088 0.0496083 -0.0033658 255 0 0
-0.0342369 0.0496084 -0.0033660 255 0 0
-0.0325651 0.0496085 -0.0033660 255 0 0
-0.0308932 0.0496085 -0.0033661 255 0 0
-0.0292213 0.0496085 -0.0033660 255 0 0
-0.0275495 0.0496085 -0.0033660 255 0 0
-0.0258776 0.0496085 -0.0033660 255 0 0
-0.0242058 0.0496085 -0.0033659 255 0 0
-0.0225339 0.0496084 -0.0033659 255 0 0
-0.0208620 0.0496084 -0.0033658 255 0 0
-0.0191902 0.0496083 -0.0033657 255 0 0
-0.0175183 0.0496083 -0.0033656 255 0 0
-0.0158464 0.0496082 -0.0033655 255 0 0
-0.0141746 0.0496082 -0.0033655 255 0 0
-0.0125027 0.0496081 -0.0033654 255 0 0
-0.0108309 0.0496081 -0.0033653 255 0 0
-0.0091590 0.0496080 -0.0033652 255 0 0
-0.0074872 0.0496080 -0.0033652 255 0 0
-0.0058153 0.0496079 -0.0033651 255 0 0
-0.0041434 0.0496079 -0.0033650 255 0 0
-0.0024716 0.0496078 -0.0033649 255 0 0
-0.0007997 0.0496078 -0.0033648 255 0 0
0.0008721 0.0496077 -0.0033647 255 0 0
0.0025440 0.0496077 -0.0033647 255 0 0
0.0042159 0.0496076 -0.0033646 255 0 0
0.0058877 0.0496076 -0.0033645 255 0 0
0.0075596 0.0496075 -0.0033643 255 0 0
0.0092315 0.0496074 -0.0033642 255 0 0
0.0109033 0.0496072 -0.0033640 255 0 0
0.0125752 0.0496070 -0.0033638 255 0 0
0.0142471 0.0496068 -0.0033635 255 0 0
0.0159190 0.0496065 -0.0033630 255 0 0
0.0175908 0.0496061 -0.0033625 255 0 0
0.0192627 0.0496058 -0.0033621 255 0 0
0.0209345 0.0496042 -0.0033603 255 0 0
-0.0409244 0.0512784 -0.0033635 255 0 0
-0.0392525 0.0512786 -0.0033638 255 0 0
-0.0375807 0.0512788 -0.0033641 255 0 0
-0.0359088 0.0512790 -0.0033643 255 0 0
-0.0342369 0.0512791 -0.0033644 255 0 0
-0.0325651 0.0512791 -0.0033645 255 0 0
-0.0308932 0.0512792 -0.0033645 255 0 0
-0.0292214 0.0512791 -0.0033644 255 0 0
-0.0275495 0.0512791 -0.0033644 255 0 0
-0.0258776 0.0512791 -0.0033643 255 0 0
-0.0242058 0.0512791 -0.0033642 255 0 0
-0.0225339 0.0512790 -0.0033642 255 0 0
-0.0208620 0.0512789 -0.0033640 255 0 0
-0.0191902 0.0512789 -0.0033639 255 0 0
-0.0175183 0.0512788 -0.0033638 255 0 0
-0.0158465 0.0512787 -0.0033637 255 0 0
-0.0141746 0.0512787 -0.0033636 255 0 0
-0.0125027 0.0512786 -0.0033635 255 0 0
-0.0108309 0.0512785 -0.0033634 255 0 0
-0.0091590 0.0512785 -0.0033633 255 0 0
-0.0074872 0.0512784 -0.0033632 255 0 0
-0.0058153 0.0512784 -0.0033631 255 0 0
-0.0041435 0.0512783 -0.0033630 255 0 0
-0.0024716 0.0512782 -0.0033629 255 0 0
-0.0007997 0.0512781 -0.0033628 255 0 0
0.0008721 0.0512781 -0.0033627 255 0 0
0.0025440 0.0512780 -0.0033626 255 0 0
0.0042159 0.0512779 -0.0033625 255 0 0
0.0058877 0.0512778 -0.0033623 255 0 0
0.0075596 0.0512777 -0.0033622 255 0 0
0.0092315 0.0512776 -0.0033620 255 0 0
0.0109033 0.0512774 -0.0033618 255 0 0
0.0125752 0.0512772 -0.0033616 255 0 0
0.0142471 0.0512769 -0.0033612 255 0 0
0.0159190 0.0512765 -0.0033608 255 0 0
0.0175908 0.0512761 -0.0033602 255 0 0
0.0192627 0.0512757 -0.0033597 255 0 0
0.0209345 0.0512745 -0.0033580 255 0 0
-0.0425963 0.0529484 -0.0033608 255 0 0
-0.0409244 0.0529486 -0.0033612 255 0 0
-0.0392525 0.0529489 -0.0033615 255 0 0
-0.0375807 0.0529491 -0.0033617 255 0 0
-0.0359088 0.0529492 -0.0033619 255 0 0
-0.0342369 0.0529493 -0.0033620 255 0 0
-0.0325651 0.0529493 -0.0033621 255 0 0
-0.0308932 0.0529493 -0.0033620 255 0 0
-0.0292214 0.0529492 -0.0033620 255 0 0
-0.0275495 0.0529492 -0.0033619 255 0 0
-0.0258776 0.0529491 -0.0033618 255 0 0
-0.0242058 0.0529491 -0.0033617 255 0 0
-0.0225339 0.0529490 -0.0033616 255 0 0
-0.0208621 0.0529489 -0.0033614 255 0 0
-0.0191902 0.0529488 -0.0033613 255 0 0
-0.0175183 0.0529487 -0.0033611 255 0 0
-0.0158465 0.0529487 -0.0033610 255 0 0
-0.0141747 0.0529486 -0.0033609 255 0 0
-0.0125028 0.0529485 -0.0033608 255 0 0
-0.0108309 0.0529484 -0.0033606 255 0 0
-0.0091591 0.0529483 -0.0033605 255 0 0
-0.0074872 0.0529482 -0.0033604 255 0 0
-0.0058153 0.0529482 -0.0033603 255 0 0
-0.0041435 0.0529481 -0.0033601 255 0 0
-0.0024716 0.0529480 -0.0033600 255 0 0
-0.0007998 0.0529479 -0.0033598 255 0 0
0.0008721 0.0529478 -0.0033597 255 0 0
0.0025440 0.0529477 -0.0033596 255 0 0
0.0042158 0.0529476 -0.0033595 255 0 0
0.0058877 0.0529475 -0.0033593 255 0 0
0.0075596 0.0529474 -0.0033591 255 0 0
0.0092315 0.0529473 -0.0033590 255 0 0
0.0109033 0.0529471 -0.0033587 255 0 0
0.0125752 0.0529469 -0.0033585 255 0 0
0.0142471 0.0529466 -0.0033581 255 0 0
0.0159189 0.0529463 -0.0033576 255 0 0
0.0175908 0.0529457 -0.0033570 255 0 0
0.0192626 0.0529452 -0.0033563 255 0 0
0.0209345 0.0529440 -0.0033548 255 0 0
0.0226064 0.0529431 -0.0033535 255 0 0
-0.0425963 0.0546184 -0.0033582 255 0 0
-0.0409244 0.0546187 -0.0033588 255 0 0
-0.0392525 0.0546191 -0.0033592 255 0 0
-0.0375807 0.0546193 -0.0033596 255 0 0
-0.0359088 0.0546196 -0.0033599 255 0 0
-0.0342369 0.0546196 -0.0033601 255 0 0
-0.0325651 0.0546197 -0.0033601 255 0 0
-0.0308933 0.0546197 -0.0033601 255 0 0
-0.0292214 0.0546196 -0.0033600 255 0 0
-0.0275495 0.0546195 -0.0033599 255 0 0
-0.0258777 0.0546195 -0.0033598 255 0 0
-0.0242058 0.0546194 -0.0033596 255 0 0
-0.0225339 0.0546193 -0.0033595 255 0 0
-0.0208621 0.0546192 -0.0033593 255 0 0
-0.0191902 0.0546191 -0.0033592 255 0 0
-0.0175184 0.0546190 -0.0033590 255 0 0
-0.0158465 0.0546189 -0.0033589 255 0 0
-0.0141747 0.0546189 -0.0033588 255 0 0
-0.0125028 0.0546187 -0.0033586 255 0 0
-0.0108310 0.0546186 -0.0033584 255 0 0
-0.0091591 0.0546185 -0.0033583 255 0 0
-0.0074872 0.0546185 -0.0033582 255 0 0
-0.0058153 0.0546184 -0.0033580 255 0 0
-0.0041435 0.0546183 -0.0033579 255 0 0
-0.0024716 0.0546182 -0.0033577 255 0 0
-0.0007998 0.0546181 -0.0033576 255 0 0
0.0008721 0.0546180 -0.0033574 255 0 0
0.0025440 0.0546179 -0.0033573 255 0 0
0.0042158 0.0546178 -0.0033571 255 0 0
0.0058877 0.0546177 -0.0033570 255 0 0
0.0075596 0.0546176 -0.0033568 255 0 0
0.0092314 0.0546174 -0.0033566 255 0 0
0.0109033 0.0546173 -0.0033563 255 0 0
0.0125752 0.0546171 -0.0033561 255 0 0
0.0142470 0.0546167 -0.0033557 255 0 0
0.0159189 0.0546163 -0.0033551 255 0 0
0.0175908 0.0546158 -0.0033545 255 0 0
0.0192626 0.0546150 -0.0033535 255 0 0
0.0209345 0.0546137 -0.0033518 255 0 0
0.0226064 0.0546123 -0.0033500 255 0 0
-0.0442683 0.0562878 -0.0033548 255 0 0
-0.0425963 0.0562884 -0.0033557 255 0 0
-0.0409244 0.0562889 -0.0033565 255 0 0
-0.0392525 0.0562893 -0.0033571 255 0 0
-0.0375807 0.0562897 -0.0033578 255 0 0
-0.0359088 0.0562901 -0.0033582 255 0 0
-0.0342369 0.0562902 -0.0033585 255 0 0
-0.0325651 0.0562903 -0.0033585 255 0 0
-0.0308933 0.0562903 -0.0033585 255 0 0
-0.0292214 0.0562903 -0.0033584 255 0 0
-0.0275496 0.0562902 -0.0033584 255 0 0
-0.0258777 0.0562901 -0.0033583 255 0 0
-0.0242058 0.0562901 -0.0033581 255 0 0
-0.0225339 0.0562900 -0.0033580 255 0 0
-0.0208621 0.0562899 -0.0033578 255 0 0
-0.0191902 0.0562898 -0.0033577 255 0 0
-0.0175183 0.0562897 -0.0033575 255 0 0
-0.0158465 0.0562896 -0.0033574 255 0 0
-0.0141747 0.0562895 -0.0033573 255 0 0
-0.0125028 0.0562894 -0.0033571 255 0 0
-0.0108310 0.0562893 -0.0033569 255 0 0
-0.0091591 0.0562892 -0.0033568 255 0 0
-0.0074872 0.0562891 -0.0033567 255 0 0
-0.0058154 0.0562890 -0.0033565 255 0 0
-0.0041435 0.0562889 -0.0033564 255 0 0
-0.0024716 0.0562888 -0.0033562 255 0 0
-0.0007998 0.0562888 -0.0033561 255 0 0
0.0008721 0.0562887 -0.0033559 255 0 0
0.0025439 0.0562886 -0.0033558 255 0 0
0.0042158 0.0562885 -0.0033556 255 0 0
0.0058877 0.0562883 -0.0033555 255 0 0
0.0075596 0.0562882 -0.0033553 255 0 0
0.0092314 0.0562881 -0.0033551 255 0 0
0.0109033 0.0562879 -0.0033548 255 0 0
0.0125752 0.0562877 -0.0033546 255 0 0
0.0142470 0.0562874 -0.0033542 255 0 0
0.0159189 0.0562869 -0.0033536 255 0 0
0.0175908 0.0562863 -0.0033529 255 0 0
0.0192626 0.0562854 -0.0033517 255 0 0
0.0209345 0.0562838 -0.0033497 255 0 0
0.0226064 0.0562822 -0.0033474 255 0 0
0.0242783 0.0562803 -0.0033450 255 0 0
-0.0442683 0.0579554 -0.0033487 255 0 0
-0.0425965 0.0579555 -0.0033491 255 0 0
-0.0409246 0.0579558 -0.0033494 255 0 0
-0.0392527 0.0579560 -0.0033497 255 0 0
-0.0375809 0.0579562 -0.0033500 255 0 0
-0.0359090 0.0579562 -0.0033502 255 0 0
-0.0342371 0.0579563 -0.0033502 255 0 0
-0.0325652 0.0579562 -0.0033501 255 0 0
-0.0308934 0.0579561 -0.0033500 255 0 0
-0.0292216 0.0579560 -0.0033498 255 0 0
-0.0275497 0.0579559 -0.0033496 255 0 0
-0.0258778 0.0579558 -0.0033494 255 0 0
-0.0242059 0.0579556 -0.0033493 255 0 0
-0.0225341 0.0579555 -0.0033491 255 0 0
-0.0208622 0.0579553 -0.0033488 255 0 0
-0.0191904 0.0579551 -0.0033485 255 0 0
-0.0175185 0.0579550 -0.0033483 255 0 0
-0.0158466 0.0579549 -0.0033481 255 0 0
-0.0141748 0.0579548 -0.0033479 255 0 0
-0.0125029 0.0579546 -0.0033477 255 0 0
-0.0108310 0.0579544 -0.0033474 255 0 0
-0.0091592 0.0579543 -0.0033472 255 0 0
-0.0074873 0.0579541 -0.0033470 255 0 0
-0.0058155 0.0579540 -0.0033468 255 0 0
-0.0041436 0.0579539 -0.0033466 255 0 0
-0.0024717 0.0579537 -0.0033464 255 0 0
-0.0007999 0.0579536 -0.0033461 255 0 0
0.0008720 0.0579534 -0.0033460 255 0 0
0.0025439 0.0579533 -0.0033458 255 0 0
0.0042157 0.0579532 -0.0033455 255 0 0
0.0058876 0.0579530 -0.0033453 255 0 0
0.0075595 0.0579529 -0.0033451 255 0 0
0.0092314 0.0579527 -0.0033449 255 0 0
0.0109032 0.0579524 -0.0033446 255 0 0
0.0125751 0.0579523 -0.0033443 255 0 0
0.0142469 0.0579519 -0.0033439 255 0 0
0.0159189 0.0579515 -0.0033433 255 0 0
0.0175907 0.0579510 -0.0033426 255 0 0
0.0192626 0.0579501 -0.0033415 255 0 0
0.0209345 0.0579489 -0.0033399 255 0 0
0.0226063 0.0579474 -0.0033379 255 0 0
0.0242782 0.0579456 -0.0033355 255 0 0
0.0259501 0.0579435 -0.0033327 255 0 0
-0.0459403 0.0596230 -0.0033429 255 0 0
-0.0442685 0.0596230 -0.0033429 255 0 0
-0.0425965 0.0596230 -0.0033429 255 0 0
-0.0409247 0.0596231 -0.0033430 255 0 0
-0.0392528 0.0596231 -0.0033431 255 0 0
-0.0375809 0.0596231 -0.0033432 255 0 0
-0.0359090 0.0596231 -0.0033432 255 0 0
-0.0342372 0.0596230 -0.0033431 255 0 0
-0.0325653 0.0596230 -0.0033430 255 0 0
-0.0308934 0.0596228 -0.0033428 255 0 0
-0.0292216 0.0596226 -0.0033426 255 0 0
-0.0275497 0.0596225 -0.0033423 255 0 0
-0.0258779 0.0596224 -0.0033421 255 0 0
-0.0242060 0.0596222 -0.0033418 255 0 0
-0.0225341 0.0596220 -0.0033416 255 0 0
-0.0208623 0.0596218 -0.0033412 255 0 0
-0.0191904 0.0596216 -0.0033409 255 0 0
-0.0175186 0.0596214 -0.0033406 255 0 0
-0.0158467 0.0596212 -0.0033404 255 0 0
-0.0141748 0.0596210 -0.0033402 255 0 0
-0.0125029 0.0596208 -0.0033399 255 0 0
-0.0108311 0.0596207 -0.0033396 255 0 0
-0.0091592 0.0596205 -0.0033394 255 0 0
-0.0074874 0.0596203 -0.0033391 255 0 0
-0.0058155 0.0596202 -0.0033389 255 0 0
-0.0041437 0.0596199 -0.0033386 255 0 0
-0.0024718 0.0596198 -0.0033383 255 0 0
-0.0007999 0.0596196 -0.0033381 255 0 0
0.0008719 0.0596194 -0.0033379 255 0 0
0.0025438 0.0596193 -0.0033377 255 0 0
0.0042157 0.0596191 -0.0033374 255 0 0
0.0058876 0.0596189 -0.0033371 255 0 0
0.0075594 0.0596187 -0.0033369 255 0 0
0.0092313 0.0596186 -0.0033367 255 0 0
0.0109032 0.0596184 -0.0033364 255 0 0
0.0125751 0.0596182 -0.0033361 255 0 0
0.0142469 0.0596179 -0.0033356 255 0 0
0.0159188 0.0596175 -0.0033351 255 0 0
0.0175907 0.0596170 -0.0033345 255 0 0
0.0192626 0.0596162 -0.0033334 255 0 0
0.0209344 0.0596152 -0.0033321 255 0 0
0.0226063 0.0596137 -0.0033303 255 0 0
0.0242782 0.0596120 -0.0033278 255 0 0
0.0259501 0.0596097 -0.0033248 255 0 0
-0.0459404 0.0612907 -0.0033370 255 0 0
-0.0442685 0.0612906 -0.0033368 255 0 0
-0.0425966 0.0612905 -0.0033366 255 0 0
-0.0409248 0.0612904 -0.0033366 255 0 0
-0.0392529 0.0612904 -0.0033365 255 0 0
-0.0375810 0.0612903 -0.0033365 255 0 0
-0.0359092 0.0612902 -0.0033364 255 0 0
-0.0342373 0.0612901 -0.0033363 255 0 0
-0.0325654 0.0612900 -0.0033361 255 0 0
-0.0308935 0.0612899 -0.0033360 255 0 0
-0.0292216 0.0612897 -0.0033357 255 0 0
-0.0275498 0.0612894 -0.0033354 255 0 0
-0.0258779 0.0612892 -0.0033351 255 0 0
-0.0242060 0.0612890 -0.0033348 255 0 0
-0.0225342 0.0612889 -0.0033346 255 0 0
-0.0208623 0.0612886 -0.0033342 255 0 0
-0.0191905 0.0612883 -0.0033339 255 0 0
-0.0175186 0.0612881 -0.0033336 255 0 0
-0.0158467 0.0612880 -0.0033333 255 0 0
-0.0141749 0.0612878 -0.0033331 255 0 0
-0.0125030 0.0612876 -0.0033328 255 0 0
-0.0108312 0.0612873 -0.0033325 255 0 0
-0.0091593 0.0612871 -0.0033322 255 0 0
-0.0074874 0.0612870 -0.0033320 255 0 0
-0.0058156 0.0612868 -0.0033317 255 0 0
-0.0041437 0.0612866 -0.0033314 255 0 0
-0.0024718 0.0612864 -0.0033311 255 0 0
-0.0008000 0.0612863 -0.0033309 255 0 0
0.0008719 0.0612861 -0.0033306 255 0 0
0.0025438 0.0612860 -0.0033304 255 0 0
0.0042156 0.0612858 -0.0033301 255 0 0
0.0058875 0.0612856 -0.0033298 255 0 0
0.0075594 0.0612854 -0.0033296 255 0 0
0.0092313 0.0612853 -0.0033294 255 0 0
0.0109032 0.0612851 -0.0033290 255 0 0
0.0125750 0.0612848 -0.0033287 255 0 0
0.0142469 0.0612846 -0.0033283 255 0 0
0.0159187 0.0612842 -0.0033278 255 0 0
0.0175906 0.0612838 -0.0033273 255 0 0
0.0192625 0.0612830 -0.0033262 255 0 0
0.0209344 0.0612822 -0.0033251 255 0 0
0.0226063 0.0612808 -0.0033234 255 0 0
0.0242782 0.0612789 -0.0033208 255 0 0
0.0259501 0.0612766 -0.0033176 255 0 0
0.0276220 0.0612749 -0.0033154 255 0 0
-0.0459404 0.0629697 -0.0033319 255 0 0
-0.0442685 0.0629698 -0.0033319 255 0 0
-0.0425966 0.0629700 -0.0033319 255 0 0
-0.0409248 0.0629700 -0.0033320 255 0 0
-0.0392529 0.0629699 -0.0033321 255 0 0
-0.0375811 0.0629699 -0.0033322 255 0 0
-0.0359092 0.0629699 -0.0033322 255 0 0
-0.0342373 0.0629699 -0.0033322 255 0 0
-0.0325655 0.0629698 -0.0033322 255 0 0
-0.0308936 0.0629697 -0.0033321 255 0 0
-0.0292217 0.0629695 -0.0033318 255 0 0
-0.0275498 0.0629693 -0.0033316 255 0 0
-0.0258780 0.0629691 -0.0033313 255 0 0
-0.0242061 0.0629689 -0.0033311 255 0 0
-0.0225342 0.0629687 -0.0033308 255 0 0
-0.0208624 0.0629685 -0.0033305 255 0 0
-0.0191905 0.0629682 -0.0033302 255 0 0
-0.0175186 0.0629680 -0.0033299 255 0 0
-0.0158467 0.0629679 -0.0033297 255 0 0
-0.0141749 0.0629677 -0.0033294 255 0 0
-0.0125031 0.0629675 -0.0033291 255 0 0
-0.0108312 0.0629673 -0.0033289 255 0 0
-0.0091593 0.0629671 -0.0033286 255 0 0
-0.0074875 0.0629670 -0.0033284 255 0 0
-0.0058156 0.0629668 -0.0033282 255 0 0
-0.0041437 0.0629666 -0.0033279 255 0 0
-0.0024719 0.0629664 -0.0033276 255 0 0
-0.0008000 0.0629662 -0.0033274 255 0 0
0.0008719 0.0629661 -0.0033272 255 0 0
0.0025438 0.0629660 -0.0033269 255 0 0
0.0042156 0.0629658 -0.0033267 255 0 0
0.0058875 0.0629656 -0.0033264 255 0 0
0.0075594 0.0629655 -0.0033262 255 0 0
0.0092313 0.0629653 -0.0033260 255 0 0
0.0109031 0.0629652 -0.0033257 255 0 0
0.0125750 0.0629650 -0.0033254 255 0 0
0.0142469 0.0629647 -0.0033250 255 0 0
0.0159187 0.0629643 -0.0033246 255 0 0
0.0175906 0.0629640 -0.0033240 255 0 0
0.0192624 0.0629630 -0.0033229 255 0 0
0.0209343 0.0629621 -0.0033219 255 0 0
0.0226062 0.0629608 -0.0033201 255 0 0
0.0242782 0.0629587 -0.0033171 255 0 0
0.0259501 0.0629557 -0.0033135 255 0 0
0.0276220 0.0629544 -0.0033118 255 0 0
-0.0459404 0.0646394 -0.0033296 255 0 0
-0.0442685 0.0646395 -0.0033298 255 0 0
-0.0425966 0.0646397 -0.0033301 255 0 0
-0.0409248 0.0646398 -0.0033303 255 0 0
-0.0392529 0.0646399 -0.0033304 255 0 0
-0.0375811 0.0646401 -0.0033306 255 0 0
-0.0359092 0.0646402 -0.0033308 255 0 0
-0.0342373 0.0646401 -0.0033308 255 0 0
-0.0325655 0.0646400 -0.0033308 255 0 0
-0.0308936 0.0646400 -0.0033308 255 0 0
-0.0292217 0.0646399 -0.0033306 255 0 0
-0.0275499 0.0646397 -0.0033304 255 0 0
-0.0258780 0.0646396 -0.0033301 255 0 0
-0.0242061 0.0646394 -0.0033299 255 0 0
-0.0225342 0.0646392 -0.0033297 255 0 0
-0.0208623 0.0646389 -0.0033293 255 0 0
-0.0191905 0.0646387 -0.0033290 255 0 0
-0.0175186 0.0646386 -0.0033288 255 0 0
-0.0158467 0.0646384 -0.0033286 255 0 0
-0.0141749 0.0646382 -0.0033284 255 0 0
-0.0125031 0.0646380 -0.0033281 255 0 0
-0.0108312 0.0646379 -0.0033278 255 0 0
-0.0091594 0.0646377 -0.0033276 255 0 0
-0.0074875 0.0646376 -0.0033274 255 0 0
-0.0058156 0.0646374 -0.0033272 255 0 0
-0.0041437 0.0646372 -0.0033269 255 0 0
-0.0024719 0.0646371 -0.0033267 255 0 0
-0.0008000 0.0646369 -0.0033265 255 0 0
0.0008719 0.0646368 -0.0033263 255 0 0
0.0025437 0.0646367 -0.0033261 255 0 0
0.0042156 0.0646365 -0.0033259 255 0 0
0.0058875 0.0646364 -0.0033256 255 0 0
0.0075594 0.0646362 -0.0033254 255 0 0
0.0092312 0.0646361 -0.0033252 255 0 0
0.0109031 0.0646359 -0.0033249 255 0 0
0.0125750 0.0646358 -0.0033247 255 0 0
0.0142468 0.0646356 -0.0033243 255 0 0
0.0159187 0.0646353 -0.0033239 255 0 0
0.0175906 0.0646348 -0.0033233 255 0 0
0.0192624 0.0646339 -0.0033222 255 0 0
0.0209343 0.0646332 -0.0033212 255 0 0
0.0226063 0.0646318 -0.0033193 255 0 0
0.0242782 0.0646294 -0.0033161 255 0 0
0.0259501 0.0646264 -0.0033121 255 0 0
0.0276220 0.0646255 -0.0033107 255 0 0
-0.0459406 0.0663023 -0.0033163 255 0 0
-0.0442687 0.0663024 -0.0033164 255 0 0
-0.0425968 0.0663026 -0.0033166 255 0 0
-0.0409250 0.0663026 -0.0033167 255 0 0
-0.0392531 0.0663027 -0.0033168 255 0 0
-0.0375813 0.0663027 -0.0033170 255 0 0
-0.0359093 0.0663028 -0.0033172 255 0 0
-0.0342374 0.0663027 -0.0033173 255 0 0
-0.0325656 0.0663027 -0.0033174 255 0 0
-0.0308938 0.0663027 -0.0033174 255 0 0
-0.0292219 0.0663025 -0.0033173 255 0 0
-0.0275501 0.0663024 -0.0033171 255 0 0
-0.0258782 0.0663023 -0.0033170 255 0 0
-0.0242063 0.0663021 -0.0033168 255 0 0
-0.0225343 0.0663019 -0.0033166 255 0 0
-0.0208625 0.0663017 -0.0033163 255 0 0
-0.0191906 0.0663015 -0.0033160 255 0 0
-0.0175187 0.0663013 -0.0033158 255 0 0
-0.0158468 0.0663011 -0.0033157 255 0 0
-0.0141750 0.0663010 -0.0033155 255 0 0
-0.0125032 0.0663008 -0.0033153 255 0 0
-0.0108313 0.0663006 -0.0033151 255 0 0
-0.0091595 0.0663004 -0.0033149 255 0 0
-0.0074876 0.0663003 -0.0033147 255 0 0
-0.0058157 0.0663002 -0.0033145 255 0 0
-0.0041438 0.0663000 -0.0033143 255 0 0
-0.0024720 0.0662999 -0.0033141 255 0 0
-0.0008001 0.0662997 -0.0033139 255 0 0
0.0008718 0.0662997 -0.0033138 255 0 0
0.0025437 0.0662996 -0.0033136 255 0 0
0.0042155 0.0662994 -0.0033134 255 0 0
0.0058874 0.0662993 -0.0033132 255 0 0
0.0075593 0.0662993 -0.0033131 255 0 0
0.0092312 0.0662992 -0.0033129 255 0 0
0.0109030 0.0662990 -0.0033127 255 0 0
0.0125749 0.0662990 -0.0033124 255 0 0
0.0142468 0.0662988 -0.0033121 255 0 0
0.0159187 0.0662985 -0.0033117 255 0 0
0.0175906 0.0662982 -0.0033112 255 0 0
0.0192624 0.0662974 -0.0033102 255 0 0
0.0209343 0.0662968 -0.0033093 255 0 0
0.0226062 0.0662955 -0.0033076 255 0 0
0.0242782 0.0662932 -0.0033046 255 0 0
0.0259501 0.0662902 -0.0033009 255 0 0
0.0276220 0.0662892 -0.0032993 255 0 0
0.0292939 0.0662724 -0.0032764 255 0 0
-0.0459407 0.0679681 -0.0033075 255 0 0
-0.0442688 0.0679682 -0.0033076 255 0 0
-0.0425969 0.0679682 -0.0033077 255 0 0
-0.0409250 0.0679683 -0.0033078 255 0 0
-0.0392531 0.0679684 -0.0033079 255 0 0
-0.0375813 0.0679683 -0.0033080 255 0 0
-0.0359094 0.0679683 -0.0033082 255 0 0
-0.0342376 0.0679684 -0.0033083 255 0 0
-0.0325657 0.0679683 -0.0033084 255 0 0
-0.0308938 0.0679682 -0.0033085 255 0 0
-0.0292219 0.0679681 -0.0033084 255 0 0
-0.0275501 0.0679679 -0.0033084 255 0 0
-0.0258782 0.0679678 -0.0033082 255 0 0
-0.0242063 0.0679676 -0.0033081 255 0 0
-0.0225344 0.0679675 -0.0033079 255 0 0
-0.0208626 0.0679672 -0.0033077 255 0 0
-0.0191907 0.0679670 -0.0033075 255 0 0
-0.0175188 0.0679669 -0.0033073 255 0 0
-0.0158470 0.0679667 -0.0033071 255 0 0
-0.0141751 0.0679666 -0.0033070 255 0 0
-0.0125032 0.0679664 -0.0033069 255 0 0
-0.0108314 0.0679662 -0.0033067 255 0 0
-0.0091595 0.0679661 -0.0033066 255 0 0
-0.0074876 0.0679660 -0.0033064 255 0 0
-0.0058157 0.0679659 -0.0033063 255 0 0
-0.0041439 0.0679657 -0.0033061 255 0 0
-0.0024720 0.0679656 -0.0033060 255 0 0
-0.0008002 0.0679655 -0.0033058 255 0 0
0.0008717 0.0679654 -0.0033057 255 0 0
0.0025436 0.0679654 -0.0033055 255 0 0
0.0042155 0.0679654 -0.0033054 255 0 0
0.0058874 0.0679653 -0.0033053 255 0 0
0.0075592 0.0679652 -0.0033051 255 0 0
0.0092312 0.0679651 -0.0033050 255 0 0
0.0109030 0.0679651 -0.0033048 255 0 0
0.0125749 0.0679650 -0.0033046 255 0 0
0.0142468 0.0679649 -0.0033043 255 0 0
0.0159186 0.0679647 -0.0033039 255 0 0
0.0175905 0.0679644 -0.0033034 255 0 0
0.0192624 0.0679636 -0.0033025 255 0 0
0.0209343 0.0679630 -0.0033017 255 0 0
0.0226062 0.0679617 -0.0033001 255 0 0
0.0242782 0.0679596 -0.0032973 255 0 0
0.0259501 0.0679569 -0.0032938 255 0 0
0.0276220 0.0679555 -0.0032920 255 0 0
0.0292939 0.0679398 -0.0032712 255 0 0
-0.0459407 0.0696351 -0.0033013 255 0 0
-0.0442689 0.0696351 -0.0033014 255 0 0
-0.0425970 0.0696352 -0.0033014 255 0 0
-0.0409252 0.0696351 -0.0033015 255 0 0
-0.0392533 0.0696352 -0.0033015 255 0 0
-0.0375814 0.0696352 -0.0033017 255 0 0
-0.0359096 0.0696352 -0.0033018 255 0 0
-0.0342377 0.0696352 -0.0033020 255 0 0
-0.0325658 0.0696352 -0.0033021 255 0 0
-0.0308938 0.0696351 -0.0033022 255 0 0
-0.0292219 0.0696350 -0.0033022 255 0 0
-0.0275501 0.0696349 -0.0033022 255 0 0
-0.0258782 0.0696348 -0.0033021 255 0 0
-0.0242063 0.0696345 -0.0033020 255 0 0
-0.0225344 0.0696344 -0.0033018 255 0 0
-0.0208626 0.0696341 -0.0033016 255 0 0
-0.0191907 0.0696339 -0.0033014 255 0 0
-0.0175189 0.0696338 -0.0033013 255 0 0
-0.0158470 0.0696337 -0.0033012 255 0 0
-0.0141751 0.0696335 -0.0033011 255 0 0
-0.0125033 0.0696334 -0.0033010 255 0 0
-0.0108314 0.0696333 -0.0033009 255 0 0
-0.0091595 0.0696332 -0.0033008 255 0 0
-0.0074876 0.0696330 -0.0033008 255 0 0
-0.0058158 0.0696330 -0.0033007 255 0 0
-0.0041439 0.0696328 -0.0033005 255 0 0
-0.0024721 0.0696328 -0.0033004 255 0 0
-0.0008002 0.0696327 -0.0033003 255 0 0
0.0008717 0.0696327 -0.0033002 255 0 0
0.0025436 0.0696327 -0.0033001 255 0 0
0.0042154 0.0696326 -0.0033000 255 0 0
0.0058873 0.0696326 -0.0032999 255 0 0
0.0075592 0.0696326 -0.0032998 255 0 0
0.0092311 0.0696326 -0.0032996 255 0 0
0.0109030 0.0696326 -0.0032995 255 0 0
0.0125749 0.0696326 -0.0032993 255 0 0
0.0142467 0.0696324 -0.0032990 255 0 0
0.0159186 0.0696322 -0.0032986 255 0 0
0.0175905 0.0696318 -0.0032982 255 0 0
0.0192624 0.0696312 -0.0032973 255 0 0
0.0209343 0.0696307 -0.0032966 255 0 0
0.0226062 0.0696296 -0.0032951 255 0 0
0.0242781 0.0696276 -0.0032924 255 0 0
0.0259501 0.0696247 -0.0032890 255 0 0
0.0276220 0.0696231 -0.0032868 255 0 0
0.0292940 0.0696087 -0.0032676 255 0 0
-0.0459408 0.0713076 -0.0033032 255 0 0
-0.0442689 0.0713077 -0.0033033 255 0 0
-0.0425970 0.0713078 -0.0033033 255 0 0
-0.0409252 0.0713077 -0.0033033 255 0 0
-0.0392533 0.0713077 -0.0033034 255 0 0
-0.0375814 0.0713077 -0.0033035 255 0 0
-0.0359096 0.0713076 -0.0033036 255 0 0
-0.0342377 0.0713076 -0.0033036 255 0 0
-0.0325658 0.0713075 -0.0033037 255 0 0
-0.0308938 0.0713075 -0.0033037 255 0 0
-0.0292220 0.0713073 -0.0033038 255 0 0
-0.0275501 0.0713072 -0.0033037 255 0 0
-0.0258782 0.0713070 -0.0033037 255 0 0
-0.0242063 0.0713068 -0.0033036 255 0 0
-0.0225344 0.0713067 -0.0033034 255 0 0
-0.0208626 0.0713065 -0.0033033 255 0 0
-0.0191907 0.0713063 -0.0033031 255 0 0
-0.0175188 0.0713061 -0.0033030 255 0 0
-0.0158469 0.0713060 -0.0033030 255 0 0
-0.0141751 0.0713059 -0.0033029 255 0 0
-0.0125033 0.0713058 -0.0033029 255 0 0
-0.0108314 0.0713057 -0.0033028 255 0 0
-0.0091595 0.0713057 -0.0033028 255 0 0
-0.0074876 0.0713056 -0.0033027 255 0 0
-0.0058158 0.0713055 -0.0033026 255 0 0
-0.0041439 0.0713054 -0.0033026 255 0 0
-0.0024720 0.0713054 -0.0033025 255 0 0
-0.0008002 0.0713053 -0.0033024 255 0 0
0.0008717 0.0713053 -0.0033023 255 0 0
0.0025436 0.0713053 -0.0033022 255 0 0
0.0042155 0.0713053 -0.0033022 255 0 0
0.0058873 0.0713053 -0.0033021 255 0 0
0.0075592 0.0713054 -0.0033020 255 0 0
0.0092311 0.0713054 -0.0033019 255 0 0
0.0109030 0.0713053 -0.0033017 255 0 0
0.0125748 0.0713054 -0.0033016 255 0 0
0.0142467 0.0713054 -0.0033013 255 0 0
0.0159186 0.0713053 -0.0033010 255 0 0
0.0175905 0.0713051 -0.0033006 255 0 0
0.0192624 0.0713044 -0.0032997 255 0 0
0.0209343 0.0713039 -0.0032990 255 0 0
0.0226062 0.0713027 -0.0032975 255 0 0
0.0242781 0.0713006 -0.0032949 255 0 0
0.0259501 0.0712980 -0.0032916 255 0 0
0.0276220 0.0712960 -0.0032891 255 0 0
0.0292940 0.0712827 -0.0032719 255 0 0
-0.0459408 0.0729814 -0.0033068 255 0 0
-0.0442689 0.0729814 -0.0033069 255 0 0
-0.0425970 0.0729812 -0.0033070 255 0 0
-0.0409251 0.0729810 -0.0033071 255 0 0
-0.0392532 0.0729809 -0.0033071 255 0 0
-0.0375814 0.0729808 -0.0033072 255 0 0
-0.0359095 0.0729808 -0.0033072 255 0 0
-0.0342376 0.0729808 -0.0033072 255 0 0
-0.0325657 0.0729807 -0.0033072 255 0 0
-0.0308938 0.0729806 -0.0033072 255 0 0
-0.0292219 0.0729805 -0.0033071 255 0 0
-0.0275501 0.0729804 -0.0033071 255 0 0
-0.0258782 0.0729802 -0.0033070 255 0 0
-0.0242063 0.0729801 -0.0033070 255 0 0
-0.0225344 0.0729800 -0.0033069 255 0 0
-0.0208626 0.0729798 -0.0033068 255 0 0
-0.0191907 0.0729797 -0.0033067 255 0 0
-0.0175188 0.0729796 -0.0033067 255 0 0
-0.0158469 0.0729795 -0.0033066 255 0 0
-0.0141751 0.0729794 -0.0033066 255 0 0
-0.0125032 0.0729792 -0.0033065 255 0 0
-0.0108314 0.0729791 -0.0033064 255 0 0
-0.0091595 0.0729790 -0.0033064 255 0 0
-0.0074876 0.0729789 -0.0033063 255 0 0
-0.0058157 0.0729789 -0.0033062 255 0 0
-0.0041439 0.0729788 -0.0033062 255 0 0
-0.0024720 0.0729788 -0.0033061 255 0 0
-0.0008002 0.0729787 -0.0033061 255 0 0
0.0008717 0.0729787 -0.0033060 255 0 0
0.0025436 0.0729787 -0.0033060 255 0 0
0.0042155 0.0729787 -0.0033059 255 0 0
0.0058874 0.0729788 -0.0033059 255 0 0
0.0075592 0.0729787 -0.0033058 255 0 0
0.0092311 0.0729789 -0.0033057 255 0 0
0.0109030 0.0729789 -0.0033056 255 0 0
0.0125749 0.0729789 -0.0033054 255 0 0
0.0142467 0.0729789 -0.0033052 255 0 0
0.0159187 0.0729787 -0.0033049 255 0 0
0.0175905 0.0729785 -0.0033045 255 0 0
0.0192624 0.0729779 -0.0033036 255 0 0
0.0209343 0.0729776 -0.0033030 255 0 0
0.0226062 0.0729764 -0.0033015 255 0 0
0.0242782 0.0729745 -0.0032990 255 0 0
0.0259501 0.0729718 -0.0032957 255 0 0
0.0276220 0.0729699 -0.0032932 255 0 0
0.0292940 0.0729575 -0.0032774 255 0 0
-0.0459410 0.0746455 -0.0032971 255 0 0
-0.0442691 0.0746456 -0.0032971 255 0 0
-0.0425972 0.0746455 -0.0032971 255 0 0
-0.0409253 0.0746455 -0.0032971 255 0 0
-0.0392533 0.0746455 -0.0032972 255 0 0
-0.0375815 0.0746455 -0.0032973 255 0 0
-0.0359096 0.0746455 -0.0032974 255 0 0
-0.0342377 0.0746455 -0.0032976 255 0 0
-0.0325657 0.0746455 -0.0032977 255 0 0
-0.0308939 0.0746454 -0.0032977 255 0 0
-0.0292221 0.0746455 -0.0032981 255 0 0
-0.0275502 0.0746454 -0.0032983 255 0 0
-0.0258784 0.0746453 -0.0032983 255 0 0
-0.0242065 0.0746450 -0.0032980 255 0 0
-0.0225345 0.0746447 -0.0032978 255 0 0
-0.0208627 0.0746445 -0.0032976 255 0 0
-0.0191908 0.0746443 -0.0032976 255 0 0
-0.0175189 0.0746442 -0.0032975 255 0 0
-0.0158470 0.0746441 -0.0032975 255 0 0
-0.0141752 0.0746440 -0.0032975 255 0 0
-0.0125033 0.0746441 -0.0032979 255 0 0
-0.0108315 0.0746442 -0.0032981 255 0 0
-0.0091596 0.0746442 -0.0032983 255 0 0
-0.0074877 0.0746443 -0.0032984 255 0 0
-0.0058158 0.0746443 -0.0032985 255 0 0
-0.0041439 0.0746443 -0.0032985 255 0 0
-0.0024721 0.0746444 -0.0032985 255 0 0
-0.0008002 0.0746444 -0.0032985 255 0 0
0.0008717 0.0746444 -0.0032985 255 0 0
0.0025436 0.0746445 -0.0032984 255 0 0
0.0042154 0.0746445 -0.0032984 255 0 0
0.0058873 0.0746446 -0.0032984 255 0 0
0.0075592 0.0746447 -0.0032983 255 0 0
0.0092311 0.0746448 -0.0032982 255 0 0
0.0109030 0.0746449 -0.0032981 255 0 0
0.0125748 0.0746450 -0.0032979 255 0 0
0.0142467 0.0746451 -0.0032977 255 0 0
0.0159186 0.0746449 -0.0032974 255 0 0
0.0175905 0.0746447 -0.0032969 255 0 0
0.0192624 0.0746440 -0.0032960 255 0 0
0.0209343 0.0746437 -0.0032953 255 0 0
0.0226062 0.0746425 -0.0032937 255 0 0
0.0242782 0.0746402 -0.0032909 255 0 0
0.0259501 0.0746375 -0.0032873 255 0 0
0.0276221 0.0746349 -0.0032840 255 0 0
0.0292940 0.0746217 -0.0032670 255 0 0
-0.0459411 0.0763130 -0.0032912 255 0 0
-0.0442692 0.0763130 -0.0032912 255 0 0
-0.0425973 0.0763129 -0.0032912 255 0 0
-0.0409253 0.0763129 -0.0032912 255 0 0
-0.0392533 0.0763129 -0.0032914 255 0 0
-0.0375814 0.0763128 -0.0032915 255 0 0
-0.0359096 0.0763128 -0.0032917 255 0 0
-0.0342377 0.0763128 -0.0032920 255 0 0
-0.0325657 0.0763128 -0.0032922 255 0 0
-0.0308939 0.0763128 -0.0032923 255 0 0
-0.0292220 0.0763130 -0.0032929 255 0 0
-0.0275502 0.0763130 -0.0032932 255 0 0
-0.0258783 0.0763128 -0.0032932 255 0 0
-0.0242064 0.0763124 -0.0032928 255 0 0
-0.0225345 0.0763120 -0.0032925 255 0 0
-0.0208627 0.0763118 -0.0032924 255 0 0
-0.0191908 0.0763116 -0.0032923 255 0 0
-0.0175189 0.0763115 -0.0032923 255 0 0
-0.0158470 0.0763114 -0.0032923 255 0 0
-0.0141752 0.0763113 -0.0032924 255 0 0
-0.0125033 0.0763116 -0.0032930 255 0 0
-0.0108315 0.0763118 -0.0032934 255 0 0
-0.0091596 0.0763119 -0.0032938 255 0 0
-0.0074877 0.0763121 -0.0032940 255 0 0
-0.0058158 0.0763122 -0.0032941 255 0 0
-0.0041440 0.0763122 -0.0032942 255 0 0
-0.0024721 0.0763122 -0.0032943 255 0 0
-0.0008002 0.0763123 -0.0032943 255 0 0
0.0008717 0.0763123 -0.0032943 255 0 0
0.0025436 0.0763124 -0.0032943 255 0 0
0.0042154 0.0763126 -0.0032943 255 0 0
0.0058873 0.0763127 -0.0032942 255 0 0
0.0075592 0.0763129 -0.0032941 255 0 0
0.0092311 0.0763131 -0.0032941 255 0 0
0.0109030 0.0763131 -0.0032939 255 0 0
0.0125749 0.0763133 -0.0032938 255 0 0
0.0142467 0.0763133 -0.0032935 255 0 0
0.0159186 0.0763132 -0.0032932 255 0 0
0.0175905 0.0763129 -0.0032928 255 0 0
0.0192624 0.0763121 -0.0032917 255 0 0
0.0209343 0.0763117 -0.0032910 255 0 0
0.0226062 0.0763103 -0.0032893 255 0 0
0.0242781 0.0763081 -0.0032863 255 0 0
0.0259501 0.0763051 -0.0032823 255 0 0
0.0276222 0.0763025 -0.0032787 255 0 0
0.0292941 0.0762881 -0.0032602 255 0 0
-0.0459413 0.0779810 -0.0032861 255 0 0
-0.0442693 0.0779813 -0.0032868 255 0 0
-0.0425974 0.0779816 -0.0032873 255 0 0
-0.0409253 0.0779816 -0.0032876 255 0 0
-0.0392534 0.0779816 -0.0032879 255 0 0
-0.0375815 0.0779815 -0.0032881 255 0 0
-0.0359096 0.0779813 -0.0032884 255 0 0
-0.0342377 0.0779812 -0.0032887 255 0 0
-0.0325658 0.0779813 -0.0032890 255 0 0
-0.0308939 0.0779812 -0.0032891 255 0 0
-0.0292220 0.0779815 -0.0032899 255 0 0
-0.0275501 0.0779815 -0.0032903 255 0 0
-0.0258783 0.0779814 -0.0032903 255 0 0
-0.0242064 0.0779810 -0.0032899 255 0 0
-0.0225345 0.0779806 -0.0032895 255 0 0
-0.0208627 0.0779804 -0.0032894 255 0 0
-0.0191908 0.0779802 -0.0032894 255 0 0
-0.0175189 0.0779801 -0.0032895 255 0 0
-0.0158470 0.0779800 -0.0032895 255 0 0
-0.0141752 0.0779799 -0.0032896 255 0 0
-0.0125034 0.0779803 -0.0032903 255 0 0
-0.0108315 0.0779805 -0.0032909 255 0 0
-0.0091596 0.0779807 -0.0032913 255 0 0
-0.0074877 0.0779808 -0.0032916 255 0 0
-0.0058158 0.0779810 -0.0032918 255 0 0
-0.0041440 0.0779810 -0.0032919 255 0 0
-0.0024721 0.0779811 -0.0032920 255 0 0
-0.0008003 0.0779812 -0.0032920 255 0 0
0.0008717 0.0779812 -0.0032920 255 0 0
0.0025436 0.0779813 -0.0032920 255 0 0
0.0042154 0.0779815 -0.0032920 255 0 0
0.0058873 0.0779817 -0.0032920 255 0 0
0.0075592 0.0779818 -0.0032919 255 0 0
0.0092311 0.0779820 -0.0032918 255 0 0
0.0109030 0.0779821 -0.0032917 255 0 0
0.0125748 0.0779823 -0.0032915 255 0 0
0.0142467 0.0779823 -0.0032913 255 0 0
0.0159186 0.0779820 -0.0032909 255 0 0
0.0175905 0.0779818 -0.0032904 255 0 0
0.0192624 0.0779810 -0.0032893 255 0 0
0.0209343 0.0779804 -0.0032885 255 0 0
0.0226062 0.0779791 -0.0032867 255 0 0
0.0242781 0.0779766 -0.0032834 255 0 0
0.0259501 0.0779733 -0.0032791 255 0 0
0.0276222 0.0779704 -0.0032753 255 0 0
0.0292942 0.0779544 -0.0032544 255 0 0
-0.0459412 0.0796553 -0.0032903 255 0 0
-0.0442693 0.0796555 -0.0032906 255 0 0
-0.0425973 0.0796553 -0.0032909 255 0 0
-0.0409253 0.0796552 -0.0032913 255 0 0
-0.0392533 0.0796552 -0.0032917 255 0 0
-0.0375815 0.0796552 -0.0032919 255 0 0
-0.0359096 0.0796552 -0.0032922 255 0 0
-0.0342377 0.0796552 -0.0032925 255 0 0
-0.0325658 0.0796553 -0.0032928 255 0 0
-0.0308939 0.0796552 -0.0032929 255 0 0
-0.0292221 0.0796554 -0.0032936 255 0 0
-0.0275502 0.0796553 -0.0032939 255 0 0
-0.0258783 0.0796552 -0.0032939 255 0 0
-0.0242064 0.0796549 -0.0032935 255 0 0
-0.0225345 0.0796545 -0.0032932 255 0 0
-0.0208626 0.0796542 -0.0032932 255 0 0
-0.0191908 0.0796540 -0.0032932 255 0 0
-0.0175189 0.0796539 -0.0032933 255 0 0
-0.0158470 0.0796538 -0.0032934 255 0 0
-0.0141752 0.0796538 -0.0032936 255 0 0
-0.0125033 0.0796541 -0.0032942 255 0 0
-0.0108315 0.0796544 -0.0032947 255 0 0
-0.0091596 0.0796544 -0.0032951 255 0 0
-0.0074877 0.0796545 -0.0032953 255 0 0
-0.0058158 0.0796546 -0.0032954 255 0 0
-0.0041440 0.0796546 -0.0032955 255 0 0
-0.0024721 0.0796546 -0.0032956 255 0 0
-0.0008002 0.0796547 -0.0032957 255 0 0
0.0008717 0.0796548 -0.0032957 255 0 0
0.0025436 0.0796549 -0.0032957 255 0 0
0.0042154 0.0796550 -0.0032957 255 0 0
0.0058873 0.0796552 -0.0032957 255 0 0
0.0075592 0.0796554 -0.0032956 255 0 0
0.0092311 0.0796556 -0.0032955 255 0 0
0.0109030 0.0796557 -0.0032954 255 0 0
0.0125748 0.0796559 -0.0032952 255 0 0
0.0142467 0.0796560 -0.0032950 255 0 0
0.0159186 0.0796558 -0.0032946 255 0 0
0.0175905 0.0796554 -0.0032941 255 0 0
0.0192624 0.0796545 -0.0032930 255 0 0
0.0209343 0.0796540 -0.0032922 255 0 0
0.0226062 0.0796525 -0.0032903 255 0 0
0.0242781 0.0796500 -0.0032869 255 0 0
0.0259502 0.0796466 -0.0032827 255 0 0
0.0276222 0.0796440 -0.0032792 255 0 0
0.0292942 0.0796269 -0.0032570 255 0 0
-0.0459411 0.0813353 -0.0033021 255 0 0
-0.0442693 0.0813322 -0.0032983 255 0 0
-0.0425972 0.0813303 -0.0032961 255 0 0
-0.0409252 0.0813301 -0.0032963 255 0 0
-0.0392533 0.0813299 -0.0032965 255 0 0
-0.0375814 0.0813297 -0.0032968 255 0 0
-0.0359095 0.0813296 -0.0032971 255 0 0
-0.0342376 0.0813293 -0.0032973 255 0 0
-0.0325657 0.0813294 -0.0032976 255 0 0
-0.0308939 0.0813293 -0.0032978 255 0 0
-0.0292220 0.0813294 -0.0032983 255 0 0
-0.0275501 0.0813294 -0.0032986 255 0 0
-0.0258783 0.0813291 -0.0032987 255 0 0
-0.0242063 0.0813289 -0.0032983 255 0 0
-0.0225344 0.0813286 -0.0032981 255 0 0
-0.0208626 0.0813282 -0.0032980 255 0 0
-0.0191908 0.0813280 -0.0032979 255 0 0
-0.0175189 0.0813279 -0.0032980 255 0 0
-0.0158469 0.0813279 -0.0032982 255 0 0
-0.0141751 0.0813278 -0.0032984 255 0 0
-0.0125033 0.0813281 -0.0032990 255 0 0
-0.0108314 0.0813282 -0.0032995 255 0 0
-0.0091596 0.0813283 -0.0032998 255 0 0
-0.0074876 0.0813282 -0.0033000 255 0 0
-0.0058157 0.0813282 -0.0033001 255 0 0
-0.0041439 0.0813283 -0.0033002 255 0 0
-0.0024721 0.0813283 -0.0033003 255 0 0
-0.0008002 0.0813284 -0.0033004 255 0 0
0.0008717 0.0813284 -0.0033004 255 0 0
