ply
format ascii 1.0
element vertex 1237
property float x
property float y
property float z
property uchar red
property uchar green
property uchar blue
end_header
-0.0074869 0.1114907 0.0017204 255 0 0
-0.0158469 0.0328426 0.0033400 255 0 0
-0.0141750 0.0328435 0.0033397 255 0 0
-0.0125031 0.0328443 0.0033396 255 0 0
-0.0108312 0.0328449 0.0033396 255 0 0
-0.0091593 0.0328454 0.0033396 255 0 0
-0.0074876 0.0328454 0.0033396 255 0 0
-0.0058157 0.0328455 0.0033395 255 0 0
-0.0225343 0.0345126 0.0033395 255 0 0
-0.0208624 0.0345131 0.0033399 255 0 0
-0.0191906 0.0345135 0.0033402 255 0 0
-0.0175187 0.0345142 0.0033405 255 0 0
-0.0158469 0.0345150 0.0033403 255 0 0
-0.0141749 0.0345157 0.0033402 255 0 0
-0.0125030 0.0345166 0.0033401 255 0 0
-0.0108312 0.0345172 0.0033401 255 0 0
-0.0091593 0.0345176 0.0033401 255 0 0
-0.0074876 0.0345179 0.0033402 255 0 0
-0.0058157 0.0345180 0.0033402 255 0 0
-0.0041438 0.0345180 0.0033403 255 0 0
-0.0024720 0.0345183 0.0033404 255 0 0
-0.0007999 0.0345187 0.0033404 255 0 0
0.0008721 0.0345191 0.0033402 255 0 0
-0.0258780 0.0361841 0.0033392 255 0 0
-0.0242061 0.0361845 0.0033394 255 0 0
-0.0225343 0.0361851 0.0033396 255 0 0
-0.0208624 0.0361854 0.0033401 255 0 0
-0.0191906 0.0361860 0.0033403 255 0 0
-0.0175187 0.0361868 0.0033403 255 0 0
-0.0158469 0.0361875 0.0033402 255 0 0
-0.0141749 0.0361880 0.0033402 255 0 0
-0.0125030 0.0361888 0.0033402 255 0 0
-0.0108312 0.0361895 0.0033402 255 0 0
-0.0091593 0.0361899 0.0033402 255 0 0
-0.0074875 0.0361901 0.0033403 255 0 0
-0.0058157 0.0361903 0.0033403 255 0 0
-0.0041438 0.0361907 0.0033404 255 0 0
-0.0024720 0.0361908 0.0033405 255 0 0
-0.0008000 0.0361912 0.0033405 255 0 0
0.0008720 0.0361915 0.0033404 255 0 0
0.0025441 0.0361917 0.0033404 255 0 0
0.0042156 0.0361924 0.0033400 255 0 0
-0.0292218 0.0378562 0.0033389 255 0 0
-0.0275499 0.0378563 0.0033391 255 0 0
-0.0258780 0.0378568 0.0033393 255 0 0
-0.0242062 0.0378572 0.0033397 255 0 0
-0.0225343 0.0378575 0.0033399 255 0 0
-0.0208624 0.0378582 0.0033400 255 0 0
-0.0191906 0.0378588 0.0033401 255 0 0
-0.0175187 0.0378594 0.0033402 255 0 0
-0.0158468 0.0378599 0.0033401 255 0 0
-0.0141749 0.0378605 0.0033401 255 0 0
-0.0125030 0.0378616 0.0033401 255 0 0
-0.0108312 0.0378623 0.0033401 255 0 0
-0.0091593 0.0378628 0.0033401 255 0 0
-0.0074875 0.0378632 0.0033402 255 0 0
-0.0058156 0.0378636 0.0033403 255 0 0
-0.0041438 0.0378637 0.0033404 255 0 0
-0.0024719 0.0378638 0.0033405 255 0 0
-0.0008000 0.0378641 0.0033405 255 0 0
0.0008720 0.0378643 0.0033404 255 0 0
0.0025441 0.0378646 0.0033404 255 0 0
0.0042156 0.0378648 0.0033402 255 0 0
0.0058875 0.0378652 0.0033401 255 0 0
0.0075603 0.0378656 0.0033402 255 0 0
-0.0308936 0.0395284 0.0033388 255 0 0
-0.0292218 0.0395287 0.0033390 255 0 0
-0.0275499 0.0395291 0.0033394 255 0 0
-0.0258780 0.0395296 0.0033395 255 0 0
-0.0242062 0.0395298 0.0033397 255 0 0
-0.0225343 0.0395301 0.0033398 255 0 0
-0.0208624 0.0395307 0.0033399 255 0 0
-0.0191905 0.0395314 0.0033399 255 0 0
-0.0175187 0.0395319 0.0033400 255 0 0
-0.0158468 0.0395326 0.0033400 255 0 0
-0.0141749 0.0395333 0.0033400 255 0 0
-0.0125030 0.0395343 0.0033400 255 0 0
-0.0108311 0.0395351 0.0033400 255 0 0
-0.0091593 0.0395358 0.0033401 255 0 0
-0.0074875 0.0395361 0.0033401 255 0 0
-0.0058156 0.0395365 0.0033402 255 0 0
-0.0041438 0.0395367 0.0033403 255 0 0
-0.0024719 0.0395368 0.0033404 255 0 0
-0.0008000 0.0395368 0.0033404 255 0 0
0.0008719 0.0395369 0.0033404 255 0 0
0.0025441 0.0395371 0.0033405 255 0 0
0.0042156 0.0395372 0.0033403 255 0 0
0.0058875 0.0395376 0.0033403 255 0 0
0.0075594 0.0395379 0.0033403 255 0 0
0.0092312 0.0395382 0.0033407 255 0 0
-0.0342369 0.0412001 0.0033383 255 0 0
-0.0325651 0.0412005 0.0033386 255 0 0
-0.0308937 0.0412010 0.0033391 255 0 0
-0.0292218 0.0412013 0.0033392 255 0 0
-0.0275499 0.0412016 0.0033393 255 0 0
-0.0258780 0.0412018 0.0033394 255 0 0
-0.0242062 0.0412023 0.0033395 255 0 0
-0.0225343 0.0412026 0.0033396 255 0 0
-0.0208625 0.0412032 0.0033397 255 0 0
-0.0191906 0.0412038 0.0033397 255 0 0
-0.0175187 0.0412044 0.0033398 255 0 0
-0.0158468 0.0412052 0.0033398 255 0 0
-0.0141749 0.0412059 0.0033398 255 0 0
-0.0125030 0.0412070 0.0033398 255 0 0
-0.0108311 0.0412078 0.0033399 255 0 0
-0.0091593 0.0412085 0.0033399 255 0 0
-0.0074875 0.0412090 0.0033400 255 0 0
-0.0058156 0.0412094 0.0033400 255 0 0
-0.0041438 0.0412095 0.0033401 255 0 0
-0.0024719 0.0412097 0.0033402 255 0 0
-0.0007999 0.0412097 0.0033403 255 0 0
0.0008719 0.0412098 0.0033403 255 0 0
0.0025437 0.0412098 0.0033404 255 0 0
0.0042156 0.0412098 0.0033404 255 0 0
0.0058875 0.0412099 0.0033404 255 0 0
0.0075593 0.0412101 0.0033404 255 0 0
0.0092313 0.0412107 0.0033408 255 0 0
0.0109031 0.0412111 0.0033407 255 0 0
-0.0359088 0.0428720 0.0033382 255 0 0
-0.0342369 0.0428726 0.0033384 255 0 0
-0.0325651 0.0428733 0.0033389 255 0 0
-0.0308937 0.0428734 0.0033391 255 0 0
-0.0292218 0.0428738 0.0033391 255 0 0
-0.0275499 0.0428739 0.0033392 255 0 0
-0.0258780 0.0428741 0.0033393 255 0 0
-0.0242062 0.0428744 0.0033394 255 0 0
-0.0225343 0.0428749 0.0033394 255 0 0
-0.0208624 0.0428753 0.0033395 255 0 0
-0.0191906 0.0428759 0.0033395 255 0 0
-0.0175187 0.0428766 0.0033396 255 0 0
-0.0158468 0.0428775 0.0033396 255 0 0
-0.0141749 0.0428782 0.0033396 255 0 0
-0.0125030 0.0428794 0.0033396 255 0 0
-0.0108311 0.0428804 0.0033397 255 0 0
-0.0091593 0.0428811 0.0033397 255 0 0
-0.0074875 0.0428816 0.0033398 255 0 0
-0.0058156 0.0428819 0.0033398 255 0 0
-0.0041438 0.0428821 0.0033399 255 0 0
-0.0024719 0.0428823 0.0033400 255 0 0
-0.0008000 0.0428822 0.0033401 255 0 0
0.0008719 0.0428823 0.0033402 255 0 0
0.0025437 0.0428824 0.0033402 255 0 0
0.0042156 0.0428823 0.0033403 255 0 0
0.0058875 0.0428826 0.0033403 255 0 0
0.0075593 0.0428829 0.0033404 255 0 0
0.0092313 0.0428830 0.0033407 255 0 0
0.0109031 0.0428835 0.0033407 255 0 0
0.0125750 0.0428833 0.0033410 255 0 0
-0.0359088 0.0445443 0.0033387 255 0 0
-0.0342369 0.0445450 0.0033389 255 0 0
-0.0325651 0.0445453 0.0033390 255 0 0
-0.0308937 0.0445456 0.0033391 255 0 0
-0.0292218 0.0445461 0.0033392 255 0 0
-0.0275499 0.0445462 0.0033392 255 0 0
-0.0258780 0.0445464 0.0033393 255 0 0
-0.0242061 0.0445467 0.0033393 255 0 0
-0.0225343 0.0445470 0.0033393 255 0 0
-0.0208624 0.0445476 0.0033394 255 0 0
-0.0191905 0.0445483 0.0033394 255 0 0
-0.0175187 0.0445492 0.0033395 255 0 0
-0.0158468 0.0445500 0.0033395 255 0 0
-0.0141749 0.0445508 0.0033395 255 0 0
-0.0125030 0.0445520 0.0033396 255 0 0
-0.0108311 0.0445531 0.0033396 255 0 0
-0.0091593 0.0445539 0.0033396 255 0 0
-0.0074875 0.0445545 0.0033397 255 0 0
-0.0058156 0.0445549 0.0033397 255 0 0
-0.0041438 0.0445551 0.0033398 255 0 0
-0.0024719 0.0445551 0.0033399 255 0 0
-0.0008000 0.0445551 0.0033400 255 0 0
0.0008719 0.0445550 0.0033401 255 0 0
0.0025437 0.0445550 0.0033401 255 0 0
0.0042156 0.0445550 0.0033402 255 0 0
0.0058875 0.0445549 0.0033403 255 0 0
0.0075594 0.0445550 0.0033404 255 0 0
0.0092313 0.0445552 0.0033406 255 0 0
0.0109031 0.0445555 0.0033408 255 0 0
0.0125750 0.0445557 0.0033408 255 0 0
0.0142469 0.0445559 0.0033408 255 0 0
-0.0375807 0.0462166 0.0033385 255 0 0
-0.0359088 0.0462174 0.0033386 255 0 0
-0.0342369 0.0462179 0.0033388 255 0 0
-0.0325651 0.0462178 0.0033388 255 0 0
-0.0308936 0.0462180 0.0033389 255 0 0
-0.0292218 0.0462180 0.0033389 255 0 0
-0.0275499 0.0462182 0.0033389 255 0 0
-0.0258780 0.0462184 0.0033390 255 0 0
-0.0242062 0.0462187 0.0033390 255 0 0
-0.0225343 0.0462190 0.0033390 255 0 0
-0.0208624 0.0462194 0.0033391 255 0 0
-0.0191905 0.0462201 0.0033391 255 0 0
-0.0175186 0.0462209 0.0033391 255 0 0
-0.0158468 0.0462218 0.0033392 255 0 0
-0.0141749 0.0462226 0.0033392 255 0 0
-0.0125030 0.0462240 0.0033392 255 0 0
-0.0108312 0.0462251 0.0033393 255 0 0
-0.0091593 0.0462260 0.0033393 255 0 0
-0.0074875 0.0462265 0.0033393 255 0 0
-0.0058156 0.0462270 0.0033394 255 0 0
-0.0041437 0.0462272 0.0033395 255 0 0
-0.0024719 0.0462274 0.0033395 255 0 0
-0.0008000 0.0462274 0.0033396 255 0 0
0.0008720 0.0462272 0.0033397 255 0 0
0.0025437 0.0462272 0.0033397 255 0 0
0.0042156 0.0462269 0.0033398 255 0 0
0.0058875 0.0462268 0.0033399 255 0 0
0.0075594 0.0462270 0.0033400 255 0 0
0.0092313 0.0462273 0.0033400 255 0 0
0.0109031 0.0462277 0.0033402 255 0 0
0.0125750 0.0462282 0.0033404 255 0 0
0.0142469 0.0462280 0.0033404 255 0 0
0.0159189 0.0462284 0.0033406 255 0 0
-0.0392525 0.0478886 0.0033378 255 0 0
-0.0375807 0.0478894 0.0033379 255 0 0
-0.0359088 0.0478901 0.0033379 255 0 0
-0.0342369 0.0478904 0.0033379 255 0 0
-0.0325651 0.0478907 0.0033380 255 0 0
-0.0308936 0.0478908 0.0033380 255 0 0
-0.0292217 0.0478907 0.0033380 255 0 0
-0.0275499 0.0478910 0.0033380 255 0 0
-0.0258780 0.0478913 0.0033381 255 0 0
-0.0242061 0.0478914 0.0033381 255 0 0
-0.0225343 0.0478917 0.0033381 255 0 0
-0.0208624 0.0478923 0.0033381 255 0 0
-0.0191905 0.0478930 0.0033382 255 0 0
-0.0175186 0.0478937 0.0033382 255 0 0
-0.0158468 0.0478946 0.0033383 255 0 0
-0.0141749 0.0478955 0.0033383 255 0 0
-0.0125030 0.0478969 0.0033383 255 0 0
-0.0108311 0.0478979 0.0033384 255 0 0
-0.0091593 0.0478988 0.0033384 255 0 0
-0.0074875 0.0478993 0.0033384 255 0 0
-0.0058156 0.0478998 0.0033384 255 0 0
-0.0041438 0.0479000 0.0033385 255 0 0
-0.0024719 0.0479001 0.0033385 255 0 0
-0.0008000 0.0479001 0.0033386 255 0 0
0.0008719 0.0479001 0.0033387 255 0 0
0.0025437 0.0479001 0.0033387 255 0 0
0.0042157 0.0478998 0.0033388 255 0 0
0.0058875 0.0478997 0.0033389 255 0 0
0.0075594 0.0478998 0.0033390 255 0 0
0.0092313 0.0479001 0.0033390 255 0 0
0.0109031 0.0479001 0.0033391 255 0 0
0.0125750 0.0479004 0.0033391 255 0 0
0.0142469 0.0479005 0.0033392 255 0 0
0.0159189 0.0479005 0.0033398 255 0 0
0.0175907 0.0479005 0.0033402 255 0 0
-0.0409244 0.0495612 0.0033384 255 0 0
-0.0392525 0.0495611 0.0033388 255 0 0
-0.0375807 0.0495613 0.0033390 255 0 0
-0.0359088 0.0495615 0.0033393 255 0 0
-0.0342369 0.0495619 0.0033394 255 0 0
-0.0325651 0.0495620 0.0033394 255 0 0
-0.0308936 0.0495622 0.0033395 255 0 0
-0.0292218 0.0495621 0.0033395 255 0 0
-0.0275499 0.0495625 0.0033395 255 0 0
-0.0258780 0.0495627 0.0033396 255 0 0
-0.0242061 0.0495628 0.0033396 255 0 0
-0.0225343 0.0495631 0.0033396 255 0 0
-0.0208624 0.0495637 0.0033397 255 0 0
-0.0191905 0.0495644 0.0033397 255 0 0
-0.0175186 0.0495652 0.0033397 255 0 0
-0.0158468 0.0495662 0.0033398 255 0 0
-0.0141749 0.0495670 0.0033398 255 0 0
-0.0125030 0.0495684 0.0033399 255 0 0
-0.0108311 0.0495695 0.0033399 255 0 0
-0.0091593 0.0495704 0.0033399 255 0 0
-0.0074875 0.0495709 0.0033399 255 0 0
-0.0058156 0.0495715 0.0033399 255 0 0
-0.0041438 0.0495717 0.0033400 255 0 0
-0.0024719 0.0495718 0.0033400 255 0 0
-0.0008000 0.0495718 0.0033401 255 0 0
0.0008719 0.0495717 0.0033401 255 0 0
0.0025437 0.0495717 0.0033402 255 0 0
0.0042156 0.0495716 0.0033402 255 0 0
0.0058875 0.0495715 0.0033403 255 0 0
0.0075594 0.0495714 0.0033403 255 0 0
0.0092312 0.0495715 0.0033403 255 0 0
0.0109031 0.0495714 0.0033406 255 0 0
0.0125750 0.0495718 0.0033405 255 0 0
0.0142469 0.0495720 0.0033405 255 0 0
0.0159189 0.0495720 0.0033405 255 0 0
0.0175907 0.0495722 0.0033406 255 0 0
0.0192626 0.0495726 0.0033406 255 0 0
-0.0425962 0.0512340 0.0033378 255 0 0
-0.0409244 0.0512336 0.0033385 255 0 0
-0.0392525 0.0512334 0.0033390 255 0 0
-0.0375807 0.0512337 0.0033394 255 0 0
-0.0359088 0.0512339 0.0033397 255 0 0
-0.0342369 0.0512341 0.0033399 255 0 0
-0.0325651 0.0512341 0.0033399 255 0 0
-0.0308936 0.0512343 0.0033400 255 0 0
-0.0292218 0.0512343 0.0033401 255 0 0
-0.0275499 0.0512344 0.0033401 255 0 0
-0.0258780 0.0512346 0.0033402 255 0 0
-0.0242062 0.0512349 0.0033402 255 0 0
-0.0225343 0.0512352 0.0033402 255 0 0
-0.0208624 0.0512357 0.0033403 255 0 0
-0.0191905 0.0512364 0.0033403 255 0 0
-0.0175186 0.0512372 0.0033404 255 0 0
-0.0158468 0.0512381 0.0033404 255 0 0
-0.0141749 0.0512389 0.0033404 255 0 0
-0.0125030 0.0512403 0.0033406 255 0 0
-0.0108312 0.0512413 0.0033406 255 0 0
-0.0091593 0.0512421 0.0033406 255 0 0
-0.0074875 0.0512427 0.0033406 255 0 0
-0.0058156 0.0512431 0.0033406 255 0 0
-0.0041438 0.0512433 0.0033407 255 0 0
-0.0024719 0.0512435 0.0033408 255 0 0
-0.0008000 0.0512435 0.0033408 255 0 0
0.0008718 0.0512434 0.0033409 255 0 0
0.0025437 0.0512434 0.0033409 255 0 0
0.0042156 0.0512432 0.0033409 255 0 0
0.0058875 0.0512430 0.0033410 255 0 0
0.0075594 0.0512429 0.0033409 255 0 0
0.0092313 0.0512431 0.0033409 255 0 0
0.0109031 0.0512432 0.0033409 255 0 0
0.0125750 0.0512435 0.0033408 255 0 0
0.0142469 0.0512436 0.0033407 255 0 0
0.0159189 0.0512438 0.0033406 255 0 0
0.0175908 0.0512442 0.0033405 255 0 0
0.0192626 0.0512444 0.0033404 255 0 0
-0.0425962 0.0529068 0.0033375 255 0 0
-0.0409244 0.0529063 0.0033382 255 0 0
-0.0392525 0.0529060 0.0033388 255 0 0
-0.0375807 0.0529062 0.0033392 255 0 0
-0.0359088 0.0529062 0.0033395 255 0 0
-0.0342369 0.0529064 0.0033398 255 0 0
-0.0325651 0.0529065 0.0033398 255 0 0
-0.0308936 0.0529065 0.0033399 255 0 0
-0.0292217 0.0529066 0.0033401 255 0 0
-0.0275498 0.0529067 0.0033402 255 0 0
-0.0258780 0.0529069 0.0033402 255 0 0
-0.0242061 0.0529070 0.0033404 255 0 0
-0.0225342 0.0529072 0.0033404 255 0 0
-0.0208624 0.0529078 0.0033404 255 0 0
-0.0191905 0.0529084 0.0033405 255 0 0
-0.0175186 0.0529092 0.0033405 255 0 0
-0.0158468 0.0529102 0.0033406 255 0 0
-0.0141749 0.0529110 0.0033406 255 0 0
-0.0125030 0.0529124 0.0033406 255 0 0
-0.0108311 0.0529136 0.0033407 255 0 0
-0.0091593 0.0529144 0.0033407 255 0 0
-0.0074875 0.0529150 0.0033407 255 0 0
-0.0058156 0.0529154 0.0033407 255 0 0
-0.0041438 0.0529155 0.0033407 255 0 0
-0.0024719 0.0529157 0.0033407 255 0 0
-0.0008000 0.0529157 0.0033408 255 0 0
0.0008718 0.0529156 0.0033408 255 0 0
0.0025437 0.0529156 0.0033408 255 0 0
0.0042156 0.0529155 0.0033408 255 0 0
0.0058875 0.0529154 0.0033408 255 0 0
0.0075593 0.0529154 0.0033408 255 0 0
0.0092313 0.0529155 0.0033407 255 0 0
0.0109031 0.0529156 0.0033406 255 0 0
0.0125750 0.0529157 0.0033405 255 0 0
0.0142469 0.0529157 0.0033404 255 0 0
0.0159189 0.0529158 0.0033403 255 0 0
0.0175908 0.0529161 0.0033401 255 0 0
0.0192626 0.0529163 0.0033400 255 0 0
0.0209346 0.0529169 0.0033407 255 0 0
-0.0442681 0.0545808 0.0033364 255 0 0
-0.0425962 0.0545805 0.0033367 255 0 0
-0.0409244 0.0545801 0.0033371 255 0 0
-0.0392525 0.0545798 0.0033374 255 0 0
-0.0375807 0.0545800 0.0033377 255 0 0
-0.0359088 0.0545801 0.0033378 255 0 0
-0.0342369 0.0545800 0.0033380 255 0 0
-0.0325651 0.0545801 0.0033380 255 0 0
-0.0308936 0.0545801 0.0033381 255 0 0
-0.0292217 0.0545802 0.0033382 255 0 0
-0.0275498 0.0545803 0.0033382 255 0 0
-0.0258779 0.0545805 0.0033383 255 0 0
-0.0242061 0.0545806 0.0033383 255 0 0
-0.0225342 0.0545809 0.0033384 255 0 0
-0.0208623 0.0545814 0.0033384 255 0 0
-0.0191905 0.0545819 0.0033385 255 0 0
-0.0175186 0.0545827 0.0033385 255 0 0
-0.0158467 0.0545836 0.0033386 255 0 0
-0.0141748 0.0545844 0.0033386 255 0 0
-0.0125030 0.0545858 0.0033386 255 0 0
-0.0108311 0.0545869 0.0033387 255 0 0
-0.0091593 0.0545878 0.0033387 255 0 0
-0.0074875 0.0545884 0.0033387 255 0 0
-0.0058156 0.0545887 0.0033387 255 0 0
-0.0041437 0.0545890 0.0033388 255 0 0
-0.0024719 0.0545892 0.0033388 255 0 0
-0.0008000 0.0545892 0.0033388 255 0 0
0.0008719 0.0545891 0.0033389 255 0 0
0.0025438 0.0545891 0.0033390 255 0 0
0.0042156 0.0545889 0.0033390 255 0 0
0.0058875 0.0545888 0.0033390 255 0 0
0.0075594 0.0545887 0.0033390 255 0 0
0.0092313 0.0545886 0.0033390 255 0 0
0.0109032 0.0545886 0.0033390 255 0 0
0.0125750 0.0545884 0.0033389 255 0 0
0.0142469 0.0545883 0.0033389 255 0 0
0.0159190 0.0545884 0.0033388 255 0 0
0.0175908 0.0545885 0.0033388 255 0 0
0.0192627 0.0545888 0.0033389 255 0 0
0.0209346 0.0545895 0.0033395 255 0 0
0.0226065 0.0545898 0.0033400 255 0 0
-0.0442681 0.0562549 0.0033356 255 0 0
-0.0425962 0.0562547 0.0033355 255 0 0
-0.0409244 0.0562546 0.0033356 255 0 0
-0.0392525 0.0562543 0.0033356 255 0 0
-0.0375807 0.0562545 0.0033356 255 0 0
-0.0359088 0.0562548 0.0033357 255 0 0
-0.0342369 0.0562550 0.0033357 255 0 0
-0.0325651 0.0562550 0.0033358 255 0 0
-0.0308936 0.0562550 0.0033358 255 0 0
-0.0292217 0.0562549 0.0033359 255 0 0
-0.0275498 0.0562549 0.0033360 255 0 0
-0.0258779 0.0562549 0.0033361 255 0 0
-0.0242060 0.0562550 0.0033361 255 0 0
-0.0225341 0.0562552 0.0033362 255 0 0
-0.0208623 0.0562556 0.0033362 255 0 0
-0.0191904 0.0562561 0.0033363 255 0 0
-0.0175185 0.0562567 0.0033363 255 0 0
-0.0158467 0.0562575 0.0033364 255 0 0
-0.0141748 0.0562583 0.0033364 255 0 0
-0.0125030 0.0562596 0.0033365 255 0 0
-0.0108311 0.0562608 0.0033365 255 0 0
-0.0091593 0.0562616 0.0033365 255 0 0
-0.0074875 0.0562621 0.0033365 255 0 0
-0.0058156 0.0562626 0.0033365 255 0 0
-0.0041437 0.0562628 0.0033366 255 0 0
-0.0024719 0.0562630 0.0033366 255 0 0
-0.0008000 0.0562630 0.0033366 255 0 0
0.0008719 0.0562630 0.0033366 255 0 0
0.0025438 0.0562629 0.0033366 255 0 0
0.0042157 0.0562628 0.0033366 255 0 0
0.0058876 0.0562626 0.0033366 255 0 0
0.0075594 0.0562625 0.0033366 255 0 0
0.0092313 0.0562625 0.0033367 255 0 0
0.0109031 0.0562623 0.0033367 255 0 0
0.0125750 0.0562620 0.0033367 255 0 0
0.0142469 0.0562618 0.0033369 255 0 0
0.0159190 0.0562618 0.0033370 255 0 0
0.0175908 0.0562617 0.0033372 255 0 0
0.0192627 0.0562619 0.0033375 255 0 0
0.0209346 0.0562629 0.0033379 255 0 0
0.0226065 0.0562631 0.0033387 255 0 0
-0.0442681 0.0579273 0.0033350 255 0 0
-0.0425962 0.0579267 0.0033351 255 0 0
-0.0409244 0.0579266 0.0033353 255 0 0
-0.0392525 0.0579261 0.0033355 255 0 0
-0.0375807 0.0579260 0.0033357 255 0 0
-0.0359088 0.0579261 0.0033358 255 0 0
-0.0342369 0.0579260 0.0033359 255 0 0
-0.0325651 0.0579260 0.0033359 255 0 0
-0.0308936 0.0579260 0.0033360 255 0 0
-0.0292217 0.0579260 0.0033361 255 0 0
-0.0275498 0.0579260 0.0033362 255 0 0
-0.0258780 0.0579261 0.0033362 255 0 0
-0.0242061 0.0579262 0.0033363 255 0 0
-0.0225342 0.0579264 0.0033363 255 0 0
-0.0208623 0.0579268 0.0033364 255 0 0
-0.0191905 0.0579273 0.0033365 255 0 0
-0.0175186 0.0579280 0.0033365 255 0 0
-0.0158467 0.0579288 0.0033365 255 0 0
-0.0141749 0.0579295 0.0033366 255 0 0
-0.0125030 0.0579308 0.0033366 255 0 0
-0.0108311 0.0579320 0.0033366 255 0 0
-0.0091593 0.0579327 0.0033367 255 0 0
-0.0074875 0.0579333 0.0033367 255 0 0
-0.0058156 0.0579336 0.0033367 255 0 0
-0.0041437 0.0579339 0.0033367 255 0 0
-0.0024719 0.0579340 0.0033368 255 0 0
-0.0008000 0.0579341 0.0033368 255 0 0
0.0008719 0.0579341 0.0033368 255 0 0
0.0025438 0.0579341 0.0033368 255 0 0
0.0042157 0.0579339 0.0033368 255 0 0
0.0058875 0.0579336 0.0033368 255 0 0
0.0075594 0.0579335 0.0033367 255 0 0
0.0092313 0.0579335 0.0033367 255 0 0
0.0109032 0.0579333 0.0033367 255 0 0
0.0125750 0.0579332 0.0033367 255 0 0
0.0142469 0.0579332 0.0033367 255 0 0
0.0159190 0.0579334 0.0033367 255 0 0
0.0175908 0.0579333 0.0033367 255 0 0
0.0192627 0.0579338 0.0033370 255 0 0
0.0209346 0.0579349 0.0033374 255 0 0
0.0226065 0.0579354 0.0033380 255 0 0
0.0242784 0.0579360 0.0033389 255 0 0
-0.0442681 0.0596007 0.0033337 255 0 0
-0.0425962 0.0596002 0.0033339 255 0 0
-0.0409244 0.0595996 0.0033342 255 0 0
-0.0392525 0.0595991 0.0033345 255 0 0
-0.0375807 0.0595989 0.0033347 255 0 0
-0.0359088 0.0595986 0.0033349 255 0 0
-0.0342369 0.0595984 0.0033350 255 0 0
-0.0325651 0.0595983 0.0033350 255 0 0
-0.0308936 0.0595983 0.0033351 255 0 0
-0.0292217 0.0595983 0.0033352 255 0 0
-0.0275498 0.0595984 0.0033353 255 0 0
-0.0258780 0.0595984 0.0033354 255 0 0
-0.0242061 0.0595984 0.0033355 255 0 0
-0.0225342 0.0595987 0.0033355 255 0 0
-0.0208624 0.0595988 0.0033356 255 0 0
-0.0191905 0.0595992 0.0033356 255 0 0
-0.0175186 0.0595998 0.0033357 255 0 0
-0.0158468 0.0596005 0.0033357 255 0 0
-0.0141749 0.0596012 0.0033358 255 0 0
-0.0125030 0.0596025 0.0033358 255 0 0
-0.0108311 0.0596034 0.0033358 255 0 0
-0.0091593 0.0596041 0.0033359 255 0 0
-0.0074875 0.0596047 0.0033359 255 0 0
-0.0058156 0.0596051 0.0033359 255 0 0
-0.0041437 0.0596055 0.0033360 255 0 0
-0.0024719 0.0596058 0.0033360 255 0 0
-0.0008000 0.0596059 0.0033360 255 0 0
0.0008719 0.0596059 0.0033360 255 0 0
0.0025438 0.0596059 0.0033360 255 0 0
0.0042156 0.0596058 0.0033360 255 0 0
0.0058875 0.0596057 0.0033360 255 0 0
0.0075594 0.0596056 0.0033359 255 0 0
0.0092313 0.0596055 0.0033359 255 0 0
0.0109032 0.0596055 0.0033359 255 0 0
0.0125750 0.0596054 0.0033359 255 0 0
0.0142469 0.0596052 0.0033358 255 0 0
0.0159190 0.0596052 0.0033358 255 0 0
0.0175908 0.0596057 0.0033358 255 0 0
0.0192627 0.0596061 0.0033363 255 0 0
0.0209346 0.0596075 0.0033363 255 0 0
0.0226065 0.0596084 0.0033369 255 0 0
0.0242784 0.0596090 0.0033380 255 0 0
-0.0459400 0.0612751 0.0033321 255 0 0
-0.0442681 0.0612746 0.0033323 255 0 0
-0.0425962 0.0612738 0.0033325 255 0 0
-0.0409244 0.0612732 0.0033329 255 0 0
-0.0392525 0.0612727 0.0033332 255 0 0
-0.0375807 0.0612724 0.0033334 255 0 0
-0.0359088 0.0612723 0.0033336 255 0 0
-0.0342369 0.0612721 0.0033337 255 0 0
-0.0325651 0.0612721 0.0033338 255 0 0
-0.0308936 0.0612720 0.0033339 255 0 0
-0.0292217 0.0612719 0.0033340 255 0 0
-0.0275498 0.0612718 0.0033341 255 0 0
-0.0258780 0.0612718 0.0033342 255 0 0
-0.0242061 0.0612718 0.0033343 255 0 0
-0.0225342 0.0612719 0.0033343 255 0 0
-0.0208624 0.0612721 0.0033344 255 0 0
-0.0191905 0.0612725 0.0033345 255 0 0
-0.0175186 0.0612729 0.0033346 255 0 0
-0.0158468 0.0612736 0.0033346 255 0 0
-0.0141748 0.0612742 0.0033346 255 0 0
-0.0125030 0.0612752 0.0033347 255 0 0
-0.0108311 0.0612760 0.0033347 255 0 0
-0.0091593 0.0612767 0.0033348 255 0 0
-0.0074875 0.0612773 0.0033348 255 0 0
-0.0058156 0.0612777 0.0033348 255 0 0
-0.0041437 0.0612781 0.0033349 255 0 0
-0.0024719 0.0612784 0.0033349 255 0 0
-0.0008000 0.0612786 0.0033349 255 0 0
0.0008719 0.0612787 0.0033349 255 0 0
0.0025438 0.0612787 0.0033349 255 0 0
0.0042156 0.0612786 0.0033349 255 0 0
0.0058875 0.0612784 0.0033348 255 0 0
0.0075594 0.0612783 0.0033348 255 0 0
0.0092313 0.0612782 0.0033348 255 0 0
0.0109032 0.0612781 0.0033348 255 0 0
0.0125751 0.0612779 0.0033347 255 0 0
0.0142469 0.0612778 0.0033348 255 0 0
0.0159190 0.0612782 0.0033348 255 0 0
0.0175908 0.0612788 0.0033348 255 0 0
0.0192627 0.0612792 0.0033351 255 0 0
0.0209346 0.0612805 0.0033351 255 0 0
0.0226065 0.0612814 0.0033358 255 0 0
0.0242784 0.0612823 0.0033370 255 0 0
0.0259503 0.0612828 0.0033388 255 0 0
-0.0459400 0.0629658 0.0033297 255 0 0
-0.0442681 0.0629653 0.0033297 255 0 0
-0.0425962 0.0629647 0.0033300 255 0 0
-0.0409244 0.0629641 0.0033303 255 0 0
-0.0392525 0.0629636 0.0033305 255 0 0
-0.0375807 0.0629632 0.0033307 255 0 0
-0.0359088 0.0629628 0.0033309 255 0 0
-0.0342369 0.0629626 0.0033311 255 0 0
-0.0325651 0.0629626 0.0033312 255 0 0
-0.0308936 0.0629624 0.0033312 255 0 0
-0.0292217 0.0629623 0.0033314 255 0 0
-0.0275498 0.0629622 0.0033315 255 0 0
-0.0258779 0.0629622 0.0033316 255 0 0
-0.0242061 0.0629621 0.0033317 255 0 0
-0.0225342 0.0629623 0.0033318 255 0 0
-0.0208623 0.0629623 0.0033319 255 0 0
-0.0191905 0.0629626 0.0033320 255 0 0
-0.0175186 0.0629631 0.0033321 255 0 0
-0.0158467 0.0629634 0.0033322 255 0 0
-0.0141748 0.0629639 0.0033322 255 0 0
-0.0125030 0.0629647 0.0033323 255 0 0
-0.0108311 0.0629655 0.0033323 255 0 0
-0.0091592 0.0629660 0.0033324 255 0 0
-0.0074875 0.0629664 0.0033324 255 0 0
-0.0058156 0.0629667 0.0033324 255 0 0
-0.0041437 0.0629671 0.0033324 255 0 0
-0.0024719 0.0629673 0.0033325 255 0 0
-0.0008000 0.0629676 0.0033325 255 0 0
0.0008719 0.0629678 0.0033325 255 0 0
0.0025438 0.0629679 0.0033325 255 0 0
0.0042157 0.0629680 0.0033324 255 0 0
0.0058876 0.0629679 0.0033325 255 0 0
0.0075594 0.0629678 0.0033325 255 0 0
0.0092313 0.0629676 0.0033325 255 0 0
0.0109032 0.0629677 0.0033325 255 0 0
0.0125751 0.0629673 0.0033325 255 0 0
0.0142469 0.0629675 0.0033326 255 0 0
0.0159190 0.0629679 0.0033326 255 0 0
0.0175909 0.0629684 0.0033326 255 0 0
0.0192627 0.0629684 0.0033330 255 0 0
0.0209346 0.0629698 0.0033330 255 0 0
0.0226065 0.0629705 0.0033340 255 0 0
0.0242784 0.0629712 0.0033353 255 0 0
0.0259504 0.0629719 0.0033376 255 0 0
-0.0459400 0.0646402 0.0033278 255 0 0
-0.0442681 0.0646398 0.0033279 255 0 0
-0.0425962 0.0646395 0.0033279 255 0 0
-0.0409244 0.0646391 0.0033282 255 0 0
-0.0392525 0.0646387 0.0033284 255 0 0
-0.0375807 0.0646384 0.0033286 255 0 0
-0.0359088 0.0646383 0.0033288 255 0 0
-0.0342369 0.0646382 0.0033289 255 0 0
-0.0325651 0.0646382 0.0033290 255 0 0
-0.0308936 0.0646382 0.0033291 255 0 0
-0.0292217 0.0646376 0.0033293 255 0 0
-0.0275498 0.0646373 0.0033294 255 0 0
-0.0258779 0.0646371 0.0033296 255 0 0
-0.0242060 0.0646372 0.0033296 255 0 0
-0.0225341 0.0646373 0.0033297 255 0 0
-0.0208623 0.0646371 0.0033299 255 0 0
-0.0191904 0.0646372 0.0033300 255 0 0
-0.0175185 0.0646375 0.0033301 255 0 0
-0.0158467 0.0646380 0.0033302 255 0 0
-0.0141748 0.0646383 0.0033303 255 0 0
-0.0125029 0.0646390 0.0033303 255 0 0
-0.0108311 0.0646396 0.0033304 255 0 0
-0.0091592 0.0646401 0.0033304 255 0 0
-0.0074875 0.0646406 0.0033306 255 0 0
-0.0058156 0.0646411 0.0033306 255 0 0
-0.0041437 0.0646413 0.0033306 255 0 0
-0.0024718 0.0646416 0.0033306 255 0 0
-0.0008000 0.0646419 0.0033306 255 0 0
0.0008719 0.0646421 0.0033306 255 0 0
0.0025438 0.0646423 0.0033306 255 0 0
0.0042157 0.0646424 0.0033305 255 0 0
0.0058876 0.0646423 0.0033305 255 0 0
0.0075595 0.0646420 0.0033304 255 0 0
0.0092313 0.0646417 0.0033305 255 0 0
0.0109032 0.0646418 0.0033305 255 0 0
0.0125751 0.0646413 0.0033306 255 0 0
0.0142469 0.0646411 0.0033307 255 0 0
0.0159190 0.0646414 0.0033308 255 0 0
0.0175909 0.0646418 0.0033309 255 0 0
0.0192627 0.0646424 0.0033314 255 0 0
0.0209346 0.0646441 0.0033314 255 0 0
0.0226065 0.0646455 0.0033324 255 0 0
0.0242784 0.0646455 0.0033339 255 0 0
0.0259508 0.0646460 0.0033364 255 0 0
-0.0459400 0.0663147 0.0033270 255 0 0
-0.0442681 0.0663143 0.0033270 255 0 0
-0.0425962 0.0663135 0.0033272 255 0 0
-0.0409244 0.0663127 0.0033273 255 0 0
-0.0392525 0.0663123 0.0033275 255 0 0
-0.0375807 0.0663118 0.0033277 255 0 0
-0.0359088 0.0663114 0.0033279 255 0 0
-0.0342369 0.0663111 0.0033280 255 0 0
-0.0325651 0.0663109 0.0033281 255 0 0
-0.0308935 0.0663108 0.0033282 255 0 0
-0.0292217 0.0663106 0.0033283 255 0 0
-0.0275498 0.0663105 0.0033285 255 0 0
-0.0258779 0.0663104 0.0033286 255 0 0
-0.0242061 0.0663104 0.0033287 255 0 0
-0.0225342 0.0663105 0.0033288 255 0 0
-0.0208623 0.0663104 0.0033289 255 0 0
-0.0191905 0.0663105 0.0033291 255 0 0
-0.0175186 0.0663105 0.0033292 255 0 0
-0.0158467 0.0663105 0.0033293 255 0 0
-0.0141748 0.0663107 0.0033294 255 0 0
-0.0125030 0.0663113 0.0033294 255 0 0
-0.0108311 0.0663118 0.0033295 255 0 0
-0.0091592 0.0663122 0.0033296 255 0 0
-0.0074874 0.0663126 0.0033296 255 0 0
-0.0058155 0.0663129 0.0033297 255 0 0
-0.0041437 0.0663134 0.0033297 255 0 0
-0.0024718 0.0663138 0.0033297 255 0 0
-0.0008000 0.0663141 0.0033297 255 0 0
0.0008719 0.0663143 0.0033297 255 0 0
0.0025438 0.0663145 0.0033297 255 0 0
0.0042157 0.0663147 0.0033296 255 0 0
0.0058876 0.0663149 0.0033296 255 0 0
0.0075594 0.0663147 0.0033296 255 0 0
0.0092314 0.0663145 0.0033296 255 0 0
0.0109033 0.0663144 0.0033296 255 0 0
0.0125751 0.0663144 0.0033295 255 0 0
0.0142470 0.0663143 0.0033296 255 0 0
0.0159190 0.0663144 0.0033298 255 0 0
0.0175909 0.0663148 0.0033299 255 0 0
0.0192628 0.0663154 0.0033305 255 0 0
0.0209347 0.0663163 0.0033307 255 0 0
0.0226065 0.0663173 0.0033319 255 0 0
0.0242785 0.0663178 0.0033339 255 0 0
0.0259509 0.0663181 0.0033369 255 0 0
-0.0459400 0.0679878 0.0033268 255 0 0
-0.0442681 0.0679874 0.0033267 255 0 0
-0.0425962 0.0679868 0.0033268 255 0 0
-0.0409244 0.0679861 0.0033269 255 0 0
-0.0392525 0.0679856 0.0033270 255 0 0
-0.0375807 0.0679851 0.0033271 255 0 0
-0.0359088 0.0679846 0.0033273 255 0 0
-0.0342369 0.0679844 0.0033275 255 0 0
-0.0325651 0.0679840 0.0033275 255 0 0
-0.0308936 0.0679839 0.0033276 255 0 0
-0.0292217 0.0679835 0.0033278 255 0 0
-0.0275498 0.0679833 0.0033280 255 0 0
-0.0258780 0.0679832 0.0033281 255 0 0
-0.0242061 0.0679831 0.0033282 255 0 0
-0.0225342 0.0679831 0.0033283 255 0 0
-0.0208624 0.0679830 0.0033284 255 0 0
-0.0191905 0.0679830 0.0033286 255 0 0
-0.0175186 0.0679830 0.0033287 255 0 0
-0.0158467 0.0679832 0.0033288 255 0 0
-0.0141748 0.0679834 0.0033289 255 0 0
-0.0125029 0.0679839 0.0033290 255 0 0
-0.0108311 0.0679844 0.0033291 255 0 0
-0.0091592 0.0679847 0.0033291 255 0 0
-0.0074874 0.0679850 0.0033292 255 0 0
-0.0058155 0.0679854 0.0033292 255 0 0
-0.0041437 0.0679857 0.0033293 255 0 0
-0.0024718 0.0679860 0.0033293 255 0 0
-0.0008000 0.0679862 0.0033293 255 0 0
0.0008719 0.0679864 0.0033293 255 0 0
0.0025439 0.0679867 0.0033293 255 0 0
0.0042157 0.0679868 0.0033293 255 0 0
0.0058876 0.0679868 0.0033292 255 0 0
0.0075595 0.0679868 0.0033292 255 0 0
0.0092314 0.0679866 0.0033291 255 0 0
0.0109032 0.0679865 0.0033291 255 0 0
0.0125751 0.0679864 0.0033290 255 0 0
0.0142470 0.0679864 0.0033289 255 0 0
0.0159190 0.0679866 0.0033289 255 0 0
0.0175909 0.0679872 0.0033290 255 0 0
0.0192628 0.0679879 0.0033299 255 0 0
0.0209347 0.0679892 0.0033302 255 0 0
0.0226066 0.0679901 0.0033315 255 0 0
0.0242785 0.0679905 0.0033340 255 0 0
0.0259509 0.0679915 0.0033373 255 0 0
-0.0459400 0.0696618 0.0033269 255 0 0
-0.0442681 0.0696614 0.0033267 255 0 0
-0.0425962 0.0696605 0.0033266 255 0 0
-0.0409244 0.0696596 0.0033265 255 0 0
-0.0392525 0.0696590 0.0033265 255 0 0
-0.0375807 0.0696584 0.0033267 255 0 0
-0.0359088 0.0696579 0.0033269 255 0 0
-0.0342369 0.0696576 0.0033270 255 0 0
-0.0325651 0.0696574 0.0033271 255 0 0
-0.0308936 0.0696573 0.0033272 255 0 0
-0.0292217 0.0696569 0.0033274 255 0 0
-0.0275498 0.0696566 0.0033275 255 0 0
-0.0258780 0.0696563 0.0033276 255 0 0
-0.0242061 0.0696561 0.0033277 255 0 0
-0.0225342 0.0696560 0.0033278 255 0 0
-0.0208624 0.0696559 0.0033280 255 0 0
-0.0191905 0.0696558 0.0033282 255 0 0
-0.0175187 0.0696558 0.0033283 255 0 0
-0.0158468 0.0696558 0.0033284 255 0 0
-0.0141748 0.0696559 0.0033285 255 0 0
-0.0125029 0.0696561 0.0033286 255 0 0
-0.0108311 0.0696563 0.0033287 255 0 0
-0.0091592 0.0696567 0.0033287 255 0 0
-0.0074874 0.0696568 0.0033288 255 0 0
-0.0058155 0.0696572 0.0033289 255 0 0
-0.0041437 0.0696576 0.0033289 255 0 0
-0.0024718 0.0696578 0.0033289 255 0 0
-0.0008000 0.0696581 0.0033290 255 0 0
0.0008720 0.0696583 0.0033289 255 0 0
0.0025439 0.0696588 0.0033289 255 0 0
0.0042157 0.0696590 0.0033289 255 0 0
0.0058876 0.0696593 0.0033288 255 0 0
0.0075595 0.0696593 0.0033288 255 0 0
0.0092314 0.0696590 0.0033287 255 0 0
0.0109033 0.0696593 0.0033287 255 0 0
0.0125751 0.0696588 0.0033285 255 0 0
0.0142470 0.0696592 0.0033285 255 0 0
0.0159191 0.0696592 0.0033285 255 0 0
0.0175909 0.0696599 0.0033286 255 0 0
0.0192628 0.0696602 0.0033294 255 0 0
0.0209347 0.0696617 0.0033298 255 0 0
0.0226066 0.0696622 0.0033314 255 0 0
0.0242785 0.0696632 0.0033339 255 0 0
0.0259509 0.0696638 0.0033375 255 0 0
-0.0459400 0.0713345 0.0033275 255 0 0
-0.0442681 0.0713341 0.0033272 255 0 0
-0.0425962 0.0713336 0.0033271 255 0 0
-0.0409244 0.0713333 0.0033270 255 0 0
-0.0392525 0.0713329 0.0033269 255 0 0
-0.0375807 0.0713325 0.0033270 255 0 0
-0.0359088 0.0713318 0.0033272 255 0 0
-0.0342369 0.0713313 0.0033272 255 0 0
-0.0325651 0.0713311 0.0033273 255 0 0
-0.0308936 0.0713308 0.0033274 255 0 0
-0.0292217 0.0713302 0.0033276 255 0 0
-0.0275499 0.0713298 0.0033277 255 0 0
-0.0258780 0.0713297 0.0033279 255 0 0
-0.0242061 0.0713295 0.0033281 255 0 0
-0.0225342 0.0713293 0.0033282 255 0 0
-0.0208623 0.0713292 0.0033284 255 0 0
-0.0191905 0.0713290 0.0033286 255 0 0
-0.0175186 0.0713290 0.0033287 255 0 0
-0.0158467 0.0713290 0.0033288 255 0 0
-0.0141747 0.0713290 0.0033289 255 0 0
-0.0125029 0.0713293 0.0033290 255 0 0
-0.0108310 0.0713295 0.0033290 255 0 0
-0.0091592 0.0713296 0.0033291 255 0 0
-0.0074874 0.0713299 0.0033291 255 0 0
-0.0058155 0.0713302 0.0033292 255 0 0
-0.0041437 0.0713307 0.0033292 255 0 0
-0.0024718 0.0713308 0.0033292 255 0 0
-0.0008000 0.0713310 0.0033292 255 0 0
0.0008720 0.0713312 0.0033292 255 0 0
0.0025439 0.0713314 0.0033291 255 0 0
0.0042157 0.0713318 0.0033291 255 0 0
0.0058876 0.0713319 0.0033290 255 0 0
0.0075595 0.0713321 0.0033290 255 0 0
0.0092314 0.0713321 0.0033289 255 0 0
0.0109033 0.0713321 0.0033288 255 0 0
0.0125751 0.0713320 0.0033286 255 0 0
0.0142470 0.0713322 0.0033285 255 0 0
0.0159190 0.0713324 0.0033286 255 0 0
0.0175909 0.0713326 0.0033287 255 0 0
0.0192628 0.0713330 0.0033294 255 0 0
0.0209347 0.0713337 0.0033299 255 0 0
0.0226066 0.0713345 0.0033314 255 0 0
0.0242785 0.0713359 0.0033340 255 0 0
0.0259509 0.0713371 0.0033373 255 0 0
0.0276255 0.0713377 0.0033402 255 0 0
-0.0459400 0.0730087 0.0033281 255 0 0
-0.0442681 0.0730081 0.0033278 255 0 0
-0.0425962 0.0730077 0.0033276 255 0 0
-0.0409244 0.0730071 0.0033274 255 0 0
-0.0392525 0.0730062 0.0033273 255 0 0
-0.0375807 0.0730058 0.0033274 255 0 0
-0.0359088 0.0730050 0.0033275 255 0 0
-0.0342369 0.0730043 0.0033276 255 0 0
-0.0325651 0.0730039 0.0033277 255 0 0
-0.0308935 0.0730038 0.0033278 255 0 0
-0.0292217 0.0730035 0.0033280 255 0 0
-0.0275498 0.0730032 0.0033282 255 0 0
-0.0258779 0.0730029 0.0033283 255 0 0
-0.0242061 0.0730027 0.0033284 255 0 0
-0.0225341 0.0730027 0.0033285 255 0 0
-0.0208623 0.0730024 0.0033287 255 0 0
-0.0191905 0.0730022 0.0033289 255 0 0
-0.0175186 0.0730022 0.0033290 255 0 0
-0.0158467 0.0730021 0.0033291 255 0 0
-0.0141747 0.0730024 0.0033292 255 0 0
-0.0125029 0.0730024 0.0033293 255 0 0
-0.0108310 0.0730026 0.0033294 255 0 0
-0.0091592 0.0730026 0.0033294 255 0 0
-0.0074874 0.0730028 0.0033294 255 0 0
-0.0058155 0.0730030 0.0033294 255 0 0
-0.0041437 0.0730032 0.0033294 255 0 0
-0.0024718 0.0730035 0.0033295 255 0 0
-0.0008000 0.0730037 0.0033294 255 0 0
0.0008720 0.0730038 0.0033294 255 0 0
0.0025439 0.0730038 0.0033293 255 0 0
0.0042157 0.0730041 0.0033292 255 0 0
0.0058876 0.0730042 0.0033292 255 0 0
0.0075595 0.0730041 0.0033291 255 0 0
0.0092314 0.0730040 0.0033290 255 0 0
0.0109033 0.0730039 0.0033290 255 0 0
0.0125751 0.0730038 0.0033288 255 0 0
0.0142470 0.0730041 0.0033287 255 0 0
0.0159190 0.0730043 0.0033287 255 0 0
0.0175909 0.0730046 0.0033289 255 0 0
0.0192628 0.0730056 0.0033296 255 0 0
0.0209347 0.0730062 0.0033303 255 0 0
0.0226066 0.0730079 0.0033317 255 0 0
0.0242785 0.0730086 0.0033342 255 0 0
0.0259509 0.0730095 0.0033373 255 0 0
0.0276254 0.0730109 0.0033400 255 0 0
-0.0459400 0.0746816 0.0033304 255 0 0
-0.0442681 0.0746811 0.0033292 255 0 0
-0.0425962 0.0746804 0.0033284 255 0 0
-0.0409244 0.0746796 0.0033277 255 0 0
-0.0392525 0.0746789 0.0033273 255 0 0
-0.0375807 0.0746777 0.0033274 255 0 0
-0.0359088 0.0746767 0.0033275 255 0 0
-0.0342369 0.0746762 0.0033276 255 0 0
-0.0325651 0.0746759 0.0033277 255 0 0
-0.0308935 0.0746756 0.0033278 255 0 0
-0.0292217 0.0746752 0.0033280 255 0 0
-0.0275498 0.0746746 0.0033282 255 0 0
-0.0258779 0.0746742 0.0033284 255 0 0
-0.0242061 0.0746740 0.0033285 255 0 0
-0.0225342 0.0746738 0.0033287 255 0 0
-0.0208623 0.0746736 0.0033289 255 0 0
-0.0191905 0.0746736 0.0033290 255 0 0
-0.0175186 0.0746734 0.0033292 255 0 0
-0.0158467 0.0746734 0.0033293 255 0 0
-0.0141748 0.0746733 0.0033294 255 0 0
-0.0125029 0.0746735 0.0033295 255 0 0
-0.0108311 0.0746736 0.0033295 255 0 0
-0.0091592 0.0746736 0.0033295 255 0 0
-0.0074873 0.0746737 0.0033295 255 0 0
-0.0058155 0.0746739 0.0033295 255 0 0
-0.0041436 0.0746743 0.0033295 255 0 0
-0.0024718 0.0746747 0.0033295 255 0 0
-0.0008000 0.0746747 0.0033295 255 0 0
0.0008720 0.0746749 0.0033295 255 0 0
0.0025439 0.0746751 0.0033294 255 0 0
0.0042157 0.0746749 0.0033294 255 0 0
0.0058876 0.0746752 0.0033293 255 0 0
0.0075595 0.0746754 0.0033292 255 0 0
0.0092314 0.0746751 0.0033290 255 0 0
0.0109033 0.0746751 0.0033290 255 0 0
0.0125752 0.0746750 0.0033287 255 0 0
0.0142470 0.0746753 0.0033286 255 0 0
0.0159191 0.0746759 0.0033286 255 0 0
0.0175910 0.0746765 0.0033289 255 0 0
0.0192628 0.0746773 0.0033296 255 0 0
0.0209347 0.0746781 0.0033303 255 0 0
0.0226066 0.0746795 0.0033320 255 0 0
0.0242786 0.0746804 0.0033348 255 0 0
0.0259509 0.0746814 0.0033385 255 0 0
0.0276254 0.0746818 0.0033409 255 0 0
-0.0459405 0.0763553 0.0033325 255 0 0
-0.0442681 0.0763546 0.0033307 255 0 0
-0.0425962 0.0763535 0.0033292 255 0 0
-0.0409244 0.0763516 0.0033283 255 0 0
-0.0392525 0.0763507 0.0033277 255 0 0
-0.0375807 0.0763500 0.0033277 255 0 0
-0.0359088 0.0763493 0.0033278 255 0 0
-0.0342369 0.0763484 0.0033279 255 0 0
-0.0325651 0.0763476 0.0033280 255 0 0
-0.0308936 0.0763471 0.0033282 255 0 0
-0.0292217 0.0763466 0.0033284 255 0 0
-0.0275498 0.0763462 0.0033286 255 0 0
-0.0258780 0.0763459 0.0033288 255 0 0
-0.0242061 0.0763457 0.0033290 255 0 0
-0.0225342 0.0763455 0.0033291 255 0 0
-0.0208624 0.0763451 0.0033293 255 0 0
-0.0191905 0.0763449 0.0033295 255 0 0
-0.0175186 0.0763447 0.0033296 255 0 0
-0.0158467 0.0763447 0.0033297 255 0 0
-0.0141748 0.0763447 0.0033298 255 0 0
-0.0125029 0.0763448 0.0033299 255 0 0
-0.0108311 0.0763450 0.0033299 255 0 0
-0.0091592 0.0763453 0.0033299 255 0 0
-0.0074874 0.0763455 0.0033299 255 0 0
-0.0058155 0.0763456 0.0033299 255 0 0
-0.0041436 0.0763459 0.0033299 255 0 0
-0.0024718 0.0763460 0.0033299 255 0 0
-0.0007999 0.0763461 0.0033299 255 0 0
0.0008720 0.0763461 0.0033299 255 0 0
0.0025439 0.0763464 0.0033298 255 0 0
0.0042158 0.0763465 0.0033297 255 0 0
0.0058876 0.0763465 0.0033296 255 0 0
0.0075595 0.0763464 0.0033295 255 0 0
0.0092314 0.0763462 0.0033293 255 0 0
0.0109033 0.0763461 0.0033292 255 0 0
0.0125752 0.0763462 0.0033289 255 0 0
0.0142470 0.0763461 0.0033288 255 0 0
0.0159191 0.0763464 0.0033288 255 0 0
0.0175910 0.0763472 0.0033289 255 0 0
0.0192629 0.0763478 0.0033298 255 0 0
0.0209347 0.0763498 0.0033307 255 0 0
0.0226066 0.0763516 0.0033323 255 0 0
0.0242786 0.0763521 0.0033355 255 0 0
0.0259509 0.0763535 0.0033396 255 0 0
0.0276254 0.0763544 0.0033422 255 0 0
-0.0442682 0.0780264 0.0033321 255 0 0
-0.0425962 0.0780251 0.0033302 255 0 0
-0.0409244 0.0780239 0.0033291 255 0 0
-0.0392525 0.0780233 0.0033281 255 0 0
-0.0375807 0.0780224 0.0033280 255 0 0
-0.0359088 0.0780211 0.0033281 255 0 0
-0.0342369 0.0780201 0.0033282 255 0 0
-0.0325651 0.0780195 0.0033283 255 0 0
-0.0308936 0.0780191 0.0033285 255 0 0
-0.0292217 0.0780186 0.0033287 255 0 0
-0.0275498 0.0780182 0.0033290 255 0 0
-0.0258780 0.0780178 0.0033292 255 0 0
-0.0242061 0.0780176 0.0033293 255 0 0
-0.0225342 0.0780174 0.0033295 255 0 0
-0.0208624 0.0780170 0.0033297 255 0 0
-0.0191905 0.0780168 0.0033298 255 0 0
-0.0175186 0.0780168 0.0033300 255 0 0
-0.0158467 0.0780167 0.0033301 255 0 0
-0.0141747 0.0780166 0.0033302 255 0 0
-0.0125029 0.0780165 0.0033302 255 0 0
-0.0108310 0.0780165 0.0033303 255 0 0
-0.0091592 0.0780163 0.0033303 255 0 0
-0.0074874 0.0780163 0.0033303 255 0 0
-0.0058154 0.0780165 0.0033302 255 0 0
-0.0041436 0.0780167 0.0033303 255 0 0
-0.0024718 0.0780169 0.0033303 255 0 0
-0.0007999 0.0780170 0.0033302 255 0 0
0.0008720 0.0780172 0.0033302 255 0 0
0.0025439 0.0780173 0.0033301 255 0 0
0.0042157 0.0780175 0.0033300 255 0 0
0.0058876 0.0780175 0.0033299 255 0 0
0.0075595 0.0780175 0.0033297 255 0 0
0.0092314 0.0780172 0.0033296 255 0 0
0.0109033 0.0780174 0.0033294 255 0 0
0.0125751 0.0780175 0.0033291 255 0 0
0.0142470 0.0780182 0.0033289 255 0 0
0.0159191 0.0780188 0.0033290 255 0 0
0.0175910 0.0780191 0.0033292 255 0 0
0.0192629 0.0780199 0.0033302 255 0 0
0.0209347 0.0780212 0.0033311 255 0 0
0.0226066 0.0780229 0.0033332 255 0 0
0.0242787 0.0780245 0.0033366 255 0 0
0.0259510 0.0780257 0.0033410 255 0 0
0.0276255 0.0780270 0.0033441 255 0 0
-0.0442681 0.0796988 0.0033334 255 0 0
-0.0425963 0.0796981 0.0033312 255 0 0
-0.0409244 0.0796971 0.0033299 255 0 0
-0.0392525 0.0796969 0.0033288 255 0 0
-0.0375807 0.0796949 0.0033287 255 0 0
-0.0359088 0.0796937 0.0033286 255 0 0
-0.0342369 0.0796932 0.0033287 255 0 0
-0.0325651 0.0796928 0.0033288 255 0 0
-0.0308936 0.0796923 0.0033290 255 0 0
-0.0292217 0.0796914 0.0033293 255 0 0
-0.0275499 0.0796909 0.0033295 255 0 0
-0.0258780 0.0796904 0.0033297 255 0 0
-0.0242061 0.0796901 0.0033299 255 0 0
-0.0225342 0.0796897 0.0033301 255 0 0
-0.0208623 0.0796893 0.0033303 255 0 0
-0.0191905 0.0796890 0.0033304 255 0 0
-0.0175186 0.0796889 0.0033305 255 0 0
-0.0158467 0.0796888 0.0033306 255 0 0
-0.0141747 0.0796887 0.0033307 255 0 0
-0.0125029 0.0796886 0.0033308 255 0 0
-0.0108310 0.0796886 0.0033308 255 0 0
-0.0091592 0.0796887 0.0033308 255 0 0
-0.0074874 0.0796887 0.0033308 255 0 0
-0.0058154 0.0796889 0.0033308 255 0 0
-0.0041436 0.0796892 0.0033308 255 0 0
-0.0024718 0.0796894 0.0033308 255 0 0
-0.0007999 0.0796897 0.0033307 255 0 0
0.0008720 0.0796897 0.0033307 255 0 0
0.0025439 0.0796898 0.0033306 255 0 0
0.0042158 0.0796901 0.0033304 255 0 0
0.0058876 0.0796900 0.0033303 255 0 0
0.0075595 0.0796901 0.0033301 255 0 0
0.0092314 0.0796902 0.0033299 255 0 0
0.0109033 0.0796901 0.0033298 255 0 0
0.0125751 0.0796901 0.0033295 255 0 0
0.0142470 0.0796901 0.0033293 255 0 0
0.0159191 0.0796907 0.0033294 255 0 0
0.0175910 0.0796917 0.0033296 255 0 0
0.0192629 0.0796920 0.0033308 255 0 0
0.0209347 0.0796936 0.0033318 255 0 0
0.0226066 0.0796953 0.0033341 255 0 0
0.0242788 0.0796966 0.0033376 255 0 0
0.0259510 0.0796978 0.0033421 255 0 0
-0.0442682 0.0813722 0.0033343 255 0 0
-0.0425963 0.0813720 0.0033325 255 0 0
-0.0409244 0.0813707 0.0033311 255 0 0
-0.0392525 0.0813686 0.0033300 255 0 0
-0.0375807 0.0813673 0.0033295 255 0 0
-0.0359088 0.0813666 0.0033294 255 0 0
-0.0342369 0.0813655 0.0033294 255 0 0
-0.0325651 0.0813650 0.0033296 255 0 0
-0.0308935 0.0813645 0.0033298 255 0 0
-0.0292217 0.0813637 0.0033300 255 0 0
-0.0275498 0.0813629 0.0033303 255 0 0
-0.0258779 0.0813624 0.0033305 255 0 0
-0.0242061 0.0813620 0.0033307 255 0 0
-0.0225342 0.0813618 0.0033309 255 0 0
-0.0208623 0.0813615 0.0033311 255 0 0
-0.0191905 0.0813613 0.0033312 255 0 0
-0.0175186 0.0813612 0.0033313 255 0 0
-0.0158467 0.0813610 0.0033314 255 0 0
-0.0141747 0.0813610 0.0033315 255 0 0
-0.0125029 0.0813610 0.0033316 255 0 0
-0.0108310 0.0813610 0.0033316 255 0 0
-0.0091591 0.0813610 0.0033316 255 0 0
-0.0074874 0.0813610 0.0033316 255 0 0
-0.0058155 0.0813611 0.0033315 255 0 0
-0.0041436 0.0813614 0.0033315 255 0 0
-0.0024718 0.0813615 0.0033314 255 0 0
-0.0007999 0.0813617 0.0033314 255 0 0
0.0008720 0.0813618 0.0033313 255 0 0
0.0025439 0.0813620 0.0033312 255 0 0
0.0042157 0.0813621 0.0033310 255 0 0
0.0058876 0.0813622 0.0033309 255 0 0
0.0075595 0.0813621 0.0033307 255 0 0
0.0092314 0.0813620 0.0033305 255 0 0
0.0109033 0.0813618 0.0033304 255 0 0
0.0125751 0.0813617 0.0033301 255 0 0
0.0142470 0.0813622 0.0033300 255 0 0
0.0159191 0.0813624 0.0033301 255 0 0
0.0175910 0.0813636 0.0033305 255 0 0
0.0192629 0.0813650 0.0033316 255 0 0
0.0209347 0.0813669 0.0033328 255 0 0
0.0226066 0.0813679 0.0033352 255 0 0
0.0242789 0.0813695 0.0033387 255 0 0
0.0259511 0.0813705 0.0033432 255 0 0
-0.0442685 0.0830452 0.0033376 255 0 0
-0.0425963 0.0830439 0.0033342 255 0 0
-0.0409244 0.0830418 0.0033323 255 0 0
-0.0392525 0.0830401 0.0033307 255 0 0
-0.0375807 0.0830391 0.0033302 255 0 0
-0.0359088 0.0830377 0.0033299 255 0 0
-0.0342369 0.0830369 0.0033297 255 0 0
-0.0325651 0.0830363 0.0033299 255 0 0
-0.0308935 0.0830356 0.0033301 255 0 0
-0.0292217 0.0830351 0.0033305 255 0 0
-0.0275498 0.0830340 0.0033308 255 0 0
-0.0258779 0.0830334 0.0033310 255 0 0
-0.0242061 0.0830329 0.0033312 255 0 0
-0.0225342 0.0830327 0.0033314 255 0 0
-0.0208623 0.0830320 0.0033315 255 0 0
-0.0191905 0.0830317 0.0033317 255 0 0
-0.0175186 0.0830315 0.0033318 255 0 0
-0.0158467 0.0830314 0.0033319 255 0 0
-0.0141747 0.0830313 0.0033320 255 0 0
-0.0125029 0.0830312 0.0033321 255 0 0
-0.0108311 0.0830311 0.0033321 255 0 0
-0.0091592 0.0830312 0.0033321 255 0 0
-0.0074873 0.0830313 0.0033321 255 0 0
-0.0058154 0.0830314 0.0033321 255 0 0
-0.0041436 0.0830316 0.0033321 255 0 0
-0.0024718 0.0830318 0.0033320 255 0 0
-0.0007999 0.0830319 0.0033320 255 0 0
0.0008720 0.0830322 0.0033319 255 0 0
0.0025439 0.0830324 0.0033318 255 0 0
0.0042158 0.0830327 0.0033316 255 0 0
0.0058876 0.0830329 0.0033314 255 0 0
0.0075595 0.0830331 0.0033312 255 0 0
0.0092315 0.0830330 0.0033309 255 0 0
0.0109033 0.0830330 0.0033308 255 0 0
0.0125752 0.0830332 0.0033304 255 0 0
0.0142470 0.0830335 0.0033302 255 0 0
0.0159191 0.0830344 0.0033306 255 0 0
0.0175910 0.0830353 0.0033310 255 0 0
0.0192629 0.0830356 0.0033324 255 0 0
0.0209348 0.0830378 0.0033345 255 0 0
0.0226067 0.0830404 0.0033376 255 0 0
0.0242789 0.0830418 0.0033419 255 0 0
0.0259533 0.0830432 0.0033470 255 0 0
-0.0425963 0.0847149 0.0033361 255 0 0
-0.0409244 0.0847139 0.0033338 255 0 0
-0.0392525 0.0847130 0.0033320 255 0 0
-0.0375807 0.0847111 0.0033311 255 0 0
-0.0359088 0.0847095 0.0033306 255 0 0
-0.0342369 0.0847082 0.0033305 255 0 0
-0.0325651 0.0847070 0.0033307 255 0 0
-0.0308935 0.0847065 0.0033308 255 0 0
-0.0292217 0.0847057 0.0033312 255 0 0
-0.0275498 0.0847048 0.0033315 255 0 0
-0.0258780 0.0847036 0.0033318 255 0 0
-0.0242061 0.0847032 0.0033320 255 0 0
-0.0225341 0.0847030 0.0033322 255 0 0
-0.0208623 0.0847028 0.0033323 255 0 0
-0.0191905 0.0847027 0.0033325 255 0 0
-0.0175186 0.0847025 0.0033326 255 0 0
-0.0158467 0.0847023 0.0033327 255 0 0
-0.0141748 0.0847023 0.0033328 255 0 0
-0.0125029 0.0847022 0.0033329 255 0 0
-0.0108311 0.0847023 0.0033329 255 0 0
-0.0091592 0.0847023 0.0033330 255 0 0
-0.0074874 0.0847021 0.0033330 255 0 0
-0.0058154 0.0847022 0.0033329 255 0 0
-0.0041436 0.0847023 0.0033329 255 0 0
-0.0024718 0.0847025 0.0033329 255 0 0
-0.0007999 0.0847026 0.0033328 255 0 0
0.0008720 0.0847026 0.0033327 255 0 0
0.0025439 0.0847028 0.0033326 255 0 0
0.0042158 0.0847031 0.0033324 255 0 0
0.0058876 0.0847038 0.0033322 255 0 0
0.0075595 0.0847037 0.0033319 255 0 0
0.0092314 0.0847036 0.0033316 255 0 0
0.0109033 0.0847038 0.0033315 255 0 0
0.0125752 0.0847037 0.0033310 255 0 0
0.0142470 0.0847045 0.0033310 255 0 0
0.0159191 0.0847050 0.0033313 255 0 0
0.0175910 0.0847060 0.0033319 255 0 0
0.0192629 0.0847078 0.0033336 255 0 0
0.0209348 0.0847096 0.0033364 255 0 0
0.0226068 0.0847116 0.0033400 255 0 0
0.0242790 0.0847136 0.0033447 255 0 0
0.0259547 0.0847149 0.0033504 255 0 0
-0.0425964 0.0863885 0.0033383 255 0 0
-0.0409244 0.0863863 0.0033359 255 0 0
-0.0392525 0.0863849 0.0033339 255 0 0
-0.0375807 0.0863835 0.0033328 255 0 0
-0.0359088 0.0863809 0.0033320 255 0 0
-0.0342369 0.0863798 0.0033316 255 0 0
-0.0325651 0.0863790 0.0033318 255 0 0
-0.0308935 0.0863781 0.0033319 255 0 0
-0.0292217 0.0863770 0.0033324 255 0 0
-0.0275498 0.0863761 0.0033326 255 0 0
-0.0258780 0.0863753 0.0033329 255 0 0
-0.0242061 0.0863746 0.0033331 255 0 0
-0.0225342 0.0863741 0.0033333 255 0 0
-0.0208624 0.0863737 0.0033335 255 0 0
-0.0191905 0.0863735 0.0033337 255 0 0
-0.0175186 0.0863733 0.0033338 255 0 0
-0.0158467 0.0863731 0.0033339 255 0 0
-0.0141747 0.0863730 0.0033340 255 0 0
-0.0125029 0.0863729 0.0033341 255 0 0
-0.0108310 0.0863728 0.0033341 255 0 0
-0.0091592 0.0863727 0.0033341 255 0 0
-0.0074873 0.0863728 0.0033341 255 0 0
-0.0058154 0.0863729 0.0033341 255 0 0
-0.0041436 0.0863731 0.0033341 255 0 0
-0.0024718 0.0863732 0.0033340 255 0 0
-0.0007999 0.0863732 0.0033340 255 0 0
0.0008720 0.0863736 0.0033339 255 0 0
0.0025439 0.0863742 0.0033337 255 0 0
0.0042157 0.0863746 0.0033335 255 0 0
0.0058876 0.0863751 0.0033332 255 0 0
0.0075595 0.0863754 0.0033329 255 0 0
0.0092314 0.0863756 0.0033326 255 0 0
0.0109033 0.0863761 0.0033325 255 0 0
0.0125752 0.0863764 0.0033321 255 0 0
0.0142470 0.0863769 0.0033321 255 0 0
0.0159191 0.0863780 0.0033325 255 0 0
0.0175910 0.0863789 0.0033334 255 0 0
0.0192629 0.0863800 0.0033352 255 0 0
0.0209348 0.0863823 0.0033388 255 0 0
0.0226068 0.0863841 0.0033430 255 0 0
0.0242793 0.0863866 0.0033480 255 0 0
-0.0409244 0.0880592 0.0033378 255 0 0
-0.0392525 0.0880569 0.0033356 255 0 0
-0.0375807 0.0880551 0.0033342 255 0 0
-0.0359088 0.0880534 0.0033333 255 0 0
-0.0342369 0.0880525 0.0033329 255 0 0
-0.0325651 0.0880518 0.0033330 255 0 0
-0.0308935 0.0880508 0.0033332 255 0 0
-0.0292216 0.0880489 0.0033337 255 0 0
-0.0275498 0.0880480 0.0033339 255 0 0
-0.0258779 0.0880475 0.0033342 255 0 0
