ply
format ascii 1.0
element vertex 1205
property float x
property float y
property float z
property uchar red
property uchar green
property uchar blue
end_header
-0.0158344 0.0506691 -0.0465920 255 0 0
-0.0141622 0.0506984 -0.0466055 255 0 0
-0.0124985 0.0507056 -0.0466153 255 0 0
-0.0108315 0.0507121 -0.0466234 255 0 0
-0.0091631 0.0507172 -0.0466301 255 0 0
-0.0074872 0.0507224 -0.0466352 255 0 0
-0.0058153 0.0507270 -0.0466365 255 0 0
-0.0041435 0.0507141 -0.0466467 255 0 0
-0.0024757 0.0507066 -0.0466486 255 0 0
-0.0008090 0.0507038 -0.0466425 255 0 0
0.0008535 0.0507078 -0.0466280 255 0 0
0.0025192 0.0506894 -0.0466143 255 0 0
0.0041958 0.0506814 -0.0465782 255 0 0
-0.0191776 0.0523206 -0.0465931 255 0 0
-0.0175058 0.0523218 -0.0466141 255 0 0
-0.0158341 0.0523162 -0.0466332 255 0 0
-0.0141625 0.0523136 -0.0466504 255 0 0
-0.0124924 0.0523079 -0.0466655 255 0 0
-0.0108272 0.0523074 -0.0466746 255 0 0
-0.0091554 0.0523106 -0.0466810 255 0 0
-0.0074865 0.0523210 -0.0466838 255 0 0
-0.0058159 0.0523305 -0.0466831 255 0 0
-0.0041440 0.0523209 -0.0466926 255 0 0
-0.0024761 0.0523169 -0.0466937 255 0 0
-0.0008101 0.0523178 -0.0466860 255 0 0
0.0008504 0.0523264 -0.0466700 255 0 0
0.0025127 0.0523394 -0.0466538 255 0 0
0.0041902 0.0523453 -0.0466115 255 0 0
0.0058635 0.0523256 -0.0465793 255 0 0
-0.0225048 0.0539318 -0.0465697 255 0 0
-0.0208337 0.0539337 -0.0466049 255 0 0
-0.0191779 0.0539350 -0.0466313 255 0 0
-0.0175064 0.0539363 -0.0466526 255 0 0
-0.0158347 0.0539374 -0.0466679 255 0 0
-0.0141712 0.0539393 -0.0466807 255 0 0
-0.0124994 0.0539374 -0.0466898 255 0 0
-0.0108276 0.0539379 -0.0466966 255 0 0
-0.0091558 0.0539405 -0.0467012 255 0 0
-0.0074881 0.0539467 -0.0467031 255 0 0
-0.0058204 0.0539500 -0.0467026 255 0 0
-0.0041481 0.0539236 -0.0467066 255 0 0
-0.0024763 0.0539214 -0.0467056 255 0 0
-0.0008081 0.0539192 -0.0466991 255 0 0
0.0008535 0.0539380 -0.0466881 255 0 0
0.0025166 0.0539434 -0.0466739 255 0 0
0.0041910 0.0539475 -0.0466408 255 0 0
0.0058631 0.0539585 -0.0466109 255 0 0
0.0075312 0.0539748 -0.0465840 255 0 0
0.0091950 0.0539724 -0.0465602 255 0 0
-0.0241769 0.0555997 -0.0465479 255 0 0
-0.0225043 0.0555679 -0.0465810 255 0 0
-0.0208335 0.0555614 -0.0466167 255 0 0
-0.0191651 0.0555585 -0.0466430 255 0 0
-0.0175067 0.0555591 -0.0466627 255 0 0
-0.0158351 0.0555639 -0.0466744 255 0 0
-0.0141717 0.0555683 -0.0466840 255 0 0
-0.0124997 0.0555689 -0.0466905 255 0 0
-0.0108278 0.0555455 -0.0466951 255 0 0
-0.0091559 0.0555471 -0.0466980 255 0 0
-0.0074923 0.0555503 -0.0466989 255 0 0
-0.0058247 0.0555508 -0.0466982 255 0 0
-0.0041484 0.0555531 -0.0466984 255 0 0
-0.0024744 0.0555514 -0.0466960 255 0 0
-0.0008065 0.0555472 -0.0466906 255 0 0
0.0008566 0.0555381 -0.0466832 255 0 0
0.0025187 0.0555616 -0.0466709 255 0 0
0.0041936 0.0555683 -0.0466456 255 0 0
0.0058630 0.0555835 -0.0466177 255 0 0
0.0075270 0.0556055 -0.0465875 255 0 0
0.0091866 0.0556372 -0.0465537 255 0 0
0.0108505 0.0556657 -0.0465258 255 0 0
-0.0258644 0.0572753 -0.0465357 255 0 0
-0.0241768 0.0572327 -0.0465770 255 0 0
-0.0224890 0.0571994 -0.0466093 255 0 0
-0.0208335 0.0571892 -0.0466423 255 0 0
-0.0191629 0.0571850 -0.0466655 255 0 0
-0.0175072 0.0571854 -0.0466820 255 0 0
-0.0158361 0.0571917 -0.0466903 255 0 0
-0.0141804 0.0571720 -0.0466955 255 0 0
-0.0125001 0.0571746 -0.0466976 255 0 0
-0.0108281 0.0571768 -0.0466996 255 0 0
-0.0091562 0.0571782 -0.0467009 255 0 0
-0.0074927 0.0571788 -0.0467010 255 0 0
-0.0058289 0.0571766 -0.0467001 255 0 0
-0.0041486 0.0571805 -0.0466989 255 0 0
-0.0024746 0.0571785 -0.0466969 255 0 0
-0.0008051 0.0571724 -0.0466921 255 0 0
0.0008586 0.0571589 -0.0466882 255 0 0
0.0025207 0.0571599 -0.0466767 255 0 0
0.0041949 0.0571883 -0.0466591 255 0 0
0.0058629 0.0572061 -0.0466334 255 0 0
0.0075267 0.0572331 -0.0466054 255 0 0
0.0091861 0.0572715 -0.0465720 255 0 0
0.0108420 0.0573066 -0.0465457 255 0 0
0.0125311 0.0573083 -0.0465023 255 0 0
-0.0258486 0.0588912 -0.0465671 255 0 0
-0.0241772 0.0588521 -0.0466118 255 0 0
-0.0225056 0.0588211 -0.0466490 255 0 0
-0.0208346 0.0588138 -0.0466747 255 0 0
-0.0191790 0.0588105 -0.0466936 255 0 0
-0.0175075 0.0588101 -0.0467066 255 0 0
-0.0158523 0.0588138 -0.0467028 255 0 0
-0.0141807 0.0588171 -0.0466950 255 0 0
-0.0125006 0.0588235 -0.0466956 255 0 0
-0.0108283 0.0588280 -0.0466969 255 0 0
-0.0091566 0.0588125 -0.0466972 255 0 0
-0.0074928 0.0588112 -0.0466964 255 0 0
-0.0058289 0.0588106 -0.0466947 255 0 0
-0.0041488 0.0588077 -0.0466941 255 0 0
-0.0024746 0.0588160 -0.0466950 255 0 0
-0.0008042 0.0588180 -0.0467009 255 0 0
0.0008602 0.0588093 -0.0467039 255 0 0
0.0025231 0.0588096 -0.0466925 255 0 0
0.0041989 0.0588175 -0.0466797 255 0 0
0.0058670 0.0588349 -0.0466595 255 0 0
0.0075312 0.0588611 -0.0466290 255 0 0
0.0091864 0.0588967 -0.0465917 255 0 0
0.0108499 0.0589306 -0.0465622 255 0 0
0.0125307 0.0589566 -0.0465190 255 0 0
0.0142067 0.0589918 -0.0464905 255 0 0
-0.0275200 0.0605876 -0.0464884 255 0 0
-0.0258327 0.0605314 -0.0465303 255 0 0
-0.0241774 0.0604911 -0.0465740 255 0 0
-0.0225064 0.0604662 -0.0466100 255 0 0
-0.0208506 0.0604646 -0.0466348 255 0 0
-0.0191792 0.0604636 -0.0466466 255 0 0
-0.0175078 0.0604627 -0.0466545 255 0 0
-0.0158524 0.0604617 -0.0466570 255 0 0
-0.0141808 0.0604614 -0.0466588 255 0 0
-0.0125085 0.0604657 -0.0466590 255 0 0
-0.0108285 0.0604742 -0.0466585 255 0 0
-0.0091566 0.0604803 -0.0466573 255 0 0
-0.0074928 0.0604847 -0.0466555 255 0 0
-0.0058287 0.0604870 -0.0466528 255 0 0
-0.0041486 0.0604787 -0.0466525 255 0 0
-0.0024745 0.0604701 -0.0466504 255 0 0
-0.0008035 0.0604646 -0.0466462 255 0 0
0.0008619 0.0604629 -0.0466402 255 0 0
0.0025263 0.0604675 -0.0466367 255 0 0
0.0042031 0.0604736 -0.0466354 255 0 0
0.0058713 0.0604910 -0.0466175 255 0 0
0.0075379 0.0605245 -0.0465887 255 0 0
0.0091945 0.0605666 -0.0465491 255 0 0
0.0108582 0.0606071 -0.0465202 255 0 0
0.0125307 0.0606794 -0.0464622 255 0 0
0.0142022 0.0606851 -0.0464517 255 0 0
-0.0291914 0.0622966 -0.0463746 255 0 0
-0.0275196 0.0622513 -0.0464205 255 0 0
-0.0258483 0.0622380 -0.0464601 255 0 0
-0.0241775 0.0621915 -0.0464926 255 0 0
-0.0225221 0.0621737 -0.0465195 255 0 0
-0.0208504 0.0621739 -0.0465347 255 0 0
-0.0191788 0.0621749 -0.0465457 255 0 0
-0.0175076 0.0621767 -0.0465529 255 0 0
-0.0158518 0.0621798 -0.0465553 255 0 0
-0.0141882 0.0621821 -0.0465570 255 0 0
-0.0125080 0.0621894 -0.0465564 255 0 0
-0.0108279 0.0621937 -0.0465552 255 0 0
-0.0091559 0.0621953 -0.0465537 255 0 0
-0.0074921 0.0621939 -0.0465517 255 0 0
-0.0058281 0.0621921 -0.0465487 255 0 0
-0.0041479 0.0621853 -0.0465485 255 0 0
-0.0024718 0.0621795 -0.0465465 255 0 0
-0.0008016 0.0621751 -0.0465423 255 0 0
0.0008635 0.0621714 -0.0465360 255 0 0
0.0025278 0.0621757 -0.0465245 255 0 0
0.0042040 0.0621745 -0.0465165 255 0 0
0.0058760 0.0621855 -0.0465002 255 0 0
0.0075406 0.0622088 -0.0464755 255 0 0
0.0092006 0.0622447 -0.0464429 255 0 0
0.0108591 0.0622826 -0.0464146 255 0 0
0.0125236 0.0623526 -0.0463615 255 0 0
0.0141952 0.0624137 -0.0463458 255 0 0
0.0158676 0.0624655 -0.0463287 255 0 0
-0.0308609 0.0640814 -0.0461966 255 0 0
-0.0291909 0.0640205 -0.0462393 255 0 0
-0.0275198 0.0639777 -0.0462838 255 0 0
-0.0258487 0.0639485 -0.0463177 255 0 0
-0.0241777 0.0639361 -0.0463397 255 0 0
-0.0225218 0.0639268 -0.0463573 255 0 0
-0.0208501 0.0639304 -0.0463672 255 0 0
-0.0191785 0.0639352 -0.0463744 255 0 0
-0.0175072 0.0639402 -0.0463789 255 0 0
-0.0158513 0.0639452 -0.0463764 255 0 0
-0.0141878 0.0639487 -0.0463759 255 0 0
-0.0125073 0.0639543 -0.0463669 255 0 0
-0.0108272 0.0639573 -0.0463598 255 0 0
-0.0091552 0.0639575 -0.0463540 255 0 0
-0.0074913 0.0639552 -0.0463508 255 0 0
-0.0058273 0.0639525 -0.0463514 255 0 0
-0.0041469 0.0639467 -0.0463538 255 0 0
-0.0024709 0.0639418 -0.0463580 255 0 0
-0.0008001 0.0639377 -0.0463561 255 0 0
0.0008651 0.0639347 -0.0463490 255 0 0
0.0025294 0.0639390 -0.0463376 255 0 0
0.0042071 0.0639294 -0.0463297 255 0 0
0.0058779 0.0639352 -0.0463146 255 0 0
0.0075448 0.0639556 -0.0462925 255 0 0
0.0092043 0.0639915 -0.0462634 255 0 0
0.0108679 0.0640309 -0.0462420 255 0 0
0.0125238 0.0641069 -0.0462134 255 0 0
0.0141889 0.0641904 -0.0462466 255 0 0
0.0158681 0.0642497 -0.0462464 255 0 0
-0.0308462 0.0657839 -0.0461379 255 0 0
-0.0291904 0.0657242 -0.0461875 255 0 0
-0.0275200 0.0656810 -0.0462238 255 0 0
-0.0258491 0.0656541 -0.0462395 255 0 0
-0.0241934 0.0656454 -0.0462445 255 0 0
-0.0225220 0.0656405 -0.0462537 255 0 0
-0.0208501 0.0656465 -0.0462608 255 0 0
-0.0191787 0.0656521 -0.0462662 255 0 0
-0.0175075 0.0656572 -0.0462698 255 0 0
-0.0158512 0.0656626 -0.0462713 255 0 0
-0.0141876 0.0656670 -0.0462719 255 0 0
-0.0125070 0.0656709 -0.0462707 255 0 0
-0.0108269 0.0656736 -0.0462688 255 0 0
-0.0091549 0.0656746 -0.0462665 255 0 0
-0.0074910 0.0656740 -0.0462633 255 0 0
-0.0058269 0.0656733 -0.0462594 255 0 0
-0.0041465 0.0656658 -0.0462586 255 0 0
-0.0024705 0.0656605 -0.0462557 255 0 0
-0.0007992 0.0656572 -0.0462508 255 0 0
0.0008663 0.0656556 -0.0462440 255 0 0
0.0025315 0.0656617 -0.0462340 255 0 0
0.0042094 0.0656492 -0.0462262 255 0 0
0.0058815 0.0656533 -0.0462264 255 0 0
0.0075465 0.0656732 -0.0462081 255 0 0
0.0092049 0.0657098 -0.0461854 255 0 0
0.0108691 0.0657511 -0.0461693 255 0 0
0.0125242 0.0658239 -0.0461368 255 0 0
0.0141881 0.0658893 -0.0461080 255 0 0
0.0158680 0.0659454 -0.0461200 255 0 0
-0.0325341 0.0675521 -0.0460735 255 0 0
-0.0308468 0.0675058 -0.0460847 255 0 0
-0.0291909 0.0674522 -0.0461233 255 0 0
-0.0275202 0.0674125 -0.0461344 255 0 0
-0.0258647 0.0673855 -0.0461591 255 0 0
-0.0241934 0.0673750 -0.0461717 255 0 0
-0.0225225 0.0673680 -0.0461826 255 0 0
-0.0208504 0.0673719 -0.0461917 255 0 0
-0.0191785 0.0673759 -0.0461992 255 0 0
-0.0175222 0.0673793 -0.0462050 255 0 0
-0.0158507 0.0673819 -0.0462091 255 0 0
-0.0141870 0.0673851 -0.0462124 255 0 0
-0.0125066 0.0673911 -0.0462138 255 0 0
-0.0108265 0.0673969 -0.0462144 255 0 0
-0.0091544 0.0674019 -0.0462146 255 0 0
-0.0074905 0.0674070 -0.0462137 255 0 0
-0.0058228 0.0674116 -0.0462125 255 0 0
-0.0041461 0.0673939 -0.0462148 255 0 0
-0.0024699 0.0673827 -0.0462149 255 0 0
-0.0007987 0.0673772 -0.0462129 255 0 0
0.0008674 0.0673793 -0.0462086 255 0 0
0.0025326 0.0673879 -0.0462019 255 0 0
0.0042100 0.0673735 -0.0461954 255 0 0
0.0058820 0.0673761 -0.0461852 255 0 0
0.0075498 0.0673947 -0.0461711 255 0 0
0.0092132 0.0674296 -0.0461545 255 0 0
0.0108770 0.0674670 -0.0461493 255 0 0
0.0125282 0.0675357 -0.0461248 255 0 0
0.0141883 0.0675949 -0.0460973 255 0 0
0.0158681 0.0676431 -0.0461107 255 0 0
-0.0342376 0.0693243 -0.0460029 255 0 0
-0.0325338 0.0692718 -0.0460105 255 0 0
-0.0308622 0.0692155 -0.0460435 255 0 0
-0.0291914 0.0691517 -0.0460778 255 0 0
-0.0275208 0.0691053 -0.0461204 255 0 0
-0.0258651 0.0690719 -0.0461548 255 0 0
-0.0241940 0.0690593 -0.0461670 255 0 0
-0.0225384 0.0690490 -0.0461779 255 0 0
-0.0208513 0.0690558 -0.0461811 255 0 0
-0.0191787 0.0690607 -0.0461851 255 0 0
-0.0175223 0.0690650 -0.0461840 255 0 0
-0.0158507 0.0690676 -0.0461848 255 0 0
-0.0141857 0.0690707 -0.0461874 255 0 0
-0.0125065 0.0690828 -0.0461675 255 0 0
-0.0108266 0.0690935 -0.0461722 255 0 0
-0.0091547 0.0691035 -0.0461738 255 0 0
-0.0074905 0.0691135 -0.0461782 255 0 0
-0.0058227 0.0691228 -0.0461787 255 0 0
-0.0041461 0.0690952 -0.0461844 255 0 0
-0.0024699 0.0690783 -0.0461880 255 0 0
-0.0007984 0.0690710 -0.0462010 255 0 0
0.0008678 0.0690748 -0.0462071 255 0 0
0.0025336 0.0690859 -0.0462020 255 0 0
0.0042100 0.0690722 -0.0461938 255 0 0
0.0058820 0.0690775 -0.0461840 255 0 0
0.0075499 0.0691014 -0.0461648 255 0 0
0.0092134 0.0691425 -0.0461426 255 0 0
0.0108773 0.0691871 -0.0461182 255 0 0
0.0125326 0.0692567 -0.0460839 255 0 0
0.0141943 0.0693097 -0.0460566 255 0 0
0.0158686 0.0693460 -0.0460991 255 0 0
-0.0342366 0.0710456 -0.0460067 255 0 0
-0.0325334 0.0709910 -0.0460053 255 0 0
-0.0308619 0.0709447 -0.0460018 255 0 0
-0.0291910 0.0709076 -0.0460273 255 0 0
-0.0275355 0.0708768 -0.0460490 255 0 0
-0.0258642 0.0708531 -0.0460662 255 0 0
-0.0241933 0.0708365 -0.0460770 255 0 0
-0.0225375 0.0708238 -0.0460834 255 0 0
-0.0208652 0.0708177 -0.0460925 255 0 0
-0.0191931 0.0708140 -0.0460800 255 0 0
-0.0175213 0.0708129 -0.0460882 255 0 0
-0.0158496 0.0708151 -0.0460958 255 0 0
-0.0141783 0.0708186 -0.0461021 255 0 0
-0.0125055 0.0708118 -0.0461078 255 0 0
-0.0108259 0.0708097 -0.0461117 255 0 0
-0.0091605 0.0708114 -0.0461139 255 0 0
-0.0074893 0.0708195 -0.0461139 255 0 0
-0.0058216 0.0708269 -0.0461137 255 0 0
-0.0041448 0.0708089 -0.0461181 255 0 0
-0.0024687 0.0707990 -0.0461206 255 0 0
-0.0007972 0.0707955 -0.0461211 255 0 0
0.0008698 0.0708013 -0.0461194 255 0 0
0.0025364 0.0708114 -0.0461161 255 0 0
0.0042113 0.0708002 -0.0461208 255 0 0
0.0058831 0.0708029 -0.0461280 255 0 0
0.0075508 0.0708194 -0.0461239 255 0 0
0.0092141 0.0708492 -0.0461143 255 0 0
0.0108777 0.0708802 -0.0461063 255 0 0
0.0125327 0.0709554 -0.0460961 255 0 0
0.0141963 0.0710155 -0.0460734 255 0 0
0.0158686 0.0710607 -0.0460905 255 0 0
-0.0342056 0.0727827 -0.0460462 255 0 0
-0.0325332 0.0727192 -0.0460315 255 0 0
-0.0308619 0.0726568 -0.0459984 255 0 0
-0.0291912 0.0726183 -0.0460001 255 0 0
-0.0275354 0.0725877 -0.0460072 255 0 0
-0.0258640 0.0725646 -0.0460214 255 0 0
-0.0241980 0.0725445 -0.0460269 255 0 0
-0.0225373 0.0725289 -0.0460148 255 0 0
-0.0208650 0.0725159 -0.0460242 255 0 0
-0.0191929 0.0725083 -0.0460334 255 0 0
-0.0175210 0.0725046 -0.0460426 255 0 0
-0.0158494 0.0725074 -0.0460509 255 0 0
-0.0141779 0.0725118 -0.0460575 255 0 0
-0.0125051 0.0724980 -0.0460647 255 0 0
-0.0108316 0.0724912 -0.0460683 255 0 0
-0.0091605 0.0724899 -0.0460704 255 0 0
-0.0074890 0.0724973 -0.0460686 255 0 0
-0.0058213 0.0725043 -0.0460673 255 0 0
-0.0041443 0.0724913 -0.0460710 255 0 0
-0.0024683 0.0724843 -0.0460729 255 0 0
-0.0007970 0.0724834 -0.0460729 255 0 0
0.0008705 0.0724889 -0.0460705 255 0 0
0.0025370 0.0724986 -0.0460670 255 0 0
0.0042144 0.0724933 -0.0460637 255 0 0
0.0058834 0.0724989 -0.0460586 255 0 0
0.0075510 0.0725201 -0.0460838 255 0 0
0.0092142 0.0725561 -0.0460958 255 0 0
0.0108776 0.0725952 -0.0461098 255 0 0
0.0125330 0.0726912 -0.0461330 255 0 0
0.0141965 0.0727052 -0.0461198 255 0 0
0.0158690 0.0727489 -0.0461195 255 0 0
-0.0342055 0.0744328 -0.0460054 255 0 0
-0.0325337 0.0743828 -0.0460078 255 0 0
-0.0308624 0.0743358 -0.0460037 255 0 0
-0.0292064 0.0743080 -0.0460211 255 0 0
-0.0275355 0.0742819 -0.0460353 255 0 0
-0.0258642 0.0742560 -0.0460478 255 0 0
-0.0242085 0.0742300 -0.0460337 255 0 0
-0.0225374 0.0742099 -0.0460433 255 0 0
-0.0208651 0.0741913 -0.0460529 255 0 0
-0.0191930 0.0741799 -0.0460621 255 0 0
-0.0175210 0.0741735 -0.0460711 255 0 0
-0.0158493 0.0741750 -0.0460808 255 0 0
-0.0141780 0.0741777 -0.0460878 255 0 0
-0.0125051 0.0741633 -0.0460962 255 0 0
-0.0108295 0.0741556 -0.0461018 255 0 0
-0.0091593 0.0741542 -0.0461043 255 0 0
-0.0074889 0.0741622 -0.0461025 255 0 0
-0.0058212 0.0741699 -0.0461000 255 0 0
-0.0041430 0.0741592 -0.0461048 255 0 0
-0.0024682 0.0741537 -0.0461065 255 0 0
-0.0007966 0.0741525 -0.0461067 255 0 0
0.0008705 0.0741573 -0.0461050 255 0 0
0.0025368 0.0741686 -0.0460998 255 0 0
0.0042116 0.0741723 -0.0460982 255 0 0
0.0058835 0.0741872 -0.0460919 255 0 0
0.0075500 0.0742127 -0.0461056 255 0 0
0.0092062 0.0742481 -0.0460965 255 0 0
0.0108696 0.0742845 -0.0460867 255 0 0
0.0125326 0.0743213 -0.0460769 255 0 0
0.0141966 0.0743846 -0.0460780 255 0 0
0.0158693 0.0744301 -0.0460743 255 0 0
-0.0342050 0.0761098 -0.0459908 255 0 0
-0.0325335 0.0760646 -0.0460122 255 0 0
-0.0308626 0.0760212 -0.0460062 255 0 0
-0.0292070 0.0759930 -0.0460249 255 0 0
-0.0275359 0.0759637 -0.0460416 255 0 0
-0.0258644 0.0759348 -0.0460518 255 0 0
-0.0241939 0.0759045 -0.0460408 255 0 0
-0.0225377 0.0758799 -0.0460512 255 0 0
-0.0208653 0.0758584 -0.0460600 255 0 0
-0.0191932 0.0758437 -0.0460687 255 0 0
-0.0175212 0.0758347 -0.0460777 255 0 0
-0.0158496 0.0758331 -0.0460863 255 0 0
-0.0141783 0.0758338 -0.0460933 255 0 0
-0.0125053 0.0758291 -0.0461034 255 0 0
-0.0108279 0.0758293 -0.0461104 255 0 0
-0.0091588 0.0758324 -0.0461149 255 0 0
-0.0074891 0.0758423 -0.0461158 255 0 0
-0.0058215 0.0758500 -0.0461161 255 0 0
-0.0041421 0.0758360 -0.0461210 255 0 0
-0.0024684 0.0758270 -0.0461235 255 0 0
-0.0007969 0.0758235 -0.0461237 255 0 0
0.0008697 0.0758243 -0.0461213 255 0 0
0.0025347 0.0758344 -0.0461161 255 0 0
0.0042111 0.0758496 -0.0461141 255 0 0
0.0058803 0.0758757 -0.0461073 255 0 0
0.0075465 0.0759125 -0.0461173 255 0 0
0.0092055 0.0759205 -0.0461036 255 0 0
0.0108686 0.0759577 -0.0460901 255 0 0
0.0125296 0.0760325 -0.0460764 255 0 0
0.0141970 0.0760896 -0.0460803 255 0 0
0.0158848 0.0761294 -0.0460805 255 0 0
-0.0342050 0.0777903 -0.0459954 255 0 0
-0.0325337 0.0777566 -0.0460034 255 0 0
-0.0308630 0.0777261 -0.0459846 255 0 0
-0.0292069 0.0776995 -0.0460007 255 0 0
-0.0275358 0.0776691 -0.0460191 255 0 0
-0.0258644 0.0775980 -0.0460295 255 0 0
-0.0241938 0.0775708 -0.0460254 255 0 0
-0.0225378 0.0775538 -0.0460372 255 0 0
-0.0208655 0.0775350 -0.0460481 255 0 0
-0.0191932 0.0775264 -0.0460585 255 0 0
-0.0175215 0.0775137 -0.0460689 255 0 0
-0.0158499 0.0775092 -0.0460784 255 0 0
-0.0141785 0.0775095 -0.0460836 255 0 0
-0.0125055 0.0775123 -0.0460961 255 0 0
-0.0108296 0.0775192 -0.0461030 255 0 0
-0.0091592 0.0775251 -0.0461110 255 0 0
-0.0074894 0.0775366 -0.0461122 255 0 0
-0.0058218 0.0775449 -0.0461123 255 0 0
-0.0041441 0.0775319 -0.0461161 255 0 0
-0.0024688 0.0775195 -0.0461204 255 0 0
-0.0007978 0.0775144 -0.0461188 255 0 0
0.0008683 0.0775118 -0.0461139 255 0 0
0.0025325 0.0774996 -0.0461027 255 0 0
0.0042104 0.0775067 -0.0461004 255 0 0
0.0058788 0.0775495 -0.0460831 255 0 0
0.0075424 0.0775902 -0.0460926 255 0 0
0.0091974 0.0776354 -0.0460880 255 0 0
0.0108608 0.0776717 -0.0460832 255 0 0
0.0125308 0.0777421 -0.0460730 255 0 0
0.0142051 0.0777940 -0.0460750 255 0 0
0.0158859 0.0778293 -0.0460924 255 0 0
-0.0342359 0.0795064 -0.0460061 255 0 0
-0.0325333 0.0795048 -0.0459952 255 0 0
-0.0308617 0.0794694 -0.0460059 255 0 0
-0.0291910 0.0794239 -0.0460071 255 0 0
-0.0275352 0.0793830 -0.0460268 255 0 0
-0.0258639 0.0793458 -0.0460426 255 0 0
-0.0241934 0.0793135 -0.0460493 255 0 0
-0.0225373 0.0792845 -0.0460380 255 0 0
-0.0208649 0.0792601 -0.0460425 255 0 0
-0.0191926 0.0792399 -0.0460480 255 0 0
-0.0175208 0.0792251 -0.0460543 255 0 0
-0.0158492 0.0792137 -0.0460618 255 0 0
-0.0141779 0.0792056 -0.0460686 255 0 0
-0.0125050 0.0792085 -0.0460771 255 0 0
-0.0108250 0.0792127 -0.0460847 255 0 0
-0.0091529 0.0792177 -0.0460908 255 0 0
-0.0074889 0.0792254 -0.0460956 255 0 0
-0.0058212 0.0792316 -0.0460993 255 0 0
-0.0041407 0.0792217 -0.0461026 255 0 0
-0.0024682 0.0792157 -0.0461052 255 0 0
-0.0007968 0.0792152 -0.0461064 255 0 0
0.0008690 0.0792177 -0.0461067 255 0 0
0.0025327 0.0792305 -0.0461034 255 0 0
0.0042073 0.0792655 -0.0460999 255 0 0
0.0058751 0.0793050 -0.0461123 255 0 0
0.0075384 0.0793382 -0.0461013 255 0 0
0.0091892 0.0793508 -0.0460802 255 0 0
0.0108478 0.0793914 -0.0460875 255 0 0
0.0125334 0.0794538 -0.0460825 255 0 0
0.0142213 0.0794981 -0.0460875 255 0 0
-0.0342356 0.0812901 -0.0460294 255 0 0
-0.0325332 0.0812616 -0.0460438 255 0 0
-0.0308603 0.0811920 -0.0460376 255 0 0
-0.0291896 0.0811793 -0.0460394 255 0 0
-0.0275339 0.0811323 -0.0460507 255 0 0
-0.0258631 0.0810861 -0.0460529 255 0 0
-0.0241923 0.0810517 -0.0460557 255 0 0
-0.0225366 0.0810208 -0.0460363 255 0 0
-0.0208642 0.0809933 -0.0460306 255 0 0
-0.0191919 0.0809701 -0.0460298 255 0 0
-0.0175202 0.0809522 -0.0460332 255 0 0
-0.0158487 0.0809367 -0.0460378 255 0 0
-0.0141775 0.0809254 -0.0460436 255 0 0
-0.0125045 0.0809254 -0.0460501 255 0 0
-0.0108246 0.0809271 -0.0460556 255 0 0
-0.0091525 0.0809319 -0.0460634 255 0 0
-0.0074886 0.0809386 -0.0460708 255 0 0
-0.0058209 0.0809449 -0.0460784 255 0 0
-0.0041423 0.0809437 -0.0460857 255 0 0
-0.0024677 0.0809442 -0.0460941 255 0 0
-0.0007972 0.0809489 -0.0461028 255 0 0
0.0008687 0.0809564 -0.0461138 255 0 0
0.0025311 0.0809758 -0.0461266 255 0 0
0.0042076 0.0810216 -0.0461505 255 0 0
0.0058754 0.0810628 -0.0461417 255 0 0
0.0075348 0.0810594 -0.0461239 255 0 0
0.0091858 0.0810993 -0.0461107 255 0 0
0.0108402 0.0811326 -0.0461085 255 0 0
0.0125411 0.0811848 -0.0460923 255 0 0
0.0142375 0.0812592 -0.0460943 255 0 0
-0.0342362 0.0829394 -0.0459841 255 0 0
-0.0325572 0.0829072 -0.0459854 255 0 0
-0.0308601 0.0828764 -0.0459727 255 0 0
-0.0291897 0.0828175 -0.0459758 255 0 0
-0.0275340 0.0827671 -0.0459989 255 0 0
-0.0258632 0.0827693 -0.0460191 255 0 0
-0.0241921 0.0827379 -0.0460336 255 0 0
-0.0225367 0.0827094 -0.0460427 255 0 0
-0.0208495 0.0826853 -0.0460255 255 0 0
-0.0191773 0.0826650 -0.0460290 255 0 0
-0.0175204 0.0826475 -0.0460339 255 0 0
-0.0158488 0.0826314 -0.0460397 255 0 0
-0.0141777 0.0826201 -0.0460447 255 0 0
-0.0125046 0.0826167 -0.0460536 255 0 0
-0.0108247 0.0826160 -0.0460605 255 0 0
-0.0091583 0.0826177 -0.0460665 255 0 0
-0.0074889 0.0826211 -0.0460708 255 0 0
-0.0058214 0.0826264 -0.0460741 255 0 0
-0.0041446 0.0826307 -0.0460726 255 0 0
-0.0024701 0.0826373 -0.0460718 255 0 0
-0.0007996 0.0826437 -0.0460728 255 0 0
0.0008663 0.0826487 -0.0460766 255 0 0
0.0025287 0.0826179 -0.0460963 255 0 0
0.0042071 0.0826602 -0.0460960 255 0 0
0.0058731 0.0827015 -0.0460864 255 0 0
0.0075343 0.0827437 -0.0460717 255 0 0
0.0091811 0.0827843 -0.0460747 255 0 0
0.0108382 0.0828185 -0.0460633 255 0 0
0.0125413 0.0828694 -0.0460682 255 0 0
0.0142382 0.0829318 -0.0460853 255 0 0
-0.0342689 0.0846366 -0.0459898 255 0 0
-0.0325638 0.0846014 -0.0459768 255 0 0
-0.0308598 0.0845688 -0.0459638 255 0 0
-0.0291895 0.0845090 -0.0459923 255 0 0
-0.0275338 0.0844606 -0.0459962 255 0 0
-0.0258630 0.0844201 -0.0460187 255 0 0
-0.0241919 0.0843908 -0.0460361 255 0 0
-0.0225215 0.0843649 -0.0460509 255 0 0
-0.0208487 0.0843415 -0.0460362 255 0 0
-0.0191768 0.0843224 -0.0460429 255 0 0
-0.0175205 0.0843073 -0.0460486 255 0 0
-0.0158491 0.0842973 -0.0460517 255 0 0
-0.0141780 0.0842896 -0.0460548 255 0 0
-0.0125049 0.0842821 -0.0460649 255 0 0
-0.0108263 0.0842777 -0.0460728 255 0 0
-0.0091606 0.0842769 -0.0460785 255 0 0
-0.0074893 0.0842787 -0.0460815 255 0 0
-0.0058255 0.0842804 -0.0460848 255 0 0
-0.0041460 0.0842957 -0.0460797 255 0 0
-0.0024736 0.0843059 -0.0460776 255 0 0
-0.0008034 0.0843141 -0.0460976 255 0 0
0.0008627 0.0843158 -0.0461018 255 0 0
0.0025261 0.0843265 -0.0461014 255 0 0
0.0042029 0.0843652 -0.0460986 255 0 0
0.0058707 0.0844055 -0.0460887 255 0 0
0.0075340 0.0844470 -0.0460743 255 0 0
0.0091809 0.0844895 -0.0460777 255 0 0
0.0108435 0.0845236 -0.0460620 255 0 0
0.0125489 0.0845721 -0.0460790 255 0 0
-0.0342704 0.0863379 -0.0459666 255 0 0
-0.0325640 0.0862993 -0.0459607 255 0 0
-0.0308599 0.0862639 -0.0459552 255 0 0
-0.0291896 0.0862068 -0.0459887 255 0 0
-0.0275337 0.0861540 -0.0459924 255 0 0
-0.0258624 0.0861204 -0.0460090 255 0 0
-0.0241917 0.0860985 -0.0460246 255 0 0
-0.0225205 0.0860809 -0.0460364 255 0 0
-0.0208484 0.0860636 -0.0460431 255 0 0
-0.0191767 0.0860493 -0.0460472 255 0 0
-0.0175204 0.0860388 -0.0460314 255 0 0
-0.0158493 0.0860335 -0.0460320 255 0 0
-0.0141780 0.0860298 -0.0460325 255 0 0
-0.0125051 0.0860220 -0.0460424 255 0 0
-0.0108327 0.0860162 -0.0460504 255 0 0
-0.0091609 0.0860152 -0.0460544 255 0 0
-0.0074935 0.0860146 -0.0460576 255 0 0
-0.0058261 0.0860147 -0.0460606 255 0 0
-0.0041496 0.0860321 -0.0460807 255 0 0
-0.0024770 0.0860415 -0.0460840 255 0 0
-0.0008062 0.0860459 -0.0460844 255 0 0
0.0008603 0.0860360 -0.0460915 255 0 0
0.0025239 0.0860390 -0.0460912 255 0 0
0.0042025 0.0860775 -0.0460891 255 0 0
0.0058707 0.0861178 -0.0460800 255 0 0
0.0075343 0.0861575 -0.0460903 255 0 0
0.0091888 0.0861967 -0.0460681 255 0 0
0.0108522 0.0862294 -0.0460762 255 0 0
0.0125570 0.0862747 -0.0460881 255 0 0
-0.0325649 0.0880558 -0.0459981 255 0 0
-0.0308761 0.0879872 -0.0459822 255 0 0
-0.0292017 0.0879347 -0.0459738 255 0 0
-0.0275175 0.0878909 -0.0459898 255 0 0
-0.0258463 0.0878567 -0.0459821 255 0 0
-0.0241904 0.0878336 -0.0459992 255 0 0
-0.0225191 0.0878139 -0.0460138 255 0 0
-0.0208473 0.0877917 -0.0460290 255 0 0
-0.0191755 0.0877737 -0.0460410 255 0 0
-0.0175045 0.0877603 -0.0460474 255 0 0
-0.0158486 0.0877523 -0.0460498 255 0 0
-0.0141777 0.0877466 -0.0460533 255 0 0
-0.0125047 0.0877388 -0.0460407 255 0 0
-0.0108326 0.0877348 -0.0460464 255 0 0
-0.0091608 0.0877340 -0.0460629 255 0 0
-0.0075016 0.0877363 -0.0460701 255 0 0
-0.0058387 0.0877391 -0.0460737 255 0 0
-0.0041618 0.0877532 -0.0460645 255 0 0
-0.0024901 0.0877648 -0.0460595 255 0 0
-0.0008190 0.0877752 -0.0460798 255 0 0
0.0008497 0.0877846 -0.0460859 255 0 0
0.0025177 0.0877988 -0.0460856 255 0 0
0.0041947 0.0878275 -0.0460828 255 0 0
0.0058670 0.0878585 -0.0460764 255 0 0
0.0075387 0.0878912 -0.0460850 255 0 0
0.0092059 0.0879258 -0.0460795 255 0 0
0.0108775 0.0879520 -0.0460707 255 0 0
-0.0308772 0.0897589 -0.0459853 255 0 0
-0.0291896 0.0896679 -0.0459931 255 0 0
-0.0275170 0.0896285 -0.0459869 255 0 0
-0.0258451 0.0895948 -0.0460054 255 0 0
-0.0241866 0.0895747 -0.0460061 255 0 0
-0.0225181 0.0896003 -0.0460196 255 0 0
-0.0208463 0.0895913 -0.0460363 255 0 0
-0.0191745 0.0895360 -0.0460499 255 0 0
-0.0175035 0.0895201 -0.0460604 255 0 0
-0.0158479 0.0895119 -0.0460670 255 0 0
-0.0141770 0.0895056 -0.0460719 255 0 0
-0.0125040 0.0895024 -0.0460797 255 0 0
-0.0108320 0.0895002 -0.0460836 255 0 0
-0.0091617 0.0895010 -0.0460841 255 0 0
-0.0075058 0.0895049 -0.0460805 255 0 0
-0.0058464 0.0895104 -0.0460769 255 0 0
-0.0041700 0.0895142 -0.0460829 255 0 0
-0.0024956 0.0895184 -0.0460747 255 0 0
-0.0008246 0.0895300 -0.0460663 255 0 0
0.0058626 0.0895860 -0.0460712 255 0 0
0.0075362 0.0896175 -0.0460637 255 0 0
0.0092078 0.0896497 -0.0460492 255 0 0
-0.0292197 0.0913778 -0.0459919 255 0 0
-0.0275323 0.0913449 -0.0459723 255 0 0
-0.0258598 0.0913186 -0.0459788 255 0 0
-0.0241881 0.0912995 -0.0459717 255 0 0
-0.0225027 0.0912821 -0.0459842 255 0 0
-0.0208460 0.0912676 -0.0459778 255 0 0
-0.0191743 0.0912536 -0.0459920 255 0 0
-0.0175035 0.0912417 -0.0460044 255 0 0
-0.0158478 0.0912312 -0.0460123 255 0 0
-0.0141770 0.0912240 -0.0460179 255 0 0
-0.0125040 0.0912208 -0.0460248 255 0 0
-0.0108321 0.0912214 -0.0460279 255 0 0
-0.0091687 0.0912239 -0.0460277 255 0 0
-0.0075097 0.0912283 -0.0460243 255 0 0
-0.0058475 0.0912358 -0.0460229 255 0 0
-0.0041704 0.0912327 -0.0460334 255 0 0
-0.0024943 0.0912349 -0.0460494 255 0 0
0.0058826 0.0913174 -0.0460772 255 0 0
0.0075630 0.0913369 -0.0460762 255 0 0
-0.0275488 0.0930652 -0.0459754 255 0 0
-0.0258615 0.0930394 -0.0459612 255 0 0
-0.0241892 0.0930197 -0.0459764 255 0 0
-0.0225025 0.0930021 -0.0459650 255 0 0
-0.0208459 0.0929903 -0.0459872 255 0 0
-0.0191744 0.0929783 -0.0460045 255 0 0
-0.0175181 0.0929680 -0.0459936 255 0 0
-0.0158478 0.0929574 -0.0460014 255 0 0
-0.0141765 0.0929513 -0.0460083 255 0 0
-0.0125042 0.0929531 -0.0460157 255 0 0
-0.0108323 0.0929575 -0.0460195 255 0 0
-0.0091689 0.0929634 -0.0460408 255 0 0
-0.0075085 0.0929728 -0.0460409 255 0 0
-0.0058467 0.0929827 -0.0460380 255 0 0
-0.0041634 0.0929752 -0.0460449 255 0 0
-0.0258758 0.0947584 -0.0459954 255 0 0
-0.0241889 0.0947359 -0.0459708 255 0 0
-0.0225162 0.0947136 -0.0459665 255 0 0
-0.0208457 0.0947272 -0.0459676 255 0 0
-0.0191746 0.0947210 -0.0459861 255 0 0
-0.0175192 0.0947129 -0.0460001 255 0 0
-0.0158478 0.0946938 -0.0460077 255 0 0
-0.0141763 0.0946766 -0.0460136 255 0 0
-0.0125042 0.0946822 -0.0460216 255 0 0
-0.0108323 0.0946906 -0.0460257 255 0 0
-0.0091690 0.0946996 -0.0460253 255 0 0
-0.0075054 0.0947120 -0.0460223 255 0 0
-0.0058411 0.0947248 -0.0460203 255 0 0
-0.0041586 0.0947105 -0.0460236 255 0 0
-0.0024810 0.0947077 -0.0460338 255 0 0
-0.0008080 0.0947161 -0.0460248 255 0 0
0.0008578 0.0947261 -0.0460176 255 0 0
0.0025301 0.0947312 -0.0460252 255 0 0
-0.0242062 0.0964313 -0.0459887 255 0 0
-0.0225337 0.0964116 -0.0459905 255 0 0
-0.0208620 0.0964081 -0.0459847 255 0 0
-0.0191910 0.0964003 -0.0459994 255 0 0
-0.0175193 0.0963901 -0.0460121 255 0 0
-0.0158475 0.0963756 -0.0460216 255 0 0
-0.0141720 0.0963654 -0.0460293 255 0 0
-0.0125038 0.0963655 -0.0460368 255 0 0
-0.0108319 0.0963674 -0.0460418 255 0 0
-0.0091682 0.0963710 -0.0460446 255 0 0
-0.0074967 0.0963769 -0.0460449 255 0 0
-0.0058249 0.0963843 -0.0460456 255 0 0
-0.0041491 0.0963873 -0.0460650 255 0 0
-0.0024752 0.0963937 -0.0460620 255 0 0
-0.0007985 0.0964342 -0.0460838 255 0 0
-0.0208788 0.0981377 -0.0459867 255 0 0
-0.0191917 0.0981496 -0.0459955 255 0 0
-0.0175196 0.0981383 -0.0460066 255 0 0
-0.0158475 0.0981112 -0.0460162 255 0 0
-0.0141678 0.0980720 -0.0459907 255 0 0
-0.0125037 0.0980675 -0.0459840 255 0 0
-0.0108320 0.0980660 -0.0459887 255 0 0
-0.0091604 0.0980667 -0.0459928 255 0 0
-0.0074880 0.0980698 -0.0459991 255 0 0
-0.0058054 0.0980720 -0.0460284 255 0 0
-0.0091691 0.0476397 -0.0449814 255 0 0
-0.0074890 0.0476358 -0.0449854 255 0 0
-0.0058129 0.0476328 -0.0449874 255 0 0
-0.0041453 0.0476224 -0.0449909 255 0 0
-0.0024735 0.0476160 -0.0449920 255 0 0
-0.0008031 0.0476139 -0.0449919 255 0 0
0.0008687 0.0476163 -0.0449888 255 0 0
0.0025439 0.0476198 -0.0449839 255 0 0
-0.0141752 0.0492534 -0.0450087 255 0 0
-0.0125049 0.0492829 -0.0450104 255 0 0
-0.0108331 0.0492876 -0.0450122 255 0 0
-0.0091613 0.0492889 -0.0450143 255 0 0
-0.0074883 0.0492865 -0.0450166 255 0 0
-0.0058133 0.0492854 -0.0450173 255 0 0
-0.0041443 0.0492754 -0.0450222 255 0 0
-0.0024739 0.0492698 -0.0450235 255 0 0
-0.0008047 0.0492683 -0.0450217 255 0 0
0.0008647 0.0492718 -0.0450159 255 0 0
0.0025358 0.0492784 -0.0450114 255 0 0
0.0042100 0.0492513 -0.0450019 255 0 0
-0.0191923 0.0508872 -0.0450134 255 0 0
-0.0175206 0.0509098 -0.0450207 255 0 0
-0.0158488 0.0509078 -0.0450280 255 0 0
-0.0141687 0.0509059 -0.0450343 255 0 0
-0.0125051 0.0509074 -0.0450392 255 0 0
-0.0108334 0.0509086 -0.0450432 255 0 0
-0.0091616 0.0509095 -0.0450463 255 0 0
-0.0074856 0.0509107 -0.0450483 255 0 0
-0.0058137 0.0509122 -0.0450482 255 0 0
-0.0041458 0.0509049 -0.0450537 255 0 0
-0.0024742 0.0509013 -0.0450545 255 0 0
-0.0008060 0.0509009 -0.0450509 255 0 0
0.0008613 0.0509049 -0.0450426 255 0 0
0.0025312 0.0509110 -0.0450354 255 0 0
0.0042054 0.0509148 -0.0450176 255 0 0
0.0058815 0.0508970 -0.0450053 255 0 0
0.0075578 0.0509083 -0.0449982 255 0 0
-0.0225358 0.0525288 -0.0450026 255 0 0
-0.0208642 0.0525548 -0.0450146 255 0 0
-0.0191924 0.0525538 -0.0450258 255 0 0
-0.0175206 0.0525514 -0.0450363 255 0 0
-0.0158331 0.0525462 -0.0450460 255 0 0
-0.0141689 0.0525426 -0.0450540 255 0 0
-0.0124972 0.0525391 -0.0450609 255 0 0
-0.0108255 0.0525381 -0.0450661 255 0 0
-0.0091618 0.0525388 -0.0450697 255 0 0
-0.0074859 0.0525423 -0.0450713 255 0 0
-0.0058141 0.0525460 -0.0450707 255 0 0
-0.0041463 0.0525406 -0.0450759 255 0 0
-0.0024746 0.0525386 -0.0450762 255 0 0
-0.0008072 0.0525397 -0.0450715 255 0 0
0.0008590 0.0525442 -0.0450619 255 0 0
0.0025268 0.0525503 -0.0450529 255 0 0
0.0042010 0.0525568 -0.0450300 255 0 0
0.0058732 0.0525656 -0.0450136 255 0 0
0.0075493 0.0525762 -0.0450027 255 0 0
0.0092215 0.0525625 -0.0449979 255 0 0
-0.0258800 0.0542166 -0.0449857 255 0 0
-0.0241926 0.0542142 -0.0449999 255 0 0
-0.0225194 0.0541913 -0.0450131 255 0 0
-0.0208478 0.0541859 -0.0450301 255 0 0
-0.0191763 0.0541818 -0.0450444 255 0 0
-0.0175050 0.0541792 -0.0450562 255 0 0
-0.0158334 0.0541781 -0.0450649 255 0 0
-0.0141693 0.0541776 -0.0450720 255 0 0
-0.0124975 0.0541761 -0.0450781 255 0 0
-0.0108258 0.0541758 -0.0450825 255 0 0
-0.0091620 0.0541765 -0.0450854 255 0 0
-0.0074900 0.0541788 -0.0450865 255 0 0
-0.0058184 0.0541801 -0.0450859 255 0 0
-0.0041465 0.0541787 -0.0450881 255 0 0
-0.0024746 0.0541776 -0.0450870 255 0 0
-0.0008062 0.0541768 -0.0450828 255 0 0
0.0008604 0.0541758 -0.0450754 255 0 0
0.0025268 0.0541790 -0.0450668 255 0 0
0.0042008 0.0541854 -0.0450471 255 0 0
0.0058719 0.0541965 -0.0450302 255 0 0
0.0075410 0.0542112 -0.0450161 255 0 0
0.0092129 0.0542306 -0.0450046 255 0 0
0.0108851 0.0542479 -0.0449958 255 0 0
-0.0258795 0.0558898 -0.0449748 255 0 0
-0.0241913 0.0558591 -0.0449882 255 0 0
-0.0225193 0.0558354 -0.0450038 255 0 0
-0.0208479 0.0558270 -0.0450247 255 0 0
-0.0191763 0.0558219 -0.0450410 255 0 0
-0.0175047 0.0558194 -0.0450536 255 0 0
-0.0158340 0.0558210 -0.0450615 255 0 0
-0.0141696 0.0558223 -0.0450677 255 0 0
-0.0124977 0.0558227 -0.0450730 255 0 0
-0.0108260 0.0558235 -0.0450768 255 0 0
-0.0091621 0.0558243 -0.0450790 255 0 0
-0.0074903 0.0558254 -0.0450794 255 0 0
-0.0058224 0.0558254 -0.0450785 255 0 0
-0.0041465 0.0558260 -0.0450829 255 0 0
-0.0024746 0.0558250 -0.0450812 255 0 0
-0.0008052 0.0558231 -0.0450718 255 0 0
0.0008615 0.0558190 -0.0450652 255 0 0
0.0025288 0.0558203 -0.0450563 255 0 0
0.0042008 0.0558260 -0.0450390 255 0 0
0.0058688 0.0558377 -0.0450219 255 0 0
0.0075407 0.0558542 -0.0450052 255 0 0
0.0092047 0.0558768 -0.0449880 255 0 0
0.0108766 0.0559004 -0.0449822 255 0 0
0.0125574 0.0559241 -0.0449801 255 0 0
-0.0275514 0.0575615 -0.0449754 255 0 0
-0.0258637 0.0575313 -0.0449894 255 0 0
-0.0241914 0.0575005 -0.0450112 255 0 0
-0.0225041 0.0574760 -0.0450300 255 0 0
-0.0208482 0.0574663 -0.0450498 255 0 0
-0.0191767 0.0574606 -0.0450652 255 0 0
-0.0175051 0.0574582 -0.0450766 255 0 0
-0.0158497 0.0574606 -0.0450827 255 0 0
-0.0141781 0.0574626 -0.0450876 255 0 0
-0.0124982 0.0574645 -0.0450912 255 0 0
-0.0108263 0.0574659 -0.0450935 255 0 0
-0.0091623 0.0574668 -0.0450947 255 0 0
-0.0074905 0.0574670 -0.0450947 255 0 0
-0.0058228 0.0574661 -0.0450937 255 0 0
-0.0041467 0.0574666 -0.0450930 255 0 0
-0.0024747 0.0574651 -0.0450909 255 0 0
-0.0008048 0.0574624 -0.0450871 255 0 0
0.0008625 0.0574570 -0.0450822 255 0 0
0.0025287 0.0574578 -0.0450738 255 0 0
0.0042008 0.0574636 -0.0450599 255 0 0
0.0058688 0.0574762 -0.0450442 255 0 0
0.0075367 0.0574947 -0.0450270 255 0 0
0.0092043 0.0575198 -0.0450074 255 0 0
0.0108683 0.0575442 -0.0449933 255 0 0
0.0125489 0.0575727 -0.0449720 255 0 0
0.0142294 0.0575741 -0.0449614 255 0 0
-0.0292232 0.0592375 -0.0449614 255 0 0
-0.0275354 0.0592020 -0.0449768 255 0 0
-0.0258631 0.0591707 -0.0449955 255 0 0
-0.0241916 0.0591432 -0.0450205 255 0 0
-0.0225200 0.0591210 -0.0450415 255 0 0
-0.0208485 0.0591130 -0.0450597 255 0 0
-0.0191770 0.0591081 -0.0450736 255 0 0
-0.0175058 0.0591059 -0.0450830 255 0 0
-0.0158500 0.0591072 -0.0450873 255 0 0
-0.0141783 0.0591083 -0.0450907 255 0 0
-0.0125063 0.0591120 -0.0450929 255 0 0
-0.0108342 0.0591145 -0.0450942 255 0 0
-0.0091625 0.0591157 -0.0450948 255 0 0
-0.0074906 0.0591160 -0.0450941 255 0 0
-0.0058229 0.0591154 -0.0450927 255 0 0
-0.0041467 0.0591128 -0.0450921 255 0 0
-0.0024747 0.0591099 -0.0450902 255 0 0
-0.0008042 0.0591073 -0.0450864 255 0 0
0.0008634 0.0591039 -0.0450815 255 0 0
0.0025307 0.0591059 -0.0450730 255 0 0
0.0042047 0.0591122 -0.0450619 255 0 0
0.0058727 0.0591241 -0.0450473 255 0 0
0.0075406 0.0591418 -0.0450297 255 0 0
0.0092043 0.0591651 -0.0450087 255 0 0
0.0108734 0.0591891 -0.0449930 255 0 0
0.0125485 0.0592270 -0.0449657 255 0 0
0.0142244 0.0592595 -0.0449505 255 0 0
0.0159013 0.0592640 -0.0449462 255 0 0
-0.0308949 0.0609101 -0.0449349 255 0 0
-0.0292071 0.0608896 -0.0449537 255 0 0
-0.0275348 0.0608512 -0.0449752 255 0 0
-0.0258476 0.0608192 -0.0449987 255 0 0
-0.0241917 0.0607946 -0.0450259 255 0 0
-0.0225203 0.0607747 -0.0450486 255 0 0
-0.0208487 0.0607677 -0.0450654 255 0 0
-0.0191774 0.0607630 -0.0450781 255 0 0
-0.0175087 0.0607604 -0.0450865 255 0 0
-0.0158500 0.0607603 -0.0450899 255 0 0
-0.0141784 0.0607602 -0.0450924 255 0 0
-0.0125063 0.0607652 -0.0450941 255 0 0
-0.0108343 0.0607689 -0.0450950 255 0 0
-0.0091624 0.0607711 -0.0450954 255 0 0
-0.0074907 0.0607720 -0.0450947 255 0 0
-0.0058229 0.0607725 -0.0450934 255 0 0
-0.0041467 0.0607659 -0.0450935 255 0 0
-0.0024747 0.0607611 -0.0450923 255 0 0
-0.0008038 0.0607583 -0.0450893 255 0 0
0.0008645 0.0607571 -0.0450851 255 0 0
0.0025323 0.0607606 -0.0450770 255 0 0
0.0042048 0.0607665 -0.0450675 255 0 0
0.0058736 0.0607778 -0.0450541 255 0 0
0.0075409 0.0607949 -0.0450364 255 0 0
0.0092044 0.0608171 -0.0450139 255 0 0
0.0108761 0.0608411 -0.0449966 255 0 0
0.0125483 0.0608866 -0.0449628 255 0 0
0.0142205 0.0609250 -0.0449430 255 0 0
0.0159007 0.0609339 -0.0449354 255 0 0
0.0175734 0.0609609 -0.0449421 255 0 0
-0.0308788 0.0626320 -0.0448563 255 0 0
-0.0292064 0.0625847 -0.0448565 255 0 0
-0.0275348 0.0625481 -0.0448784 255 0 0
-0.0258632 0.0625212 -0.0448987 255 0 0
-0.0241916 0.0625059 -0.0449184 255 0 0
-0.0225201 0.0624708 -0.0449566 255 0 0
-0.0208485 0.0624675 -0.0449685 255 0 0
-0.0191772 0.0624665 -0.0449770 255 0 0
-0.0175214 0.0624665 -0.0449827 255 0 0
-0.0158497 0.0624684 -0.0449631 255 0 0
-0.0141779 0.0624694 -0.0449642 255 0 0
-0.0125058 0.0624770 -0.0449645 255 0 0
-0.0108339 0.0624783 -0.0449641 255 0 0
-0.0091619 0.0625001 -0.0449633 255 0 0
-0.0074901 0.0624774 -0.0449619 255 0 0
-0.0058224 0.0624760 -0.0449597 255 0 0
-0.0041462 0.0624682 -0.0449591 255 0 0
-0.0024741 0.0624649 -0.0449571 255 0 0
-0.0008027 0.0624630 -0.0449667 255 0 0
0.0008656 0.0624615 -0.0449671 255 0 0
0.0025334 0.0624651 -0.0449592 255 0 0
0.0042056 0.0624658 -0.0449481 255 0 0
0.0058775 0.0624773 -0.0449361 255 0 0
0.0075453 0.0625130 -0.0449180 255 0 0
0.0092129 0.0625360 -0.0448941 255 0 0
0.0108769 0.0625621 -0.0448793 255 0 0
0.0125487 0.0626091 -0.0448414 255 0 0
0.0142208 0.0626519 -0.0448333 255 0 0
0.0158982 0.0626897 -0.0448457 255 0 0
0.0175736 0.0627232 -0.0448529 255 0 0
-0.0325663 0.0643335 -0.0448151 255 0 0
-0.0308775 0.0643416 -0.0447900 255 0 0
-0.0292061 0.0642937 -0.0448084 255 0 0
-0.0275346 0.0642559 -0.0448182 255 0 0
-0.0258631 0.0642311 -0.0448284 255 0 0
-0.0241915 0.0642203 -0.0448377 255 0 0
-0.0225198 0.0642121 -0.0448456 255 0 0
-0.0208484 0.0641633 -0.0448521 255 0 0
-0.0191773 0.0641628 -0.0448565 255 0 0
-0.0175210 0.0641640 -0.0448594 255 0 0
-0.0158492 0.0641669 -0.0448617 255 0 0
-0.0141775 0.0641684 -0.0448625 255 0 0
-0.0125054 0.0641713 -0.0448623 255 0 0
-0.0108334 0.0641729 -0.0448615 255 0 0
-0.0091615 0.0641730 -0.0448610 255 0 0
-0.0074896 0.0641712 -0.0448589 255 0 0
-0.0058218 0.0641697 -0.0448564 255 0 0
-0.0041457 0.0641653 -0.0448551 255 0 0
-0.0024736 0.0641621 -0.0448537 255 0 0
-0.0008021 0.0641602 -0.0448490 255 0 0
0.0008671 0.0641599 -0.0448450 255 0 0
0.0025359 0.0641642 -0.0448398 255 0 0
0.0042088 0.0641620 -0.0448347 255 0 0
0.0058781 0.0641749 -0.0448282 255 0 0
0.0075460 0.0641965 -0.0448172 255 0 0
0.0092135 0.0642607 -0.0448108 255 0 0
0.0108833 0.0642910 -0.0448135 255 0 0
0.0125491 0.0643399 -0.0447966 255 0 0
0.0142143 0.0643824 -0.0447792 255 0 0
0.0158877 0.0644199 -0.0447941 255 0 0
0.0175738 0.0644121 -0.0448029 255 0 0
0.0192625 0.0644327 -0.0448035 255 0 0
-0.0342700 0.0660383 -0.0447518 255 0 0
-0.0325664 0.0660457 -0.0447469 255 0 0
-0.0308778 0.0660115 -0.0447257 255 0 0
-0.0292064 0.0659690 -0.0447512 255 0 0
-0.0275350 0.0659377 -0.0447694 255 0 0
-0.0258634 0.0659176 -0.0447858 255 0 0
-0.0241917 0.0659105 -0.0447964 255 0 0
-0.0225203 0.0658572 -0.0448054 255 0 0
-0.0208487 0.0658574 -0.0448108 255 0 0
-0.0191927 0.0658588 -0.0448047 255 0 0
-0.0175210 0.0658606 -0.0447972 255 0 0
-0.0158492 0.0658631 -0.0447989 255 0 0
-0.0141775 0.0658650 -0.0447999 255 0 0
-0.0125053 0.0658682 -0.0447999 255 0 0
-0.0108333 0.0658700 -0.0447995 255 0 0
-0.0091613 0.0658705 -0.0447988 255 0 0
-0.0074894 0.0658699 -0.0447975 255 0 0
-0.0058180 0.0658693 -0.0447954 255 0 0
-0.0041454 0.0658633 -0.0447948 255 0 0
-0.0024733 0.0658595 -0.0447922 255 0 0
-0.0008017 0.0658574 -0.0447892 255 0 0
0.0008679 0.0658573 -0.0447848 255 0 0
0.0025366 0.0658614 -0.0447795 255 0 0
0.0042104 0.0658563 -0.0447862 255 0 0
0.0058785 0.0658607 -0.0447771 255 0 0
0.0075501 0.0658750 -0.0447654 255 0 0
0.0092138 0.0659044 -0.0447467 255 0 0
0.0108856 0.0659359 -0.0447368 255 0 0
0.0125491 0.0660196 -0.0447268 255 0 0
0.0142142 0.0660620 -0.0447164 255 0 0
0.0158888 0.0661000 -0.0447150 255 0 0
0.0175738 0.0660944 -0.0447528 255 0 0
0.0192624 0.0661146 -0.0447609 255 0 0
-0.0342382 0.0677325 -0.0447093 255 0 0
-0.0325660 0.0677391 -0.0446866 255 0 0
-0.0308778 0.0677043 -0.0446911 255 0 0
-0.0292064 0.0676664 -0.0447137 255 0 0
-0.0275349 0.0676383 -0.0447095 255 0 0
-0.0258634 0.0676191 -0.0447248 255 0 0
-0.0241919 0.0676115 -0.0447342 255 0 0
-0.0225206 0.0676054 -0.0447423 255 0 0
-0.0208644 0.0676047 -0.0447494 255 0 0
-0.0191926 0.0675585 -0.0447551 255 0 0
-0.0175208 0.0675592 -0.0447593 255 0 0
-0.0158490 0.0675600 -0.0447622 255 0 0
-0.0141772 0.0675614 -0.0447645 255 0 0
-0.0125051 0.0675645 -0.0447662 255 0 0
-0.0108330 0.0675675 -0.0447671 255 0 0
-0.0091611 0.0675699 -0.0447676 255 0 0
-0.0074892 0.0675722 -0.0447673 255 0 0
-0.0058174 0.0675744 -0.0447669 255 0 0
-0.0041451 0.0675648 -0.0447670 255 0 0
-0.0024730 0.0675588 -0.0447668 255 0 0
-0.0008014 0.0675601 -0.0447651 255 0 0
0.0008688 0.0675625 -0.0447603 255 0 0
0.0025386 0.0675688 -0.0447557 255 0 0
0.0042106 0.0676031 -0.0447498 255 0 0
0.0058825 0.0676069 -0.0447441 255 0 0
0.0075504 0.0676203 -0.0447344 255 0 0
0.0092144 0.0676424 -0.0447229 255 0 0
0.0108859 0.0676668 -0.0447154 255 0 0
0.0125493 0.0677116 -0.0447016 255 0 0
0.0142174 0.0677511 -0.0447035 255 0 0
0.0158906 0.0677854 -0.0447031 255 0 0
0.0175740 0.0678149 -0.0447426 255 0 0
0.0192626 0.0678404 -0.0447525 255 0 0
-0.0359419 0.0694590 -0.0446808 255 0 0
-0.0342378 0.0694746 -0.0446688 255 0 0
-0.0325655 0.0694349 -0.0446528 255 0 0
-0.0308777 0.0694011 -0.0446554 255 0 0
-0.0292064 0.0693676 -0.0446560 255 0 0
-0.0275349 0.0693417 -0.0446749 255 0 0
-0.0258633 0.0693237 -0.0446893 255 0 0
-0.0241922 0.0693144 -0.0446982 255 0 0
-0.0225360 0.0693070 -0.0447059 255 0 0
-0.0208644 0.0693061 -0.0447132 255 0 0
-0.0191925 0.0693055 -0.0447197 255 0 0
-0.0175207 0.0693053 -0.0447247 255 0 0
-0.0158488 0.0693054 -0.0447283 255 0 0
-0.0141770 0.0693061 -0.0447285 255 0 0
-0.0125048 0.0693101 -0.0447302 255 0 0
-0.0108328 0.0693146 -0.0447266 255 0 0
-0.0091608 0.0693181 -0.0447122 255 0 0
-0.0074889 0.0693227 -0.0447132 255 0 0
-0.0058171 0.0693268 -0.0447138 255 0 0
-0.0041448 0.0693133 -0.0447160 255 0 0
-0.0024727 0.0693049 -0.0447171 255 0 0
-0.0008011 0.0693012 -0.0447165 255 0 0
0.0008696 0.0693035 -0.0447149 255 0 0
0.0025408 0.0693094 -0.0447116 255 0 0
0.0042109 0.0693034 -0.0447239 255 0 0
0.0058829 0.0693069 -0.0447202 255 0 0
0.0075507 0.0693199 -0.0447129 255 0 0
0.0092207 0.0693419 -0.0447065 255 0 0
0.0108864 0.0693654 -0.0447009 255 0 0
0.0125496 0.0694073 -0.0446758 255 0 0
0.0142198 0.0694441 -0.0446903 255 0 0
0.0159012 0.0694743 -0.0446915 255 0 0
0.0175742 0.0694995 -0.0447328 255 0 0
0.0192629 0.0695222 -0.0447442 255 0 0
-0.0359415 0.0712014 -0.0446851 255 0 0
-0.0342372 0.0711708 -0.0446636 255 0 0
-0.0325648 0.0711323 -0.0446568 255 0 0
-0.0308775 0.0710993 -0.0446622 255 0 0
-0.0292062 0.0710734 -0.0446536 255 0 0
-0.0275347 0.0710520 -0.0446671 255 0 0
-0.0258631 0.0710349 -0.0446783 255 0 0
-0.0242075 0.0710233 -0.0446860 255 0 0
-0.0225360 0.0710142 -0.0446933 255 0 0
-0.0208641 0.0710085 -0.0447002 255 0 0
-0.0191922 0.0710052 -0.0447062 255 0 0
-0.0175203 0.0710033 -0.0447114 255 0 0
-0.0158484 0.0710042 -0.0447050 255 0 0
-0.0141766 0.0710057 -0.0446939 255 0 0
-0.0125044 0.0710015 -0.0446968 255 0 0
-0.0108323 0.0710000 -0.0446988 255 0 0
-0.0091603 0.0710004 -0.0446999 255 0 0
-0.0074885 0.0710043 -0.0446996 255 0 0
-0.0058167 0.0710082 -0.0446992 255 0 0
-0.0041444 0.0709988 -0.0447014 255 0 0
-0.0024722 0.0709939 -0.0447023 255 0 0
-0.0008005 0.0709925 -0.0447020 255 0 0
0.0008708 0.0709957 -0.0447005 255 0 0
0.0025412 0.0710022 -0.0446979 255 0 0
0.0042114 0.0709986 -0.0446939 255 0 0
0.0058833 0.0710030 -0.0446893 255 0 0
0.0075510 0.0710151 -0.0447009 255 0 0
0.0092224 0.0710348 -0.0447002 255 0 0
0.0108911 0.0710561 -0.0446959 255 0 0
0.0125496 0.0711039 -0.0446739 255 0 0
0.0142212 0.0711440 -0.0446901 255 0 0
0.0159013 0.0711756 -0.0446922 255 0 0
0.0175744 0.0711995 -0.0447333 255 0 0
0.0192629 0.0712206 -0.0447445 255 0 0
-0.0359408 0.0729078 -0.0446926 255 0 0
-0.0342362 0.0728804 -0.0446633 255 0 0
-0.0325642 0.0728452 -0.0446758 255 0 0
-0.0308772 0.0728134 -0.0446809 255 0 0
-0.0292058 0.0727918 -0.0446742 255 0 0
-0.0275343 0.0727721 -0.0446847 255 0 0
-0.0258779 0.0727531 -0.0446882 255 0 0
-0.0242072 0.0727382 -0.0446931 255 0 0
-0.0225355 0.0727267 -0.0446983 255 0 0
-0.0208636 0.0727162 -0.0447024 255 0 0
-0.0191917 0.0727099 -0.0447041 255 0 0
-0.0175198 0.0727066 -0.0446876 255 0 0
-0.0158479 0.0727070 -0.0446903 255 0 0
-0.0141762 0.0727090 -0.0446947 255 0 0
-0.0125040 0.0727010 -0.0446981 255 0 0
-0.0108319 0.0726971 -0.0447003 255 0 0
-0.0091599 0.0726961 -0.0447010 255 0 0
-0.0074880 0.0727003 -0.0447009 255 0 0
-0.0058162 0.0727045 -0.0447008 255 0 0
-0.0041439 0.0726975 -0.0447032 255 0 0
-0.0024718 0.0726944 -0.0447046 255 0 0
-0.0007999 0.0726946 -0.0447057 255 0 0
0.0008715 0.0726985 -0.0447058 255 0 0
0.0025417 0.0727062 -0.0447062 255 0 0
0.0042119 0.0727070 -0.0447071 255 0 0
0.0058837 0.0727151 -0.0447065 255 0 0
0.0075513 0.0727282 -0.0447006 255 0 0
0.0092224 0.0727485 -0.0447139 255 0 0
0.0108869 0.0727692 -0.0447113 255 0 0
0.0125498 0.0728172 -0.0446868 255 0 0
0.0142214 0.0728099 -0.0446979 255 0 0
0.0159014 0.0728369 -0.0447120 255 0 0
0.0175754 0.0729005 -0.0447314 255 0 0
0.0192640 0.0729127 -0.0447411 255 0 0
-0.0359333 0.0745715 -0.0446846 255 0 0
-0.0342361 0.0745408 -0.0446495 255 0 0
-0.0325644 0.0745071 -0.0446553 255 0 0
-0.0308775 0.0744767 -0.0446398 255 0 0
-0.0292062 0.0744565 -0.0446459 255 0 0
-0.0275349 0.0744376 -0.0446553 255 0 0
-0.0258786 0.0744201 -0.0446643 255 0 0
-0.0242075 0.0744040 -0.0446718 255 0 0
-0.0225359 0.0743908 -0.0446789 255 0 0
-0.0208639 0.0743785 -0.0446818 255 0 0
-0.0191920 0.0743704 -0.0446654 255 0 0
-0.0175200 0.0743656 -0.0446705 255 0 0
-0.0158482 0.0743654 -0.0446752 255 0 0
-0.0141765 0.0743661 -0.0446788 255 0 0
-0.0125042 0.0743589 -0.0446838 255 0 0
-0.0108320 0.0743557 -0.0446872 255 0 0
-0.0091600 0.0743552 -0.0446890 255 0 0
-0.0074882 0.0743596 -0.0446885 255 0 0
-0.0058164 0.0743633 -0.0446877 255 0 0
-0.0041441 0.0743570 -0.0446900 255 0 0
-0.0024719 0.0743535 -0.0446910 255 0 0
-0.0008002 0.0743531 -0.0446906 255 0 0
0.0008712 0.0743565 -0.0446890 255 0 0
0.0025414 0.0743629 -0.0446860 255 0 0
0.0042116 0.0743679 -0.0446833 255 0 0
0.0058834 0.0743789 -0.0446784 255 0 0
0.0075510 0.0743965 -0.0446714 255 0 0
0.0092162 0.0744197 -0.0446721 255 0 0
0.0108861 0.0744438 -0.0446835 255 0 0
0.0125496 0.0744539 -0.0446632 255 0 0
0.0142214 0.0744884 -0.0446797 255 0 0
0.0159015 0.0745190 -0.0447068 255 0 0
0.0175898 0.0745847 -0.0447270 255 0 0
0.0192784 0.0746020 -0.0447412 255 0 0
-0.0359103 0.0762485 -0.0446823 255 0 0
-0.0342361 0.0762173 -0.0446473 255 0 0
-0.0325645 0.0761863 -0.0446517 255 0 0
-0.0308776 0.0761568 -0.0446312 255 0 0
-0.0292063 0.0761351 -0.0446429 255 0 0
-0.0275351 0.0761147 -0.0446531 255 0 0
-0.0258789 0.0760947 -0.0446628 255 0 0
-0.0242077 0.0760760 -0.0446711 255 0 0
-0.0225360 0.0760607 -0.0446754 255 0 0
-0.0208641 0.0760466 -0.0446588 255 0 0
-0.0191921 0.0760371 -0.0446640 255 0 0
-0.0175202 0.0760307 -0.0446690 255 0 0
-0.0158484 0.0760285 -0.0446736 255 0 0
-0.0141766 0.0760281 -0.0446776 255 0 0
-0.0125043 0.0760258 -0.0446834 255 0 0
-0.0108322 0.0760259 -0.0446877 255 0 0
-0.0091602 0.0760279 -0.0446906 255 0 0
-0.0074883 0.0760326 -0.0446915 255 0 0
-0.0058166 0.0760365 -0.0446916 255 0 0
-0.0041443 0.0760292 -0.0446941 255 0 0
-0.0024721 0.0760247 -0.0446951 255 0 0
-0.0008006 0.0760234 -0.0446946 255 0 0
0.0008706 0.0760249 -0.0446924 255 0 0
0.0025412 0.0760318 -0.0446882 255 0 0
0.0042113 0.0760429 -0.0446849 255 0 0
0.0058793 0.0760601 -0.0446786 255 0 0
0.0075494 0.0760830 -0.0446697 255 0 0
0.0092141 0.0761117 -0.0446587 255 0 0
0.0108857 0.0761391 -0.0446777 255 0 0
0.0125497 0.0761429 -0.0446634 255 0 0
0.0142218 0.0761803 -0.0446734 255 0 0
