ply
format ascii 1.0
element vertex 1207
property float x
property float y
property float z
property uchar red
property uchar green
property uchar blue
end_header
-0.0108308 0.0680048 -0.0301153 255 0 0
-0.0091590 0.0680048 -0.0301153 255 0 0
-0.0074871 0.0680048 -0.0301153 255 0 0
-0.0058152 0.0680048 -0.0301153 255 0 0
-0.0041434 0.0680047 -0.0301153 255 0 0
-0.0024716 0.0680048 -0.0301152 255 0 0
-0.0007997 0.0680049 -0.0301152 255 0 0
0.0008722 0.0680051 -0.0301152 255 0 0
0.0025440 0.0680053 -0.0301151 255 0 0
0.0042159 0.0680054 -0.0301151 255 0 0
0.0058878 0.0680055 -0.0301151 255 0 0
0.0075597 0.0680055 -0.0301150 255 0 0
0.0092315 0.0680058 -0.0301151 255 0 0
0.0109034 0.0680061 -0.0301153 255 0 0
0.0125752 0.0680072 -0.0301155 255 0 0
0.0142471 0.0680075 -0.0301157 255 0 0
0.0159190 0.0680076 -0.0301159 255 0 0
0.0175908 0.0680080 -0.0301163 255 0 0
0.0192627 0.0680085 -0.0301166 255 0 0
0.0209345 0.0680093 -0.0301173 255 0 0
0.0226064 0.0680091 -0.0301178 255 0 0
0.0242783 0.0680092 -0.0301181 255 0 0
0.0259501 0.0680091 -0.0301184 255 0 0
0.0276220 0.0680093 -0.0301186 255 0 0
0.0292939 0.0680095 -0.0301189 255 0 0
-0.0425962 0.0696812 -0.0301180 255 0 0
-0.0409244 0.0696812 -0.0301176 255 0 0
-0.0392525 0.0696813 -0.0301172 255 0 0
-0.0375807 0.0696806 -0.0301165 255 0 0
-0.0359088 0.0696794 -0.0301159 255 0 0
-0.0342369 0.0696793 -0.0301154 255 0 0
-0.0325651 0.0696789 -0.0301150 255 0 0
-0.0308932 0.0696790 -0.0301148 255 0 0
-0.0292213 0.0696787 -0.0301145 255 0 0
-0.0275495 0.0696779 -0.0301144 255 0 0
-0.0258776 0.0696778 -0.0301143 255 0 0
-0.0242057 0.0696776 -0.0301143 255 0 0
-0.0225339 0.0696775 -0.0301144 255 0 0
-0.0208620 0.0696774 -0.0301145 255 0 0
-0.0191902 0.0696770 -0.0301146 255 0 0
-0.0175183 0.0696768 -0.0301147 255 0 0
-0.0158464 0.0696768 -0.0301147 255 0 0
-0.0141746 0.0696767 -0.0301148 255 0 0
-0.0125027 0.0696767 -0.0301148 255 0 0
-0.0108308 0.0696767 -0.0301149 255 0 0
-0.0091590 0.0696767 -0.0301149 255 0 0
-0.0074871 0.0696768 -0.0301149 255 0 0
-0.0058152 0.0696768 -0.0301149 255 0 0
-0.0041434 0.0696769 -0.0301150 255 0 0
-0.0024716 0.0696770 -0.0301150 255 0 0
-0.0007997 0.0696770 -0.0301149 255 0 0
0.0008722 0.0696770 -0.0301149 255 0 0
0.0025440 0.0696771 -0.0301149 255 0 0
0.0042159 0.0696771 -0.0301147 255 0 0
0.0058878 0.0696775 -0.0301147 255 0 0
0.0075597 0.0696777 -0.0301147 255 0 0
0.0092315 0.0696779 -0.0301148 255 0 0
0.0109034 0.0696784 -0.0301149 255 0 0
0.0125752 0.0696788 -0.0301151 255 0 0
0.0142471 0.0696793 -0.0301154 255 0 0
0.0159190 0.0696794 -0.0301157 255 0 0
0.0175908 0.0696797 -0.0301162 255 0 0
0.0192627 0.0696800 -0.0301165 255 0 0
0.0209345 0.0696810 -0.0301172 255 0 0
0.0226064 0.0696810 -0.0301177 255 0 0
0.0242783 0.0696810 -0.0301181 255 0 0
0.0259501 0.0696812 -0.0301184 255 0 0
0.0276220 0.0696812 -0.0301187 255 0 0
0.0292939 0.0696813 -0.0301189 255 0 0
-0.0442681 0.0713531 -0.0301183 255 0 0
-0.0425962 0.0713530 -0.0301180 255 0 0
-0.0409244 0.0713530 -0.0301176 255 0 0
-0.0392525 0.0713532 -0.0301172 255 0 0
-0.0375807 0.0713524 -0.0301165 255 0 0
-0.0359088 0.0713513 -0.0301158 255 0 0
-0.0342369 0.0713514 -0.0301153 255 0 0
-0.0325651 0.0713511 -0.0301150 255 0 0
-0.0308932 0.0713511 -0.0301147 255 0 0
-0.0292213 0.0713505 -0.0301144 255 0 0
-0.0275495 0.0713501 -0.0301143 255 0 0
-0.0258776 0.0713497 -0.0301142 255 0 0
-0.0242057 0.0713492 -0.0301142 255 0 0
-0.0225339 0.0713490 -0.0301143 255 0 0
-0.0208620 0.0713491 -0.0301144 255 0 0
-0.0191902 0.0713491 -0.0301145 255 0 0
-0.0175183 0.0713491 -0.0301146 255 0 0
-0.0158464 0.0713490 -0.0301147 255 0 0
-0.0141746 0.0713490 -0.0301147 255 0 0
-0.0125027 0.0713490 -0.0301148 255 0 0
-0.0108308 0.0713490 -0.0301148 255 0 0
-0.0091590 0.0713490 -0.0301149 255 0 0
-0.0074871 0.0713490 -0.0301149 255 0 0
-0.0058152 0.0713490 -0.0301149 255 0 0
-0.0041434 0.0713490 -0.0301150 255 0 0
-0.0024716 0.0713490 -0.0301150 255 0 0
-0.0007997 0.0713491 -0.0301149 255 0 0
0.0008722 0.0713493 -0.0301149 255 0 0
0.0025440 0.0713493 -0.0301149 255 0 0
0.0042159 0.0713493 -0.0301148 255 0 0
0.0058878 0.0713494 -0.0301147 255 0 0
0.0075597 0.0713498 -0.0301147 255 0 0
0.0092315 0.0713503 -0.0301147 255 0 0
0.0109034 0.0713506 -0.0301149 255 0 0
0.0125752 0.0713506 -0.0301151 255 0 0
0.0142471 0.0713510 -0.0301154 255 0 0
0.0159190 0.0713513 -0.0301158 255 0 0
0.0175908 0.0713514 -0.0301162 255 0 0
0.0192627 0.0713522 -0.0301165 255 0 0
0.0209345 0.0713528 -0.0301172 255 0 0
0.0226064 0.0713528 -0.0301177 255 0 0
0.0242783 0.0713529 -0.0301181 255 0 0
0.0259501 0.0713531 -0.0301184 255 0 0
0.0276220 0.0713531 -0.0301187 255 0 0
0.0292939 0.0713532 -0.0301189 255 0 0
0.0309657 0.0713533 -0.0301191 255 0 0
-0.0442681 0.0730251 -0.0301183 255 0 0
-0.0425962 0.0730249 -0.0301179 255 0 0
-0.0409244 0.0730249 -0.0301175 255 0 0
-0.0392525 0.0730250 -0.0301172 255 0 0
-0.0375807 0.0730245 -0.0301164 255 0 0
-0.0359088 0.0730232 -0.0301158 255 0 0
-0.0342369 0.0730231 -0.0301153 255 0 0
-0.0325651 0.0730229 -0.0301150 255 0 0
-0.0308932 0.0730229 -0.0301147 255 0 0
-0.0292213 0.0730228 -0.0301145 255 0 0
-0.0275495 0.0730220 -0.0301143 255 0 0
-0.0258776 0.0730216 -0.0301142 255 0 0
-0.0242057 0.0730214 -0.0301143 255 0 0
-0.0225339 0.0730213 -0.0301143 255 0 0
-0.0208620 0.0730211 -0.0301145 255 0 0
-0.0191902 0.0730209 -0.0301146 255 0 0
-0.0175183 0.0730209 -0.0301146 255 0 0
-0.0158464 0.0730209 -0.0301147 255 0 0
-0.0141746 0.0730209 -0.0301147 255 0 0
-0.0125027 0.0730209 -0.0301148 255 0 0
-0.0108308 0.0730209 -0.0301149 255 0 0
-0.0091590 0.0730209 -0.0301149 255 0 0
-0.0074871 0.0730209 -0.0301149 255 0 0
-0.0058152 0.0730209 -0.0301149 255 0 0
-0.0041434 0.0730208 -0.0301150 255 0 0
-0.0024716 0.0730209 -0.0301149 255 0 0
-0.0007997 0.0730210 -0.0301149 255 0 0
0.0008722 0.0730211 -0.0301149 255 0 0
0.0025440 0.0730212 -0.0301149 255 0 0
0.0042159 0.0730215 -0.0301148 255 0 0
0.0058878 0.0730217 -0.0301148 255 0 0
0.0075597 0.0730220 -0.0301148 255 0 0
0.0092315 0.0730222 -0.0301149 255 0 0
0.0109034 0.0730224 -0.0301150 255 0 0
0.0125752 0.0730227 -0.0301152 255 0 0
0.0142471 0.0730229 -0.0301155 255 0 0
0.0159190 0.0730232 -0.0301159 255 0 0
0.0175908 0.0730232 -0.0301162 255 0 0
0.0192627 0.0730241 -0.0301166 255 0 0
0.0209345 0.0730245 -0.0301172 255 0 0
0.0226064 0.0730247 -0.0301177 255 0 0
0.0242783 0.0730248 -0.0301181 255 0 0
0.0259501 0.0730248 -0.0301185 255 0 0
0.0276220 0.0730250 -0.0301187 255 0 0
0.0292939 0.0730250 -0.0301189 255 0 0
0.0309657 0.0730254 -0.0301191 255 0 0
-0.0442681 0.0746968 -0.0301182 255 0 0
-0.0425962 0.0746970 -0.0301179 255 0 0
-0.0409244 0.0746968 -0.0301175 255 0 0
-0.0392525 0.0746968 -0.0301170 255 0 0
-0.0375807 0.0746964 -0.0301162 255 0 0
-0.0359088 0.0746956 -0.0301155 255 0 0
-0.0342369 0.0746952 -0.0301151 255 0 0
-0.0325651 0.0746946 -0.0301147 255 0 0
-0.0308932 0.0746944 -0.0301144 255 0 0
-0.0292213 0.0746942 -0.0301141 255 0 0
-0.0275495 0.0746941 -0.0301140 255 0 0
-0.0258776 0.0746937 -0.0301139 255 0 0
-0.0242057 0.0746933 -0.0301139 255 0 0
-0.0225339 0.0746931 -0.0301139 255 0 0
-0.0208620 0.0746930 -0.0301140 255 0 0
-0.0191902 0.0746928 -0.0301141 255 0 0
-0.0175183 0.0746926 -0.0301142 255 0 0
-0.0158464 0.0746926 -0.0301143 255 0 0
-0.0141746 0.0746925 -0.0301143 255 0 0
-0.0125027 0.0746925 -0.0301144 255 0 0
-0.0108308 0.0746925 -0.0301145 255 0 0
-0.0091590 0.0746925 -0.0301145 255 0 0
-0.0074871 0.0746925 -0.0301146 255 0 0
-0.0058152 0.0746925 -0.0301146 255 0 0
-0.0041434 0.0746925 -0.0301146 255 0 0
-0.0024716 0.0746925 -0.0301146 255 0 0
-0.0007997 0.0746926 -0.0301146 255 0 0
0.0008722 0.0746927 -0.0301145 255 0 0
0.0025440 0.0746928 -0.0301146 255 0 0
0.0042159 0.0746931 -0.0301145 255 0 0
0.0058878 0.0746938 -0.0301146 255 0 0
0.0075597 0.0746939 -0.0301146 255 0 0
0.0092315 0.0746942 -0.0301147 255 0 0
0.0109034 0.0746940 -0.0301148 255 0 0
0.0125752 0.0746944 -0.0301150 255 0 0
0.0142471 0.0746947 -0.0301153 255 0 0
0.0159190 0.0746948 -0.0301157 255 0 0
0.0175908 0.0746952 -0.0301161 255 0 0
0.0192627 0.0746962 -0.0301166 255 0 0
0.0209345 0.0746964 -0.0301172 255 0 0
0.0226064 0.0746965 -0.0301177 255 0 0
0.0242783 0.0746966 -0.0301182 255 0 0
0.0259501 0.0746966 -0.0301184 255 0 0
0.0276220 0.0746969 -0.0301187 255 0 0
0.0292939 0.0746972 -0.0301190 255 0 0
0.0309657 0.0746973 -0.0301191 255 0 0
-0.0442681 0.0763687 -0.0301182 255 0 0
-0.0425962 0.0763688 -0.0301178 255 0 0
-0.0409244 0.0763688 -0.0301174 255 0 0
-0.0392525 0.0763687 -0.0301169 255 0 0
-0.0375807 0.0763683 -0.0301160 255 0 0
-0.0359088 0.0763672 -0.0301154 255 0 0
-0.0342369 0.0763673 -0.0301149 255 0 0
-0.0325651 0.0763670 -0.0301145 255 0 0
-0.0308932 0.0763667 -0.0301142 255 0 0
-0.0292213 0.0763660 -0.0301140 255 0 0
-0.0275495 0.0763654 -0.0301137 255 0 0
-0.0258776 0.0763651 -0.0301136 255 0 0
-0.0242057 0.0763650 -0.0301137 255 0 0
-0.0225339 0.0763649 -0.0301137 255 0 0
-0.0208620 0.0763645 -0.0301137 255 0 0
-0.0191902 0.0763642 -0.0301138 255 0 0
-0.0175183 0.0763642 -0.0301139 255 0 0
-0.0158464 0.0763642 -0.0301140 255 0 0
-0.0141746 0.0763642 -0.0301141 255 0 0
-0.0125027 0.0763641 -0.0301141 255 0 0
-0.0108308 0.0763641 -0.0301142 255 0 0
-0.0091590 0.0763641 -0.0301143 255 0 0
-0.0074871 0.0763641 -0.0301143 255 0 0
-0.0058152 0.0763641 -0.0301143 255 0 0
-0.0041434 0.0763642 -0.0301144 255 0 0
-0.0024715 0.0763644 -0.0301144 255 0 0
-0.0007997 0.0763645 -0.0301144 255 0 0
0.0008722 0.0763646 -0.0301144 255 0 0
0.0025440 0.0763646 -0.0301144 255 0 0
0.0042159 0.0763647 -0.0301144 255 0 0
0.0058878 0.0763648 -0.0301143 255 0 0
0.0075597 0.0763651 -0.0301144 255 0 0
0.0092315 0.0763657 -0.0301145 255 0 0
0.0109034 0.0763659 -0.0301147 255 0 0
0.0125752 0.0763664 -0.0301150 255 0 0
0.0142471 0.0763667 -0.0301152 255 0 0
0.0159190 0.0763671 -0.0301157 255 0 0
0.0175908 0.0763672 -0.0301162 255 0 0
0.0192627 0.0763684 -0.0301166 255 0 0
0.0209345 0.0763683 -0.0301172 255 0 0
0.0226064 0.0763683 -0.0301177 255 0 0
0.0242783 0.0763684 -0.0301182 255 0 0
0.0259501 0.0763687 -0.0301186 255 0 0
0.0276220 0.0763689 -0.0301188 255 0 0
0.0292939 0.0763691 -0.0301190 255 0 0
0.0309657 0.0763694 -0.0301192 255 0 0
-0.0442681 0.0780406 -0.0301182 255 0 0
-0.0425962 0.0780405 -0.0301178 255 0 0
-0.0409244 0.0780407 -0.0301173 255 0 0
-0.0392525 0.0780409 -0.0301169 255 0 0
-0.0375807 0.0780400 -0.0301160 255 0 0
-0.0359088 0.0780390 -0.0301154 255 0 0
-0.0342369 0.0780390 -0.0301148 255 0 0
-0.0325651 0.0780388 -0.0301144 255 0 0
-0.0308932 0.0780386 -0.0301142 255 0 0
-0.0292213 0.0780381 -0.0301139 255 0 0
-0.0275495 0.0780378 -0.0301136 255 0 0
-0.0258776 0.0780369 -0.0301135 255 0 0
-0.0242057 0.0780364 -0.0301135 255 0 0
-0.0225339 0.0780363 -0.0301135 255 0 0
-0.0208620 0.0780362 -0.0301136 255 0 0
-0.0191902 0.0780359 -0.0301137 255 0 0
-0.0175183 0.0780359 -0.0301137 255 0 0
-0.0158464 0.0780359 -0.0301138 255 0 0
-0.0141746 0.0780359 -0.0301139 255 0 0
-0.0125027 0.0780358 -0.0301140 255 0 0
-0.0108308 0.0780357 -0.0301141 255 0 0
-0.0091590 0.0780357 -0.0301141 255 0 0
-0.0074871 0.0780357 -0.0301142 255 0 0
-0.0058152 0.0780358 -0.0301142 255 0 0
-0.0041434 0.0780357 -0.0301143 255 0 0
-0.0024716 0.0780359 -0.0301143 255 0 0
-0.0007997 0.0780359 -0.0301143 255 0 0
0.0008722 0.0780360 -0.0301143 255 0 0
0.0025440 0.0780361 -0.0301143 255 0 0
0.0042159 0.0780365 -0.0301143 255 0 0
0.0058878 0.0780366 -0.0301143 255 0 0
0.0075597 0.0780370 -0.0301144 255 0 0
0.0092315 0.0780378 -0.0301145 255 0 0
0.0109034 0.0780381 -0.0301147 255 0 0
0.0125752 0.0780389 -0.0301150 255 0 0
0.0142471 0.0780388 -0.0301153 255 0 0
0.0159190 0.0780391 -0.0301157 255 0 0
0.0175908 0.0780394 -0.0301162 255 0 0
0.0192627 0.0780403 -0.0301166 255 0 0
0.0209345 0.0780401 -0.0301173 255 0 0
0.0226064 0.0780404 -0.0301178 255 0 0
0.0242783 0.0780404 -0.0301183 255 0 0
0.0259501 0.0780406 -0.0301185 255 0 0
0.0276220 0.0780407 -0.0301188 255 0 0
0.0292939 0.0780413 -0.0301190 255 0 0
0.0309657 0.0780414 -0.0301192 255 0 0
-0.0442681 0.0797124 -0.0301183 255 0 0
-0.0425962 0.0797124 -0.0301179 255 0 0
-0.0409244 0.0797125 -0.0301174 255 0 0
-0.0392525 0.0797127 -0.0301169 255 0 0
-0.0375807 0.0797123 -0.0301161 255 0 0
-0.0359088 0.0797112 -0.0301155 255 0 0
-0.0342369 0.0797108 -0.0301149 255 0 0
-0.0325651 0.0797104 -0.0301146 255 0 0
-0.0308932 0.0797103 -0.0301143 255 0 0
-0.0292213 0.0797100 -0.0301139 255 0 0
-0.0275495 0.0797098 -0.0301138 255 0 0
-0.0258776 0.0797094 -0.0301137 255 0 0
-0.0242057 0.0797091 -0.0301137 255 0 0
-0.0225339 0.0797088 -0.0301137 255 0 0
-0.0208620 0.0797086 -0.0301138 255 0 0
-0.0191902 0.0797084 -0.0301139 255 0 0
-0.0175183 0.0797083 -0.0301139 255 0 0
-0.0158464 0.0797084 -0.0301140 255 0 0
-0.0141746 0.0797084 -0.0301140 255 0 0
-0.0125027 0.0797084 -0.0301141 255 0 0
-0.0108308 0.0797084 -0.0301142 255 0 0
-0.0091590 0.0797083 -0.0301143 255 0 0
-0.0074871 0.0797082 -0.0301143 255 0 0
-0.0058152 0.0797082 -0.0301143 255 0 0
-0.0041434 0.0797081 -0.0301143 255 0 0
-0.0024716 0.0797081 -0.0301144 255 0 0
-0.0007997 0.0797081 -0.0301144 255 0 0
0.0008722 0.0797082 -0.0301144 255 0 0
0.0025440 0.0797083 -0.0301145 255 0 0
0.0042159 0.0797087 -0.0301144 255 0 0
0.0058878 0.0797092 -0.0301145 255 0 0
0.0075597 0.0797094 -0.0301145 255 0 0
0.0092315 0.0797097 -0.0301147 255 0 0
0.0109034 0.0797100 -0.0301148 255 0 0
0.0125752 0.0797105 -0.0301152 255 0 0
0.0142471 0.0797107 -0.0301155 255 0 0
0.0159190 0.0797112 -0.0301159 255 0 0
0.0175908 0.0797117 -0.0301164 255 0 0
0.0192627 0.0797120 -0.0301168 255 0 0
0.0209345 0.0797123 -0.0301175 255 0 0
0.0226064 0.0797122 -0.0301180 255 0 0
0.0242783 0.0797123 -0.0301184 255 0 0
0.0259501 0.0797125 -0.0301186 255 0 0
0.0276220 0.0797128 -0.0301189 255 0 0
0.0292939 0.0797132 -0.0301191 255 0 0
0.0309657 0.0797135 -0.0301192 255 0 0
-0.0442681 0.0813845 -0.0301183 255 0 0
-0.0425962 0.0813842 -0.0301179 255 0 0
-0.0409244 0.0813843 -0.0301175 255 0 0
-0.0392525 0.0813845 -0.0301170 255 0 0
-0.0375807 0.0813845 -0.0301163 255 0 0
-0.0359088 0.0813833 -0.0301157 255 0 0
-0.0342369 0.0813830 -0.0301151 255 0 0
-0.0325651 0.0813824 -0.0301148 255 0 0
-0.0308932 0.0813821 -0.0301145 255 0 0
-0.0292213 0.0813820 -0.0301142 255 0 0
-0.0275495 0.0813816 -0.0301140 255 0 0
-0.0258776 0.0813812 -0.0301139 255 0 0
-0.0242057 0.0813809 -0.0301138 255 0 0
-0.0225339 0.0813808 -0.0301139 255 0 0
-0.0208620 0.0813806 -0.0301140 255 0 0
-0.0191902 0.0813806 -0.0301140 255 0 0
-0.0175183 0.0813805 -0.0301141 255 0 0
-0.0158464 0.0813805 -0.0301142 255 0 0
-0.0141746 0.0813804 -0.0301142 255 0 0
-0.0125027 0.0813804 -0.0301143 255 0 0
-0.0108308 0.0813804 -0.0301144 255 0 0
-0.0091590 0.0813803 -0.0301145 255 0 0
-0.0074871 0.0813803 -0.0301145 255 0 0
-0.0058152 0.0813803 -0.0301145 255 0 0
-0.0041434 0.0813803 -0.0301146 255 0 0
-0.0024716 0.0813802 -0.0301146 255 0 0
-0.0007997 0.0813802 -0.0301146 255 0 0
0.0008722 0.0813803 -0.0301146 255 0 0
0.0025440 0.0813805 -0.0301147 255 0 0
0.0042159 0.0813808 -0.0301146 255 0 0
0.0058878 0.0813814 -0.0301147 255 0 0
0.0075597 0.0813817 -0.0301148 255 0 0
0.0092315 0.0813817 -0.0301149 255 0 0
0.0109034 0.0813819 -0.0301151 255 0 0
0.0125752 0.0813826 -0.0301154 255 0 0
0.0142471 0.0813828 -0.0301158 255 0 0
0.0159190 0.0813831 -0.0301161 255 0 0
0.0175908 0.0813838 -0.0301165 255 0 0
0.0192627 0.0813841 -0.0301170 255 0 0
0.0209345 0.0813841 -0.0301175 255 0 0
0.0226064 0.0813840 -0.0301180 255 0 0
0.0242783 0.0813841 -0.0301184 255 0 0
0.0259501 0.0813846 -0.0301187 255 0 0
0.0276220 0.0813847 -0.0301189 255 0 0
0.0292939 0.0813850 -0.0301191 255 0 0
0.0309657 0.0813855 -0.0301193 255 0 0
-0.0442681 0.0830563 -0.0301183 255 0 0
-0.0425962 0.0830563 -0.0301179 255 0 0
-0.0409244 0.0830563 -0.0301175 255 0 0
-0.0392525 0.0830562 -0.0301171 255 0 0
-0.0375807 0.0830564 -0.0301164 255 0 0
-0.0359088 0.0830556 -0.0301158 255 0 0
-0.0342369 0.0830543 -0.0301152 255 0 0
-0.0325651 0.0830545 -0.0301149 255 0 0
-0.0308932 0.0830546 -0.0301145 255 0 0
-0.0292213 0.0830539 -0.0301143 255 0 0
-0.0275495 0.0830536 -0.0301140 255 0 0
-0.0258776 0.0830535 -0.0301139 255 0 0
-0.0242057 0.0830532 -0.0301139 255 0 0
-0.0225339 0.0830531 -0.0301139 255 0 0
-0.0208620 0.0830525 -0.0301139 255 0 0
-0.0191902 0.0830521 -0.0301140 255 0 0
-0.0175183 0.0830519 -0.0301141 255 0 0
-0.0158464 0.0830519 -0.0301141 255 0 0
-0.0141746 0.0830519 -0.0301142 255 0 0
-0.0125027 0.0830518 -0.0301143 255 0 0
-0.0108308 0.0830517 -0.0301144 255 0 0
-0.0091590 0.0830517 -0.0301144 255 0 0
-0.0074871 0.0830517 -0.0301145 255 0 0
-0.0058152 0.0830519 -0.0301145 255 0 0
-0.0041434 0.0830522 -0.0301146 255 0 0
-0.0024716 0.0830524 -0.0301146 255 0 0
-0.0007997 0.0830524 -0.0301146 255 0 0
0.0008722 0.0830525 -0.0301146 255 0 0
0.0025440 0.0830528 -0.0301147 255 0 0
0.0042159 0.0830534 -0.0301147 255 0 0
0.0058878 0.0830536 -0.0301148 255 0 0
0.0075597 0.0830538 -0.0301149 255 0 0
0.0092315 0.0830539 -0.0301151 255 0 0
0.0109034 0.0830538 -0.0301153 255 0 0
0.0125752 0.0830540 -0.0301157 255 0 0
0.0142471 0.0830551 -0.0301160 255 0 0
0.0159190 0.0830557 -0.0301164 255 0 0
0.0175908 0.0830560 -0.0301168 255 0 0
0.0192627 0.0830560 -0.0301173 255 0 0
0.0209345 0.0830560 -0.0301178 255 0 0
0.0226064 0.0830561 -0.0301182 255 0 0
0.0242783 0.0830562 -0.0301186 255 0 0
0.0259501 0.0830564 -0.0301188 255 0 0
0.0276220 0.0830566 -0.0301190 255 0 0
0.0292939 0.0830574 -0.0301193 255 0 0
0.0309657 0.0830582 -0.0301194 255 0 0
-0.0425962 0.0847281 -0.0301180 255 0 0
-0.0409244 0.0847282 -0.0301176 255 0 0
-0.0392525 0.0847281 -0.0301173 255 0 0
-0.0375807 0.0847284 -0.0301165 255 0 0
-0.0359088 0.0847271 -0.0301159 255 0 0
-0.0342369 0.0847268 -0.0301155 255 0 0
-0.0325651 0.0847268 -0.0301151 255 0 0
-0.0308932 0.0847261 -0.0301147 255 0 0
-0.0292213 0.0847260 -0.0301144 255 0 0
-0.0275495 0.0847257 -0.0301141 255 0 0
-0.0258776 0.0847255 -0.0301140 255 0 0
-0.0242057 0.0847250 -0.0301140 255 0 0
-0.0225339 0.0847248 -0.0301140 255 0 0
-0.0208620 0.0847246 -0.0301140 255 0 0
-0.0191902 0.0847245 -0.0301142 255 0 0
-0.0175183 0.0847241 -0.0301142 255 0 0
-0.0158464 0.0847241 -0.0301143 255 0 0
-0.0141746 0.0847240 -0.0301144 255 0 0
-0.0125027 0.0847240 -0.0301144 255 0 0
-0.0108308 0.0847240 -0.0301145 255 0 0
-0.0091590 0.0847239 -0.0301146 255 0 0
-0.0074871 0.0847239 -0.0301146 255 0 0
-0.0058152 0.0847238 -0.0301146 255 0 0
-0.0041434 0.0847238 -0.0301146 255 0 0
-0.0024715 0.0847239 -0.0301147 255 0 0
-0.0007997 0.0847243 -0.0301147 255 0 0
0.0008722 0.0847247 -0.0301147 255 0 0
0.0025440 0.0847253 -0.0301148 255 0 0
0.0042159 0.0847256 -0.0301149 255 0 0
0.0058878 0.0847257 -0.0301150 255 0 0
0.0075596 0.0847258 -0.0301151 255 0 0
0.0092315 0.0847260 -0.0301153 255 0 0
0.0109034 0.0847262 -0.0301155 255 0 0
0.0125752 0.0847265 -0.0301159 255 0 0
0.0142471 0.0847271 -0.0301163 255 0 0
0.0159190 0.0847278 -0.0301167 255 0 0
0.0175908 0.0847277 -0.0301171 255 0 0
0.0192627 0.0847280 -0.0301175 255 0 0
0.0209345 0.0847281 -0.0301180 255 0 0
0.0226064 0.0847280 -0.0301184 255 0 0
0.0242783 0.0847281 -0.0301188 255 0 0
0.0259501 0.0847285 -0.0301190 255 0 0
0.0276220 0.0847290 -0.0301191 255 0 0
0.0292939 0.0847297 -0.0301193 255 0 0
0.0309657 0.0847304 -0.0301195 255 0 0
-0.0425962 0.0863999 -0.0301180 255 0 0
-0.0409244 0.0864000 -0.0301177 255 0 0
-0.0392525 0.0864000 -0.0301174 255 0 0
-0.0375807 0.0864001 -0.0301167 255 0 0
-0.0359088 0.0863996 -0.0301162 255 0 0
-0.0342369 0.0863988 -0.0301157 255 0 0
-0.0325651 0.0863987 -0.0301153 255 0 0
-0.0308932 0.0863983 -0.0301150 255 0 0
-0.0292213 0.0863983 -0.0301146 255 0 0
-0.0275495 0.0863978 -0.0301144 255 0 0
-0.0258776 0.0863974 -0.0301142 255 0 0
-0.0242057 0.0863969 -0.0301142 255 0 0
-0.0225339 0.0863967 -0.0301142 255 0 0
-0.0208620 0.0863964 -0.0301144 255 0 0
-0.0191902 0.0863961 -0.0301144 255 0 0
-0.0175183 0.0863960 -0.0301145 255 0 0
-0.0158464 0.0863959 -0.0301145 255 0 0
-0.0141746 0.0863959 -0.0301146 255 0 0
-0.0125027 0.0863958 -0.0301146 255 0 0
-0.0108308 0.0863958 -0.0301147 255 0 0
-0.0091590 0.0863958 -0.0301148 255 0 0
-0.0074871 0.0863960 -0.0301148 255 0 0
-0.0058152 0.0863961 -0.0301149 255 0 0
-0.0041434 0.0863961 -0.0301148 255 0 0
-0.0024715 0.0863961 -0.0301149 255 0 0
-0.0007997 0.0863967 -0.0301149 255 0 0
0.0008722 0.0863971 -0.0301150 255 0 0
0.0025440 0.0863973 -0.0301150 255 0 0
0.0042159 0.0863978 -0.0301151 255 0 0
0.0058878 0.0863979 -0.0301152 255 0 0
0.0075596 0.0863979 -0.0301154 255 0 0
0.0092315 0.0863982 -0.0301156 255 0 0
0.0109034 0.0863983 -0.0301158 255 0 0
0.0125752 0.0863986 -0.0301162 255 0 0
0.0142471 0.0863998 -0.0301166 255 0 0
0.0159190 0.0863998 -0.0301170 255 0 0
0.0175908 0.0863998 -0.0301174 255 0 0
0.0192627 0.0863999 -0.0301178 255 0 0
0.0209345 0.0863999 -0.0301182 255 0 0
0.0226064 0.0864001 -0.0301186 255 0 0
0.0242783 0.0864003 -0.0301189 255 0 0
0.0259501 0.0864006 -0.0301191 255 0 0
0.0276220 0.0864013 -0.0301192 255 0 0
0.0292939 0.0864020 -0.0301194 255 0 0
-0.0425962 0.0880720 -0.0301181 255 0 0
-0.0409244 0.0880717 -0.0301178 255 0 0
-0.0392525 0.0880718 -0.0301175 255 0 0
-0.0375807 0.0880719 -0.0301170 255 0 0
-0.0359088 0.0880720 -0.0301165 255 0 0
-0.0342369 0.0880710 -0.0301160 255 0 0
-0.0325651 0.0880702 -0.0301157 255 0 0
-0.0308932 0.0880703 -0.0301153 255 0 0
-0.0292213 0.0880704 -0.0301150 255 0 0
-0.0275495 0.0880700 -0.0301148 255 0 0
-0.0258776 0.0880695 -0.0301146 255 0 0
-0.0242057 0.0880693 -0.0301145 255 0 0
-0.0225339 0.0880689 -0.0301146 255 0 0
-0.0208620 0.0880686 -0.0301147 255 0 0
-0.0191902 0.0880682 -0.0301147 255 0 0
-0.0175183 0.0880680 -0.0301147 255 0 0
-0.0158464 0.0880679 -0.0301148 255 0 0
-0.0141746 0.0880678 -0.0301149 255 0 0
-0.0125027 0.0880678 -0.0301149 255 0 0
-0.0108308 0.0880678 -0.0301150 255 0 0
-0.0091590 0.0880678 -0.0301150 255 0 0
-0.0074871 0.0880681 -0.0301151 255 0 0
-0.0058152 0.0880682 -0.0301151 255 0 0
-0.0041434 0.0880682 -0.0301151 255 0 0
-0.0024715 0.0880688 -0.0301152 255 0 0
-0.0007997 0.0880691 -0.0301153 255 0 0
0.0008722 0.0880694 -0.0301153 255 0 0
0.0025441 0.0880695 -0.0301154 255 0 0
0.0042159 0.0880696 -0.0301154 255 0 0
0.0058878 0.0880698 -0.0301156 255 0 0
0.0075596 0.0880700 -0.0301157 255 0 0
0.0092315 0.0880703 -0.0301159 255 0 0
0.0109034 0.0880703 -0.0301162 255 0 0
0.0125752 0.0880713 -0.0301165 255 0 0
0.0142471 0.0880717 -0.0301169 255 0 0
0.0159190 0.0880716 -0.0301173 255 0 0
0.0175908 0.0880717 -0.0301177 255 0 0
0.0192627 0.0880717 -0.0301180 255 0 0
0.0209345 0.0880720 -0.0301184 255 0 0
0.0226064 0.0880721 -0.0301187 255 0 0
0.0242783 0.0880722 -0.0301190 255 0 0
0.0259501 0.0880726 -0.0301191 255 0 0
0.0276220 0.0880733 -0.0301192 255 0 0
0.0292939 0.0880740 -0.0301195 255 0 0
-0.0409244 0.0897438 -0.0301179 255 0 0
-0.0392525 0.0897436 -0.0301176 255 0 0
-0.0375807 0.0897436 -0.0301172 255 0 0
-0.0359088 0.0897438 -0.0301167 255 0 0
-0.0342369 0.0897433 -0.0301163 255 0 0
-0.0325651 0.0897425 -0.0301160 255 0 0
-0.0308932 0.0897421 -0.0301157 255 0 0
-0.0292213 0.0897421 -0.0301153 255 0 0
-0.0275495 0.0897418 -0.0301150 255 0 0
-0.0258776 0.0897416 -0.0301149 255 0 0
-0.0242057 0.0897415 -0.0301148 255 0 0
-0.0225339 0.0897415 -0.0301149 255 0 0
-0.0208620 0.0897410 -0.0301149 255 0 0
-0.0191902 0.0897404 -0.0301150 255 0 0
-0.0175183 0.0897401 -0.0301150 255 0 0
-0.0158464 0.0897397 -0.0301151 255 0 0
-0.0141746 0.0897396 -0.0301151 255 0 0
-0.0125027 0.0897396 -0.0301152 255 0 0
-0.0108308 0.0897396 -0.0301152 255 0 0
-0.0091590 0.0897397 -0.0301153 255 0 0
-0.0074871 0.0897400 -0.0301153 255 0 0
-0.0058152 0.0897407 -0.0301154 255 0 0
-0.0041434 0.0897408 -0.0301154 255 0 0
-0.0024715 0.0897411 -0.0301154 255 0 0
-0.0007997 0.0897412 -0.0301155 255 0 0
0.0008722 0.0897416 -0.0301156 255 0 0
0.0025441 0.0897417 -0.0301157 255 0 0
0.0042159 0.0897417 -0.0301158 255 0 0
0.0058878 0.0897418 -0.0301159 255 0 0
0.0075596 0.0897419 -0.0301160 255 0 0
0.0092315 0.0897422 -0.0301162 255 0 0
0.0109034 0.0897426 -0.0301165 255 0 0
0.0125752 0.0897436 -0.0301168 255 0 0
0.0142471 0.0897435 -0.0301172 255 0 0
0.0159190 0.0897434 -0.0301175 255 0 0
0.0175908 0.0897435 -0.0301178 255 0 0
0.0192627 0.0897437 -0.0301181 255 0 0
0.0209345 0.0897439 -0.0301185 255 0 0
0.0226064 0.0897440 -0.0301188 255 0 0
0.0242783 0.0897441 -0.0301190 255 0 0
0.0259501 0.0897446 -0.0301192 255 0 0
0.0276220 0.0897454 -0.0301193 255 0 0
-0.0409244 0.0914157 -0.0301183 255 0 0
-0.0392525 0.0914156 -0.0301181 255 0 0
-0.0375807 0.0914156 -0.0301176 255 0 0
-0.0359088 0.0914157 -0.0301172 255 0 0
-0.0342369 0.0914156 -0.0301169 255 0 0
-0.0325651 0.0914152 -0.0301166 255 0 0
-0.0308932 0.0914145 -0.0301163 255 0 0
-0.0292213 0.0914143 -0.0301159 255 0 0
-0.0275495 0.0914136 -0.0301157 255 0 0
-0.0258776 0.0914134 -0.0301155 255 0 0
-0.0242057 0.0914133 -0.0301155 255 0 0
-0.0225339 0.0914132 -0.0301155 255 0 0
-0.0208620 0.0914128 -0.0301155 255 0 0
-0.0191902 0.0914126 -0.0301155 255 0 0
-0.0175183 0.0914124 -0.0301155 255 0 0
-0.0158464 0.0914124 -0.0301156 255 0 0
-0.0141746 0.0914123 -0.0301156 255 0 0
-0.0125027 0.0914122 -0.0301156 255 0 0
-0.0108308 0.0914122 -0.0301157 255 0 0
-0.0091590 0.0914124 -0.0301158 255 0 0
-0.0074871 0.0914124 -0.0301158 255 0 0
-0.0058153 0.0914125 -0.0301159 255 0 0
-0.0041434 0.0914126 -0.0301159 255 0 0
-0.0024715 0.0914131 -0.0301160 255 0 0
-0.0007997 0.0914131 -0.0301161 255 0 0
0.0008722 0.0914135 -0.0301162 255 0 0
0.0025441 0.0914138 -0.0301163 255 0 0
0.0042159 0.0914139 -0.0301164 255 0 0
0.0058878 0.0914142 -0.0301165 255 0 0
0.0075596 0.0914146 -0.0301167 255 0 0
0.0092315 0.0914149 -0.0301169 255 0 0
0.0109034 0.0914153 -0.0301171 255 0 0
0.0125752 0.0914152 -0.0301174 255 0 0
0.0142471 0.0914155 -0.0301178 255 0 0
0.0159190 0.0914156 -0.0301180 255 0 0
0.0175908 0.0914156 -0.0301183 255 0 0
0.0192627 0.0914157 -0.0301185 255 0 0
0.0209345 0.0914159 -0.0301188 255 0 0
0.0226064 0.0914160 -0.0301190 255 0 0
0.0242783 0.0914169 -0.0301192 255 0 0
0.0259501 0.0914175 -0.0301193 255 0 0
0.0276220 0.0914178 -0.0301194 255 0 0
-0.0409244 0.0930875 -0.0301185 255 0 0
-0.0392525 0.0930874 -0.0301183 255 0 0
-0.0375807 0.0930874 -0.0301180 255 0 0
-0.0359088 0.0930875 -0.0301177 255 0 0
-0.0342369 0.0930876 -0.0301174 255 0 0
-0.0325651 0.0930876 -0.0301171 255 0 0
-0.0308932 0.0930874 -0.0301169 255 0 0
-0.0292213 0.0930866 -0.0301165 255 0 0
-0.0275495 0.0930856 -0.0301163 255 0 0
-0.0258776 0.0930853 -0.0301161 255 0 0
-0.0242057 0.0930853 -0.0301161 255 0 0
-0.0225339 0.0930851 -0.0301160 255 0 0
-0.0208620 0.0930848 -0.0301160 255 0 0
-0.0191902 0.0930848 -0.0301160 255 0 0
-0.0175183 0.0930847 -0.0301160 255 0 0
-0.0158464 0.0930846 -0.0301160 255 0 0
-0.0141746 0.0930845 -0.0301160 255 0 0
-0.0125027 0.0930845 -0.0301161 255 0 0
-0.0108308 0.0930845 -0.0301161 255 0 0
-0.0091590 0.0930844 -0.0301162 255 0 0
-0.0074871 0.0930845 -0.0301162 255 0 0
-0.0058153 0.0930845 -0.0301163 255 0 0
-0.0041434 0.0930846 -0.0301163 255 0 0
-0.0024715 0.0930847 -0.0301164 255 0 0
-0.0007997 0.0930850 -0.0301165 255 0 0
0.0008722 0.0930860 -0.0301166 255 0 0
0.0025441 0.0930862 -0.0301167 255 0 0
0.0042159 0.0930864 -0.0301169 255 0 0
0.0058878 0.0930871 -0.0301171 255 0 0
0.0075596 0.0930874 -0.0301172 255 0 0
0.0092315 0.0930874 -0.0301174 255 0 0
0.0109034 0.0930873 -0.0301176 255 0 0
0.0125752 0.0930873 -0.0301179 255 0 0
0.0142471 0.0930873 -0.0301182 255 0 0
0.0159190 0.0930874 -0.0301184 255 0 0
0.0175908 0.0930874 -0.0301186 255 0 0
0.0192627 0.0930877 -0.0301188 255 0 0
0.0209345 0.0930881 -0.0301190 255 0 0
0.0226064 0.0930887 -0.0301192 255 0 0
0.0242783 0.0930893 -0.0301194 255 0 0
0.0259501 0.0930898 -0.0301195 255 0 0
-0.0392525 0.0947595 -0.0301185 255 0 0
-0.0375807 0.0947595 -0.0301183 255 0 0
-0.0359088 0.0947595 -0.0301180 255 0 0
-0.0342369 0.0947593 -0.0301178 255 0 0
-0.0325651 0.0947594 -0.0301175 255 0 0
-0.0308932 0.0947594 -0.0301173 255 0 0
-0.0292213 0.0947588 -0.0301169 255 0 0
-0.0275495 0.0947583 -0.0301167 255 0 0
-0.0258776 0.0947575 -0.0301166 255 0 0
-0.0242057 0.0947574 -0.0301165 255 0 0
-0.0225339 0.0947571 -0.0301165 255 0 0
-0.0208620 0.0947570 -0.0301164 255 0 0
-0.0191902 0.0947569 -0.0301164 255 0 0
-0.0175183 0.0947566 -0.0301164 255 0 0
-0.0158464 0.0947566 -0.0301164 255 0 0
-0.0141746 0.0947566 -0.0301164 255 0 0
-0.0125027 0.0947565 -0.0301164 255 0 0
-0.0108308 0.0947566 -0.0301165 255 0 0
-0.0091590 0.0947567 -0.0301165 255 0 0
-0.0074871 0.0947569 -0.0301166 255 0 0
-0.0058153 0.0947570 -0.0301166 255 0 0
-0.0041434 0.0947570 -0.0301168 255 0 0
-0.0024715 0.0947572 -0.0301168 255 0 0
-0.0007997 0.0947576 -0.0301169 255 0 0
0.0008722 0.0947582 -0.0301170 255 0 0
0.0025441 0.0947584 -0.0301172 255 0 0
0.0042159 0.0947591 -0.0301173 255 0 0
0.0058878 0.0947592 -0.0301175 255 0 0
0.0075596 0.0947592 -0.0301176 255 0 0
0.0092315 0.0947591 -0.0301178 255 0 0
0.0109034 0.0947591 -0.0301180 255 0 0
0.0125752 0.0947591 -0.0301183 255 0 0
0.0142471 0.0947594 -0.0301186 255 0 0
0.0159190 0.0947596 -0.0301188 255 0 0
0.0175908 0.0947596 -0.0301190 255 0 0
0.0192627 0.0947599 -0.0301191 255 0 0
0.0209345 0.0947604 -0.0301192 255 0 0
0.0226064 0.0947614 -0.0301193 255 0 0
0.0242783 0.0947619 -0.0301195 255 0 0
0.0259501 0.0947623 -0.0301195 255 0 0
-0.0392525 0.0964313 -0.0301185 255 0 0
-0.0375807 0.0964314 -0.0301184 255 0 0
-0.0359088 0.0964314 -0.0301182 255 0 0
-0.0342369 0.0964314 -0.0301180 255 0 0
-0.0325651 0.0964314 -0.0301178 255 0 0
-0.0308932 0.0964314 -0.0301176 255 0 0
-0.0292213 0.0964311 -0.0301173 255 0 0
-0.0275495 0.0964306 -0.0301171 255 0 0
-0.0258776 0.0964300 -0.0301169 255 0 0
-0.0242057 0.0964294 -0.0301169 255 0 0
-0.0225339 0.0964292 -0.0301168 255 0 0
-0.0208620 0.0964290 -0.0301168 255 0 0
-0.0191902 0.0964290 -0.0301168 255 0 0
-0.0175183 0.0964289 -0.0301167 255 0 0
-0.0158464 0.0964288 -0.0301168 255 0 0
-0.0141746 0.0964287 -0.0301168 255 0 0
-0.0125027 0.0964287 -0.0301168 255 0 0
-0.0108308 0.0964288 -0.0301168 255 0 0
-0.0091590 0.0964289 -0.0301169 255 0 0
-0.0074871 0.0964289 -0.0301169 255 0 0
-0.0058153 0.0964289 -0.0301170 255 0 0
-0.0041434 0.0964290 -0.0301171 255 0 0
-0.0024715 0.0964294 -0.0301171 255 0 0
-0.0007997 0.0964299 -0.0301173 255 0 0
0.0008722 0.0964306 -0.0301174 255 0 0
0.0025441 0.0964309 -0.0301175 255 0 0
0.0042159 0.0964310 -0.0301177 255 0 0
0.0058878 0.0964310 -0.0301178 255 0 0
0.0075596 0.0964311 -0.0301180 255 0 0
0.0092315 0.0964312 -0.0301181 255 0 0
0.0109034 0.0964312 -0.0301183 255 0 0
0.0125752 0.0964312 -0.0301185 255 0 0
0.0142471 0.0964313 -0.0301188 255 0 0
0.0159190 0.0964315 -0.0301190 255 0 0
0.0175908 0.0964316 -0.0301191 255 0 0
0.0192627 0.0964320 -0.0301191 255 0 0
0.0209345 0.0964326 -0.0301193 255 0 0
0.0226064 0.0964333 -0.0301194 255 0 0
0.0242783 0.0964339 -0.0301195 255 0 0
-0.0375807 0.0981032 -0.0301184 255 0 0
-0.0359088 0.0981032 -0.0301183 255 0 0
-0.0342369 0.0981032 -0.0301181 255 0 0
-0.0325651 0.0981032 -0.0301180 255 0 0
-0.0308932 0.0981032 -0.0301178 255 0 0
-0.0292213 0.0981032 -0.0301176 255 0 0
-0.0275495 0.0981031 -0.0301174 255 0 0
-0.0258776 0.0981025 -0.0301172 255 0 0
-0.0242057 0.0981018 -0.0301171 255 0 0
-0.0225339 0.0981013 -0.0301171 255 0 0
-0.0208620 0.0981011 -0.0301171 255 0 0
-0.0191902 0.0981011 -0.0301170 255 0 0
-0.0175183 0.0981010 -0.0301170 255 0 0
-0.0158464 0.0981010 -0.0301170 255 0 0
-0.0141746 0.0981009 -0.0301170 255 0 0
-0.0125027 0.0981009 -0.0301171 255 0 0
-0.0108308 0.0981009 -0.0301171 255 0 0
-0.0091590 0.0981010 -0.0301171 255 0 0
-0.0074871 0.0981009 -0.0301172 255 0 0
-0.0058153 0.0981010 -0.0301172 255 0 0
-0.0041434 0.0981013 -0.0301173 255 0 0
-0.0024715 0.0981022 -0.0301174 255 0 0
-0.0007997 0.0981028 -0.0301175 255 0 0
0.0008722 0.0981030 -0.0301176 255 0 0
0.0025441 0.0981030 -0.0301177 255 0 0
0.0042159 0.0981031 -0.0301179 255 0 0
0.0058878 0.0981031 -0.0301180 255 0 0
0.0075596 0.0981031 -0.0301182 255 0 0
0.0092315 0.0981031 -0.0301183 255 0 0
0.0109034 0.0981031 -0.0301185 255 0 0
0.0125752 0.0981030 -0.0301187 255 0 0
0.0142471 0.0981032 -0.0301189 255 0 0
0.0159190 0.0981035 -0.0301190 255 0 0
0.0175908 0.0981037 -0.0301191 255 0 0
0.0192627 0.0981042 -0.0301192 255 0 0
0.0209345 0.0981047 -0.0301193 255 0 0
0.0226064 0.0981052 -0.0301194 255 0 0
-0.0375807 0.0997750 -0.0301188 255 0 0
-0.0359088 0.0997750 -0.0301187 255 0 0
-0.0342369 0.0997751 -0.0301185 255 0 0
-0.0325651 0.0997751 -0.0301184 255 0 0
-0.0308932 0.0997751 -0.0301183 255 0 0
-0.0292213 0.0997750 -0.0301181 255 0 0
-0.0275495 0.0997750 -0.0301180 255 0 0
-0.0258776 0.0997750 -0.0301179 255 0 0
-0.0242057 0.0997749 -0.0301178 255 0 0
-0.0225339 0.0997749 -0.0301177 255 0 0
-0.0208620 0.0997744 -0.0301177 255 0 0
-0.0191902 0.0997739 -0.0301177 255 0 0
-0.0175183 0.0997736 -0.0301177 255 0 0
-0.0158464 0.0997735 -0.0301176 255 0 0
-0.0141746 0.0997735 -0.0301177 255 0 0
-0.0125027 0.0997735 -0.0301177 255 0 0
-0.0108308 0.0997735 -0.0301177 255 0 0
-0.0091590 0.0997737 -0.0301177 255 0 0
-0.0074871 0.0997742 -0.0301178 255 0 0
-0.0058153 0.0997744 -0.0301178 255 0 0
-0.0041434 0.0997747 -0.0301179 255 0 0
-0.0024715 0.0997747 -0.0301180 255 0 0
-0.0007997 0.0997748 -0.0301181 255 0 0
0.0008722 0.0997748 -0.0301182 255 0 0
0.0025441 0.0997749 -0.0301183 255 0 0
0.0042159 0.0997749 -0.0301184 255 0 0
0.0058878 0.0997749 -0.0301185 255 0 0
0.0075596 0.0997749 -0.0301186 255 0 0
0.0092315 0.0997748 -0.0301187 255 0 0
0.0109034 0.0997749 -0.0301188 255 0 0
0.0125752 0.0997751 -0.0301191 255 0 0
0.0142471 0.0997758 -0.0301192 255 0 0
0.0159190 0.0997760 -0.0301193 255 0 0
0.0175908 0.0997765 -0.0301193 255 0 0
0.0192627 0.0997769 -0.0301194 255 0 0
0.0209345 0.0997775 -0.0301195 255 0 0
-0.0359088 0.1014471 -0.0301189 255 0 0
-0.0342369 0.1014471 -0.0301188 255 0 0
-0.0325651 0.1014471 -0.0301187 255 0 0
-0.0308932 0.1014472 -0.0301186 255 0 0
-0.0292213 0.1014471 -0.0301185 255 0 0
-0.0275495 0.1014470 -0.0301184 255 0 0
-0.0258776 0.1014470 -0.0301184 255 0 0
-0.0242057 0.1014467 -0.0301183 255 0 0
-0.0225339 0.1014466 -0.0301182 255 0 0
-0.0208620 0.1014466 -0.0301182 255 0 0
-0.0191902 0.1014466 -0.0301182 255 0 0
-0.0175183 0.1014466 -0.0301182 255 0 0
-0.0158464 0.1014466 -0.0301182 255 0 0
-0.0141746 0.1014466 -0.0301182 255 0 0
-0.0125027 0.1014465 -0.0301182 255 0 0
-0.0108308 0.1014465 -0.0301182 255 0 0
-0.0091590 0.1014465 -0.0301182 255 0 0
-0.0074871 0.1014465 -0.0301182 255 0 0
-0.0058153 0.1014467 -0.0301183 255 0 0
-0.0041434 0.1014467 -0.0301184 255 0 0
-0.0024715 0.1014468 -0.0301184 255 0 0
-0.0007997 0.1014469 -0.0301185 255 0 0
0.0008722 0.1014469 -0.0301186 255 0 0
0.0025441 0.1014470 -0.0301187 255 0 0
0.0042159 0.1014470 -0.0301188 255 0 0
0.0058878 0.1014470 -0.0301189 255 0 0
0.0075596 0.1014470 -0.0301190 255 0 0
0.0092315 0.1014471 -0.0301191 255 0 0
0.0109034 0.1014472 -0.0301192 255 0 0
0.0125752 0.1014479 -0.0301193 255 0 0
0.0142471 0.1014482 -0.0301193 255 0 0
0.0159190 0.1014486 -0.0301194 255 0 0
0.0175908 0.1014491 -0.0301195 255 0 0
0.0192627 0.1014498 -0.0301196 255 0 0
0.0209345 0.1014508 -0.0301197 255 0 0
-0.0342369 0.1031190 -0.0301190 255 0 0
-0.0325651 0.1031190 -0.0301189 255 0 0
-0.0308932 0.1031190 -0.0301189 255 0 0
-0.0292213 0.1031190 -0.0301188 255 0 0
-0.0275495 0.1031190 -0.0301187 255 0 0
-0.0258776 0.1031189 -0.0301187 255 0 0
-0.0242057 0.1031189 -0.0301186 255 0 0
-0.0225339 0.1031188 -0.0301186 255 0 0
-0.0208620 0.1031187 -0.0301186 255 0 0
-0.0191902 0.1031187 -0.0301185 255 0 0
-0.0175183 0.1031187 -0.0301185 255 0 0
-0.0158464 0.1031187 -0.0301185 255 0 0
-0.0141746 0.1031187 -0.0301185 255 0 0
-0.0125027 0.1031187 -0.0301185 255 0 0
-0.0108308 0.1031187 -0.0301185 255 0 0
-0.0091590 0.1031187 -0.0301185 255 0 0
-0.0074871 0.1031187 -0.0301186 255 0 0
-0.0058153 0.1031186 -0.0301187 255 0 0
-0.0041434 0.1031186 -0.0301187 255 0 0
-0.0024715 0.1031186 -0.0301188 255 0 0
-0.0007997 0.1031188 -0.0301189 255 0 0
0.0008722 0.1031189 -0.0301189 255 0 0
0.0025441 0.1031189 -0.0301190 255 0 0
0.0042159 0.1031189 -0.0301191 255 0 0
0.0058878 0.1031189 -0.0301191 255 0 0
0.0075596 0.1031191 -0.0301192 255 0 0
0.0092315 0.1031196 -0.0301193 255 0 0
0.0109034 0.1031201 -0.0301193 255 0 0
0.0125752 0.1031205 -0.0301194 255 0 0
0.0142471 0.1031209 -0.0301196 255 0 0
0.0159190 0.1031219 -0.0301196 255 0 0
0.0175908 0.1031222 -0.0301196 255 0 0
0.0192627 0.1031225 -0.0301197 255 0 0
-0.0325651 0.1047909 -0.0301189 255 0 0
-0.0308932 0.1047909 -0.0301189 255 0 0
-0.0292213 0.1047909 -0.0301189 255 0 0
-0.0275495 0.1047909 -0.0301188 255 0 0
-0.0258776 0.1047908 -0.0301188 255 0 0
-0.0242057 0.1047907 -0.0301188 255 0 0
-0.0225339 0.1047907 -0.0301187 255 0 0
-0.0208620 0.1047906 -0.0301187 255 0 0
-0.0191902 0.1047906 -0.0301187 255 0 0
-0.0175183 0.1047906 -0.0301187 255 0 0
-0.0158464 0.1047906 -0.0301187 255 0 0
-0.0141746 0.1047905 -0.0301187 255 0 0
-0.0125027 0.1047905 -0.0301187 255 0 0
-0.0108308 0.1047905 -0.0301187 255 0 0
-0.0091590 0.1047905 -0.0301188 255 0 0
-0.0074871 0.1047905 -0.0301188 255 0 0
-0.0058153 0.1047905 -0.0301188 255 0 0
-0.0041434 0.1047905 -0.0301189 255 0 0
-0.0024715 0.1047906 -0.0301189 255 0 0
-0.0007997 0.1047908 -0.0301190 255 0 0
0.0008722 0.1047908 -0.0301190 255 0 0
0.0025441 0.1047908 -0.0301191 255 0 0
0.0042159 0.1047908 -0.0301192 255 0 0
0.0058878 0.1047913 -0.0301193 255 0 0
0.0075596 0.1047918 -0.0301193 255 0 0
0.0092315 0.1047920 -0.0301194 255 0 0
0.0109034 0.1047923 -0.0301194 255 0 0
0.0125752 0.1047926 -0.0301195 255 0 0
0.0142471 0.1047933 -0.0301196 255 0 0
0.0159190 0.1047939 -0.0301196 255 0 0
0.0175908 0.1047941 -0.0301197 255 0 0
-0.0292213 0.1064625 -0.0301188 255 0 0
-0.0275495 0.1064626 -0.0301187 255 0 0
-0.0258776 0.1064626 -0.0301187 255 0 0
-0.0242057 0.1064626 -0.0301188 255 0 0
-0.0225339 0.1064626 -0.0301188 255 0 0
-0.0208620 0.1064624 -0.0301188 255 0 0
-0.0191902 0.1064624 -0.0301188 255 0 0
-0.0175183 0.1064624 -0.0301188 255 0 0
-0.0158464 0.1064624 -0.0301188 255 0 0
-0.0141746 0.1064624 -0.0301189 255 0 0
-0.0125027 0.1064623 -0.0301189 255 0 0
-0.0108308 0.1064624 -0.0301189 255 0 0
-0.0091590 0.1064626 -0.0301189 255 0 0
-0.0074871 0.1064627 -0.0301189 255 0 0
-0.0058153 0.1064627 -0.0301190 255 0 0
-0.0041434 0.1064628 -0.0301191 255 0 0
-0.0024715 0.1064629 -0.0301191 255 0 0
-0.0007997 0.1064630 -0.0301192 255 0 0
0.0008722 0.1064630 -0.0301192 255 0 0
0.0025441 0.1064631 -0.0301193 255 0 0
0.0042159 0.1064633 -0.0301193 255 0 0
0.0058878 0.1064635 -0.0301194 255 0 0
0.0075596 0.1064639 -0.0301194 255 0 0
0.0092315 0.1064643 -0.0301194 255 0 0
0.0109034 0.1064644 -0.0301195 255 0 0
0.0125752 0.1064648 -0.0301196 255 0 0
0.0142471 0.1064653 -0.0301196 255 0 0
-0.0258776 0.1081354 -0.0301194 255 0 0
-0.0242057 0.1081352 -0.0301193 255 0 0
-0.0225339 0.1081351 -0.0301193 255 0 0
-0.0208620 0.1081350 -0.0301192 255 0 0
-0.0191902 0.1081350 -0.0301192 255 0 0
-0.0175183 0.1081350 -0.0301192 255 0 0
-0.0158464 0.1081349 -0.0301192 255 0 0
-0.0141746 0.1081348 -0.0301192 255 0 0
-0.0125027 0.1081348 -0.0301192 255 0 0
-0.0108308 0.1081348 -0.0301192 255 0 0
-0.0091590 0.1081349 -0.0301192 255 0 0
-0.0074871 0.1081349 -0.0301192 255 0 0
-0.0058153 0.1081350 -0.0301193 255 0 0
-0.0041434 0.1081351 -0.0301193 255 0 0
-0.0024715 0.1081351 -0.0301193 255 0 0
-0.0007997 0.1081353 -0.0301194 255 0 0
0.0008722 0.1081354 -0.0301194 255 0 0
0.0025441 0.1081357 -0.0301194 255 0 0
0.0042159 0.1081364 -0.0301195 255 0 0
0.0058878 0.1081365 -0.0301195 255 0 0
0.0075596 0.1081369 -0.0301196 255 0 0
0.0092315 0.1081371 -0.0301197 255 0 0
0.0109034 0.1081375 -0.0301197 255 0 0
0.0125752 0.1081383 -0.0301197 255 0 0
-0.0225339 0.1098074 -0.0301194 255 0 0
-0.0208620 0.1098073 -0.0301194 255 0 0
-0.0191902 0.1098073 -0.0301194 255 0 0
-0.0175183 0.1098072 -0.0301195 255 0 0
-0.0158464 0.1098072 -0.0301194 255 0 0
-0.0141746 0.1098072 -0.0301194 255 0 0
-0.0125027 0.1098072 -0.0301194 255 0 0
-0.0108308 0.1098073 -0.0301194 255 0 0
-0.0091590 0.1098074 -0.0301194 255 0 0
-0.0074871 0.1098075 -0.0301195 255 0 0
-0.0058153 0.1098076 -0.0301195 255 0 0
-0.0041434 0.1098078 -0.0301195 255 0 0
-0.0024715 0.1098080 -0.0301195 255 0 0
-0.0007997 0.1098081 -0.0301195 255 0 0
0.0008722 0.1098085 -0.0301195 255 0 0
0.0025441 0.1098085 -0.0301196 255 0 0
0.0042159 0.1098090 -0.0301196 255 0 0
0.0058878 0.1098092 -0.0301197 255 0 0
0.0075596 0.1098098 -0.0301197 255 0 0
0.0092315 0.1098109 -0.0301198 255 0 0
0.0109034 0.1098110 -0.0301198 255 0 0
-0.0191902 0.1114802 -0.0301195 255 0 0
-0.0175183 0.1114801 -0.0301195 255 0 0
-0.0158464 0.1114800 -0.0301195 255 0 0
-0.0141746 0.1114799 -0.0301195 255 0 0
-0.0125027 0.1114799 -0.0301195 255 0 0
-0.0108308 0.1114799 -0.0301196 255 0 0
-0.0091590 0.1114800 -0.0301196 255 0 0
-0.0074871 0.1114800 -0.0301196 255 0 0
-0.0058153 0.1114800 -0.0301196 255 0 0
-0.0041434 0.1114804 -0.0301196 255 0 0
-0.0024715 0.1114805 -0.0301196 255 0 0
-0.0007997 0.1114806 -0.0301196 255 0 0
0.0008722 0.1114807 -0.0301196 255 0 0
0.0025441 0.1114810 -0.0301196 255 0 0
0.0042159 0.1114817 -0.0301197 255 0 0
0.0058878 0.1114828 -0.0301198 255 0 0
0.0075596 0.1114829 -0.0301199 255 0 0
-0.0175183 0.1131518 -0.0301195 255 0 0
-0.0158464 0.1131518 -0.0301195 255 0 0
-0.0141746 0.1131518 -0.0301195 255 0 0
-0.0125027 0.1131518 -0.0301196 255 0 0
-0.0108308 0.1131518 -0.0301196 255 0 0
-0.0091590 0.1131518 -0.0301196 255 0 0
-0.0074871 0.1131519 -0.0301196 255 0 0
-0.0058153 0.1131521 -0.0301196 255 0 0
-0.0041434 0.1131523 -0.0301196 255 0 0
-0.0024715 0.1131524 -0.0301196 255 0 0
-0.0007997 0.1131528 -0.0301197 255 0 0
0.0008722 0.1131532 -0.0301197 255 0 0
0.0025441 0.1131533 -0.0301197 255 0 0
0.0042159 0.1131539 -0.0301198 255 0 0
-0.0125027 0.1148230 -0.0301196 255 0 0
-0.0108308 0.1148229 -0.0301196 255 0 0
-0.0091590 0.1148231 -0.0301196 255 0 0
-0.0074871 0.1148235 -0.0301196 255 0 0
-0.0058153 0.1148238 -0.0301196 255 0 0
-0.0041434 0.1148236 -0.0301196 255 0 0
-0.0024715 0.1148237 -0.0301197 255 0 0
-0.0007997 0.1148241 -0.0301197 255 0 0
0.0008722 0.1148254 -0.0301199 255 0 0
-0.0074871 0.0395865 -0.0284477 255 0 0
-0.0058153 0.0395865 -0.0284477 255 0 0
-0.0041434 0.0395865 -0.0284476 255 0 0
-0.0024715 0.0395865 -0.0284476 255 0 0
-0.0191902 0.0412585 -0.0284477 255 0 0
-0.0175183 0.0412584 -0.0284477 255 0 0
-0.0158464 0.0412583 -0.0284477 255 0 0
-0.0141746 0.0412583 -0.0284477 255 0 0
-0.0125027 0.0412583 -0.0284477 255 0 0
-0.0108308 0.0412582 -0.0284477 255 0 0
-0.0091590 0.0412581 -0.0284476 255 0 0
-0.0074871 0.0412581 -0.0284476 255 0 0
-0.0058153 0.0412581 -0.0284476 255 0 0
-0.0041434 0.0412581 -0.0284476 255 0 0
-0.0024715 0.0412581 -0.0284476 255 0 0
-0.0007997 0.0412581 -0.0284476 255 0 0
0.0008722 0.0412582 -0.0284476 255 0 0
0.0025441 0.0412582 -0.0284476 255 0 0
0.0042159 0.0412584 -0.0284476 255 0 0
0.0058878 0.0412584 -0.0284476 255 0 0
-0.0225339 0.0429303 -0.0284477 255 0 0
-0.0208620 0.0429303 -0.0284477 255 0 0
-0.0191902 0.0429301 -0.0284477 255 0 0
-0.0175183 0.0429301 -0.0284477 255 0 0
-0.0158464 0.0429299 -0.0284477 255 0 0
-0.0141746 0.0429298 -0.0284477 255 0 0
-0.0125027 0.0429298 -0.0284476 255 0 0
-0.0108308 0.0429298 -0.0284476 255 0 0
-0.0091590 0.0429298 -0.0284476 255 0 0
-0.0074871 0.0429298 -0.0284475 255 0 0
-0.0058153 0.0429298 -0.0284475 255 0 0
-0.0041434 0.0429298 -0.0284475 255 0 0
-0.0024715 0.0429298 -0.0284475 255 0 0
-0.0007997 0.0429298 -0.0284475 255 0 0
0.0008722 0.0429298 -0.0284475 255 0 0
0.0025441 0.0429298 -0.0284475 255 0 0
0.0042159 0.0429299 -0.0284476 255 0 0
0.0058878 0.0429299 -0.0284476 255 0 0
0.0075596 0.0429302 -0.0284476 255 0 0
0.0092315 0.0429303 -0.0284476 255 0 0
-0.0258776 0.0446022 -0.0284476 255 0 0
-0.0242057 0.0446021 -0.0284476 255 0 0
-0.0225339 0.0446019 -0.0284476 255 0 0
-0.0208620 0.0446019 -0.0284476 255 0 0
-0.0191902 0.0446019 -0.0284476 255 0 0
-0.0175183 0.0446017 -0.0284476 255 0 0
-0.0158464 0.0446017 -0.0284476 255 0 0
-0.0141746 0.0446016 -0.0284475 255 0 0
-0.0125027 0.0446014 -0.0284475 255 0 0
-0.0108308 0.0446012 -0.0284474 255 0 0
-0.0091590 0.0446012 -0.0284474 255 0 0
-0.0074871 0.0446011 -0.0284474 255 0 0
-0.0058153 0.0446011 -0.0284474 255 0 0
-0.0041434 0.0446011 -0.0284474 255 0 0
-0.0024715 0.0446011 -0.0284474 255 0 0
-0.0007997 0.0446011 -0.0284474 255 0 0
0.0008722 0.0446011 -0.0284474 255 0 0
0.0025441 0.0446014 -0.0284474 255 0 0
0.0042159 0.0446017 -0.0284475 255 0 0
0.0058878 0.0446017 -0.0284475 255 0 0
0.0075596 0.0446017 -0.0284475 255 0 0
0.0092315 0.0446018 -0.0284475 255 0 0
0.0109034 0.0446020 -0.0284475 255 0 0
0.0125752 0.0446022 -0.0284475 255 0 0
-0.0292213 0.0462742 -0.0284476 255 0 0
-0.0275495 0.0462741 -0.0284475 255 0 0
-0.0258776 0.0462738 -0.0284475 255 0 0
-0.0242057 0.0462738 -0.0284475 255 0 0
-0.0225339 0.0462737 -0.0284474 255 0 0
-0.0208620 0.0462735 -0.0284475 255 0 0
-0.0191902 0.0462735 -0.0284475 255 0 0
-0.0175183 0.0462734 -0.0284475 255 0 0
-0.0158464 0.0462731 -0.0284475 255 0 0
-0.0141746 0.0462730 -0.0284474 255 0 0
-0.0125027 0.0462729 -0.0284474 255 0 0
-0.0108308 0.0462729 -0.0284473 255 0 0
-0.0091590 0.0462729 -0.0284473 255 0 0
-0.0074871 0.0462729 -0.0284473 255 0 0
-0.0058153 0.0462729 -0.0284473 255 0 0
-0.0041434 0.0462729 -0.0284472 255 0 0
-0.0024715 0.0462729 -0.0284472 255 0 0
-0.0007997 0.0462729 -0.0284473 255 0 0
0.0008722 0.0462730 -0.0284473 255 0 0
0.0025441 0.0462730 -0.0284473 255 0 0
0.0042159 0.0462730 -0.0284474 255 0 0
0.0058878 0.0462734 -0.0284474 255 0 0
0.0075596 0.0462734 -0.0284474 255 0 0
0.0092315 0.0462735 -0.0284474 255 0 0
0.0109034 0.0462736 -0.0284474 255 0 0
0.0125752 0.0462739 -0.0284474 255 0 0
0.0142471 0.0462739 -0.0284475 255 0 0
-0.0308932 0.0479462 -0.0284476 255 0 0
-0.0292213 0.0479459 -0.0284475 255 0 0
-0.0275495 0.0479458 -0.0284475 255 0 0
-0.0258776 0.0479456 -0.0284475 255 0 0
-0.0242057 0.0479456 -0.0284475 255 0 0
-0.0225339 0.0479454 -0.0284474 255 0 0
-0.0208620 0.0479454 -0.0284474 255 0 0
-0.0191902 0.0479450 -0.0284474 255 0 0
-0.0175183 0.0479446 -0.0284473 255 0 0
-0.0158464 0.0479447 -0.0284473 255 0 0
-0.0141746 0.0479447 -0.0284473 255 0 0
-0.0125027 0.0479447 -0.0284472 255 0 0
-0.0108308 0.0479447 -0.0284472 255 0 0
-0.0091590 0.0479447 -0.0284472 255 0 0
-0.0074871 0.0479447 -0.0284472 255 0 0
-0.0058153 0.0479447 -0.0284472 255 0 0
-0.0041434 0.0479448 -0.0284472 255 0 0
-0.0024715 0.0479448 -0.0284472 255 0 0
-0.0007997 0.0479447 -0.0284472 255 0 0
0.0008722 0.0479447 -0.0284472 255 0 0
0.0025441 0.0479448 -0.0284473 255 0 0
0.0042159 0.0479447 -0.0284473 255 0 0
0.0058878 0.0479449 -0.0284473 255 0 0
0.0075596 0.0479452 -0.0284473 255 0 0
0.0092315 0.0479454 -0.0284473 255 0 0
0.0109034 0.0479454 -0.0284473 255 0 0
0.0125752 0.0479455 -0.0284474 255 0 0
0.0142471 0.0479458 -0.0284474 255 0 0
0.0159190 0.0479459 -0.0284474 255 0 0
-0.0325651 0.0496180 -0.0284475 255 0 0
-0.0308932 0.0496177 -0.0284474 255 0 0
-0.0292213 0.0496174 -0.0284474 255 0 0
-0.0275495 0.0496174 -0.0284474 255 0 0
-0.0258776 0.0496171 -0.0284473 255 0 0
-0.0242057 0.0496166 -0.0284473 255 0 0
-0.0225339 0.0496165 -0.0284472 255 0 0
-0.0208620 0.0496164 -0.0284472 255 0 0
-0.0191902 0.0496162 -0.0284471 255 0 0
-0.0175183 0.0496162 -0.0284471 255 0 0
-0.0158464 0.0496163 -0.0284470 255 0 0
-0.0141746 0.0496160 -0.0284470 255 0 0
-0.0125027 0.0496158 -0.0284470 255 0 0
-0.0108308 0.0496157 -0.0284470 255 0 0
-0.0091590 0.0496156 -0.0284469 255 0 0
-0.0074871 0.0496156 -0.0284469 255 0 0
-0.0058153 0.0496156 -0.0284469 255 0 0
-0.0041434 0.0496156 -0.0284469 255 0 0
-0.0024715 0.0496156 -0.0284469 255 0 0
-0.0007997 0.0496156 -0.0284469 255 0 0
0.0008722 0.0496157 -0.0284469 255 0 0
0.0025441 0.0496160 -0.0284469 255 0 0
0.0042159 0.0496163 -0.0284470 255 0 0
0.0058878 0.0496163 -0.0284470 255 0 0
0.0075596 0.0496165 -0.0284471 255 0 0
0.0092315 0.0496165 -0.0284472 255 0 0
0.0109034 0.0496167 -0.0284472 255 0 0
0.0125752 0.0496172 -0.0284472 255 0 0
0.0142471 0.0496174 -0.0284473 255 0 0
