ply
format ascii 1.0
element vertex 1229
property float x
property float y
property float z
property uchar red
property uchar green
property uchar blue
end_header
-0.0636567 0.0670520 0.0322507 255 0 0
-0.0613684 0.0670540 0.0322514 255 0 0
-0.0590713 0.0670552 0.0322521 255 0 0
-0.0567814 0.0670563 0.0322527 255 0 0
-0.0544875 0.0670568 0.0322532 255 0 0
-0.0521925 0.0670568 0.0322541 255 0 0
-0.0499070 0.0670572 0.0322554 255 0 0
-0.0476207 0.0670569 0.0322565 255 0 0
-0.0453830 0.0670573 0.0322575 255 0 0
-0.0431175 0.0670576 0.0322578 255 0 0
-0.0407940 0.0670571 0.0322565 255 0 0
-0.0384879 0.0670570 0.0322560 255 0 0
-0.0361894 0.0670573 0.0322562 255 0 0
-0.0338903 0.0670576 0.0322560 255 0 0
-0.0315906 0.0670575 0.0322565 255 0 0
-0.0293054 0.0670581 0.0322596 255 0 0
-0.0270019 0.0670577 0.0322665 255 0 0
-0.0248005 0.0670596 0.0322581 255 0 0
-0.0225627 0.0670592 0.0322526 255 0 0
-0.0202169 0.0670598 0.0322568 255 0 0
-0.0178937 0.0670595 0.0322591 255 0 0
-0.0156019 0.0670601 0.0322590 255 0 0
-0.0133100 0.0670610 0.0322595 255 0 0
-0.0110173 0.0670617 0.0322605 255 0 0
-0.0087203 0.0670619 0.0322619 255 0 0
-0.0064217 0.0670628 0.0322648 255 0 0
-0.0041281 0.0670626 0.0322714 255 0 0
-0.0018163 0.0670685 0.0322792 255 0 0
0.0004289 0.0670274 0.0323938 255 0 0
0.0027202 0.0670094 0.0324781 255 0 0
0.0051259 0.0670251 0.0325001 255 0 0
-0.0820524 0.0693799 0.0324489 255 0 0
-0.0797101 0.0693682 0.0323830 255 0 0
-0.0773914 0.0693687 0.0323454 255 0 0
-0.0750905 0.0693659 0.0323241 255 0 0
-0.0727839 0.0693657 0.0323124 255 0 0
-0.0705691 0.0693689 0.0323091 255 0 0
-0.0683133 0.0693725 0.0323067 255 0 0
-0.0659710 0.0693724 0.0323052 255 0 0
-0.0636576 0.0693738 0.0323052 255 0 0
-0.0613680 0.0693768 0.0323068 255 0 0
-0.0590705 0.0693779 0.0323081 255 0 0
-0.0567809 0.0693785 0.0323094 255 0 0
-0.0544845 0.0693792 0.0323102 255 0 0
-0.0521903 0.0693795 0.0323113 255 0 0
-0.0499051 0.0693796 0.0323128 255 0 0
-0.0476189 0.0693793 0.0323140 255 0 0
-0.0453862 0.0693797 0.0323155 255 0 0
-0.0431205 0.0693798 0.0323157 255 0 0
-0.0407967 0.0693790 0.0323137 255 0 0
-0.0384875 0.0693791 0.0323125 255 0 0
-0.0361890 0.0693796 0.0323123 255 0 0
-0.0338893 0.0693803 0.0323120 255 0 0
-0.0315889 0.0693806 0.0323122 255 0 0
-0.0293030 0.0693814 0.0323153 255 0 0
-0.0269985 0.0693804 0.0323219 255 0 0
-0.0248036 0.0693821 0.0323125 255 0 0
-0.0225701 0.0693840 0.0323060 255 0 0
-0.0202193 0.0693827 0.0323100 255 0 0
-0.0178938 0.0693837 0.0323122 255 0 0
-0.0156014 0.0693846 0.0323116 255 0 0
-0.0133092 0.0693856 0.0323117 255 0 0
-0.0110169 0.0693864 0.0323123 255 0 0
-0.0087189 0.0693861 0.0323131 255 0 0
-0.0064195 0.0693865 0.0323148 255 0 0
-0.0041269 0.0693879 0.0323190 255 0 0
-0.0018217 0.0693911 0.0323318 255 0 0
0.0004373 0.0693855 0.0323673 255 0 0
0.0027349 0.0693839 0.0324089 255 0 0
0.0051202 0.0693866 0.0324807 255 0 0
-0.0843625 0.0716686 0.0325120 255 0 0
-0.0820226 0.0716749 0.0324258 255 0 0
-0.0797019 0.0716815 0.0323685 255 0 0
-0.0773847 0.0716834 0.0323384 255 0 0
-0.0750801 0.0716849 0.0323210 255 0 0
-0.0727819 0.0716831 0.0323105 255 0 0
-0.0705673 0.0716852 0.0323077 255 0 0
-0.0683131 0.0716884 0.0323056 255 0 0
-0.0659701 0.0716890 0.0323041 255 0 0
-0.0636565 0.0716897 0.0323040 255 0 0
-0.0613676 0.0716916 0.0323056 255 0 0
-0.0590701 0.0716926 0.0323068 255 0 0
-0.0567805 0.0716929 0.0323076 255 0 0
-0.0544840 0.0716931 0.0323082 255 0 0
-0.0521893 0.0716931 0.0323088 255 0 0
-0.0499043 0.0716932 0.0323099 255 0 0
-0.0476178 0.0716933 0.0323107 255 0 0
-0.0453866 0.0716943 0.0323113 255 0 0
-0.0431211 0.0716948 0.0323114 255 0 0
-0.0407967 0.0716940 0.0323097 255 0 0
-0.0384870 0.0716942 0.0323088 255 0 0
-0.0361885 0.0716953 0.0323087 255 0 0
-0.0338884 0.0716961 0.0323085 255 0 0
-0.0315875 0.0716965 0.0323085 255 0 0
-0.0293020 0.0716968 0.0323110 255 0 0
-0.0269969 0.0716956 0.0323172 255 0 0
-0.0248040 0.0716987 0.0323087 255 0 0
-0.0225710 0.0716989 0.0323027 255 0 0
-0.0202187 0.0716989 0.0323060 255 0 0
-0.0178930 0.0716987 0.0323077 255 0 0
-0.0156007 0.0716994 0.0323071 255 0 0
-0.0133088 0.0716997 0.0323070 255 0 0
-0.0110166 0.0717000 0.0323073 255 0 0
-0.0087187 0.0717003 0.0323082 255 0 0
-0.0064200 0.0717007 0.0323102 255 0 0
-0.0041294 0.0717025 0.0323150 255 0 0
-0.0018263 0.0717058 0.0323280 255 0 0
0.0004209 0.0717088 0.0323576 255 0 0
0.0027136 0.0717116 0.0323954 255 0 0
0.0050875 0.0717146 0.0324561 255 0 0
-0.0866987 0.0739264 0.0323880 255 0 0
-0.0843345 0.0739577 0.0324717 255 0 0
-0.0820129 0.0739809 0.0324001 255 0 0
-0.0796865 0.0739951 0.0323544 255 0 0
-0.0773750 0.0739988 0.0323316 255 0 0
-0.0750747 0.0740001 0.0323179 255 0 0
-0.0727796 0.0739990 0.0323099 255 0 0
-0.0705675 0.0740005 0.0323077 255 0 0
-0.0683144 0.0740041 0.0323062 255 0 0
-0.0659710 0.0740046 0.0323047 255 0 0
-0.0636567 0.0740052 0.0323041 255 0 0
-0.0613667 0.0740063 0.0323052 255 0 0
-0.0590691 0.0740074 0.0323061 255 0 0
-0.0567793 0.0740081 0.0323068 255 0 0
-0.0544811 0.0740086 0.0323072 255 0 0
-0.0521878 0.0740088 0.0323079 255 0 0
-0.0499032 0.0740094 0.0323091 255 0 0
-0.0476166 0.0740095 0.0323098 255 0 0
-0.0453869 0.0740108 0.0323100 255 0 0
-0.0431212 0.0740117 0.0323098 255 0 0
-0.0407961 0.0740112 0.0323081 255 0 0
-0.0384865 0.0740113 0.0323067 255 0 0
-0.0361877 0.0740123 0.0323066 255 0 0
-0.0338876 0.0740132 0.0323063 255 0 0
-0.0315866 0.0740142 0.0323064 255 0 0
-0.0293015 0.0740143 0.0323092 255 0 0
-0.0269959 0.0740132 0.0323156 255 0 0
-0.0248044 0.0740158 0.0323073 255 0 0
-0.0225722 0.0740169 0.0323013 255 0 0
-0.0202191 0.0740155 0.0323047 255 0 0
-0.0178928 0.0740151 0.0323063 255 0 0
-0.0156003 0.0740154 0.0323061 255 0 0
-0.0133083 0.0740158 0.0323061 255 0 0
-0.0110161 0.0740158 0.0323063 255 0 0
-0.0087184 0.0740159 0.0323070 255 0 0
-0.0064203 0.0740161 0.0323091 255 0 0
-0.0041312 0.0740169 0.0323138 255 0 0
-0.0018298 0.0740186 0.0323263 255 0 0
0.0004089 0.0740271 0.0323480 255 0 0
0.0026964 0.0740308 0.0323830 255 0 0
0.0050618 0.0740305 0.0324312 255 0 0
0.0074611 0.0740777 0.0324107 255 0 0
-0.0866526 0.0762301 0.0324663 255 0 0
-0.0843178 0.0762727 0.0324172 255 0 0
-0.0820018 0.0762921 0.0323684 255 0 0
-0.0796761 0.0762997 0.0323366 255 0 0
-0.0773671 0.0763027 0.0323206 255 0 0
-0.0750729 0.0763042 0.0323119 255 0 0
-0.0727772 0.0763053 0.0323070 255 0 0
-0.0705650 0.0763083 0.0323061 255 0 0
-0.0683151 0.0763100 0.0323053 255 0 0
-0.0659708 0.0763126 0.0323034 255 0 0
-0.0636561 0.0763154 0.0323021 255 0 0
-0.0613653 0.0763174 0.0323029 255 0 0
-0.0590689 0.0763186 0.0323035 255 0 0
-0.0567795 0.0763196 0.0323036 255 0 0
-0.0544832 0.0763206 0.0323038 255 0 0
-0.0521872 0.0763211 0.0323043 255 0 0
-0.0499032 0.0763216 0.0323051 255 0 0
-0.0476164 0.0763217 0.0323055 255 0 0
-0.0453865 0.0763233 0.0323055 255 0 0
-0.0431224 0.0763243 0.0323052 255 0 0
-0.0407969 0.0763236 0.0323032 255 0 0
-0.0384868 0.0763236 0.0323021 255 0 0
-0.0361880 0.0763244 0.0323020 255 0 0
-0.0338874 0.0763251 0.0323019 255 0 0
-0.0315865 0.0763255 0.0323021 255 0 0
-0.0293005 0.0763243 0.0323047 255 0 0
-0.0269959 0.0763212 0.0323122 255 0 0
-0.0248046 0.0763260 0.0323031 255 0 0
-0.0225731 0.0763297 0.0322979 255 0 0
-0.0202206 0.0763262 0.0323010 255 0 0
-0.0178925 0.0763232 0.0323026 255 0 0
-0.0156004 0.0763235 0.0323025 255 0 0
-0.0133081 0.0763235 0.0323029 255 0 0
-0.0110158 0.0763234 0.0323036 255 0 0
-0.0087183 0.0763232 0.0323048 255 0 0
-0.0064206 0.0763244 0.0323067 255 0 0
-0.0041325 0.0763249 0.0323111 255 0 0
-0.0018333 0.0763240 0.0323214 255 0 0
0.0004017 0.0763276 0.0323358 255 0 0
0.0026842 0.0763277 0.0323669 255 0 0
0.0050421 0.0763292 0.0324018 255 0 0
0.0074160 0.0763398 0.0324387 255 0 0
-0.0889631 0.0785003 0.0326544 255 0 0
-0.0866348 0.0785465 0.0324910 255 0 0
-0.0843142 0.0785837 0.0323755 255 0 0
-0.0819888 0.0785974 0.0323437 255 0 0
-0.0796748 0.0786029 0.0323223 255 0 0
-0.0773620 0.0786058 0.0323108 255 0 0
-0.0750726 0.0786066 0.0323049 255 0 0
-0.0727759 0.0786089 0.0323018 255 0 0
-0.0705630 0.0786123 0.0323020 255 0 0
-0.0683174 0.0786148 0.0323016 255 0 0
-0.0659717 0.0786166 0.0322985 255 0 0
-0.0636565 0.0786194 0.0322974 255 0 0
-0.0613643 0.0786217 0.0322981 255 0 0
-0.0590680 0.0786233 0.0322986 255 0 0
-0.0567789 0.0786244 0.0322985 255 0 0
-0.0544830 0.0786253 0.0322985 255 0 0
-0.0521861 0.0786263 0.0322988 255 0 0
-0.0499025 0.0786269 0.0322994 255 0 0
-0.0476164 0.0786272 0.0322999 255 0 0
-0.0453863 0.0786270 0.0323000 255 0 0
-0.0431229 0.0786271 0.0322997 255 0 0
-0.0407962 0.0786285 0.0322975 255 0 0
-0.0384864 0.0786287 0.0322966 255 0 0
-0.0361874 0.0786277 0.0322967 255 0 0
-0.0338865 0.0786274 0.0322966 255 0 0
-0.0315868 0.0786270 0.0322968 255 0 0
-0.0293000 0.0786252 0.0323005 255 0 0
-0.0269952 0.0786230 0.0323087 255 0 0
-0.0248050 0.0786280 0.0322990 255 0 0
-0.0225742 0.0786313 0.0322938 255 0 0
-0.0202213 0.0786267 0.0322974 255 0 0
-0.0178925 0.0786251 0.0322988 255 0 0
-0.0156003 0.0786258 0.0322988 255 0 0
-0.0133079 0.0786263 0.0322992 255 0 0
-0.0110155 0.0786267 0.0322999 255 0 0
-0.0087185 0.0786270 0.0323011 255 0 0
-0.0064207 0.0786261 0.0323029 255 0 0
-0.0041336 0.0786264 0.0323064 255 0 0
-0.0018360 0.0786262 0.0323150 255 0 0
0.0003957 0.0786267 0.0323253 255 0 0
0.0026738 0.0786252 0.0323506 255 0 0
0.0050268 0.0786258 0.0323737 255 0 0
0.0073885 0.0786220 0.0324269 255 0 0
-0.0889374 0.0808226 0.0325418 255 0 0
-0.0866168 0.0808603 0.0324292 255 0 0
-0.0842991 0.0808871 0.0323496 255 0 0
-0.0819872 0.0808942 0.0323258 255 0 0
-0.0796731 0.0809046 0.0323101 255 0 0
-0.0773595 0.0809062 0.0323017 255 0 0
-0.0750705 0.0809083 0.0322973 255 0 0
-0.0727750 0.0809098 0.0322948 255 0 0
-0.0705624 0.0809125 0.0322948 255 0 0
-0.0683167 0.0809146 0.0322943 255 0 0
-0.0659712 0.0809148 0.0322912 255 0 0
-0.0636552 0.0809157 0.0322898 255 0 0
-0.0613642 0.0809181 0.0322904 255 0 0
-0.0590678 0.0809196 0.0322908 255 0 0
-0.0567783 0.0809212 0.0322913 255 0 0
-0.0544816 0.0809224 0.0322915 255 0 0
-0.0521860 0.0809232 0.0322919 255 0 0
-0.0499021 0.0809236 0.0322929 255 0 0
-0.0476160 0.0809237 0.0322934 255 0 0
-0.0453864 0.0809249 0.0322938 255 0 0
-0.0431236 0.0809257 0.0322936 255 0 0
-0.0407967 0.0809246 0.0322916 255 0 0
-0.0384866 0.0809241 0.0322904 255 0 0
-0.0361871 0.0809243 0.0322908 255 0 0
-0.0338862 0.0809239 0.0322910 255 0 0
-0.0315860 0.0809230 0.0322920 255 0 0
-0.0292996 0.0809226 0.0322962 255 0 0
-0.0269946 0.0809224 0.0323044 255 0 0
-0.0248060 0.0809239 0.0322946 255 0 0
-0.0225756 0.0809238 0.0322886 255 0 0
-0.0202218 0.0809229 0.0322931 255 0 0
-0.0178925 0.0809217 0.0322954 255 0 0
-0.0156003 0.0809229 0.0322952 255 0 0
-0.0133077 0.0809236 0.0322953 255 0 0
-0.0110155 0.0809237 0.0322959 255 0 0
-0.0087180 0.0809239 0.0322966 255 0 0
-0.0064206 0.0809239 0.0322977 255 0 0
-0.0041343 0.0809237 0.0323000 255 0 0
-0.0018380 0.0809240 0.0323057 255 0 0
0.0003909 0.0809240 0.0323145 255 0 0
0.0026650 0.0809174 0.0323336 255 0 0
0.0050160 0.0809161 0.0323479 255 0 0
0.0073721 0.0809122 0.0323876 255 0 0
0.0097313 0.0809002 0.0324658 255 0 0
-0.0912587 0.0831216 0.0325575 255 0 0
-0.0889275 0.0831479 0.0324493 255 0 0
-0.0866055 0.0831708 0.0323777 255 0 0
-0.0842892 0.0831895 0.0323315 255 0 0
-0.0819756 0.0831945 0.0323121 255 0 0
-0.0796716 0.0831998 0.0323001 255 0 0
-0.0773586 0.0832020 0.0322935 255 0 0
-0.0750697 0.0832037 0.0322900 255 0 0
-0.0727733 0.0832059 0.0322881 255 0 0
-0.0705602 0.0832082 0.0322881 255 0 0
-0.0683156 0.0832106 0.0322875 255 0 0
-0.0659715 0.0832101 0.0322846 255 0 0
-0.0636557 0.0832110 0.0322830 255 0 0
-0.0613651 0.0832132 0.0322840 255 0 0
-0.0590680 0.0832152 0.0322848 255 0 0
-0.0567782 0.0832167 0.0322852 255 0 0
-0.0544823 0.0832175 0.0322855 255 0 0
-0.0521862 0.0832182 0.0322860 255 0 0
-0.0499020 0.0832185 0.0322871 255 0 0
-0.0476162 0.0832186 0.0322879 255 0 0
-0.0453871 0.0832197 0.0322887 255 0 0
-0.0431241 0.0832201 0.0322889 255 0 0
-0.0407964 0.0832188 0.0322869 255 0 0
-0.0384864 0.0832182 0.0322860 255 0 0
-0.0361865 0.0832182 0.0322865 255 0 0
-0.0338854 0.0832178 0.0322866 255 0 0
-0.0315854 0.0832172 0.0322873 255 0 0
-0.0292995 0.0832174 0.0322917 255 0 0
-0.0269945 0.0832180 0.0323003 255 0 0
-0.0248056 0.0832167 0.0322906 255 0 0
-0.0225752 0.0832161 0.0322843 255 0 0
-0.0202210 0.0832164 0.0322884 255 0 0
-0.0178925 0.0832160 0.0322907 255 0 0
-0.0156001 0.0832166 0.0322903 255 0 0
-0.0133075 0.0832168 0.0322902 255 0 0
-0.0110153 0.0832170 0.0322904 255 0 0
-0.0087178 0.0832170 0.0322907 255 0 0
-0.0064210 0.0832173 0.0322913 255 0 0
-0.0041353 0.0832167 0.0322933 255 0 0
-0.0018402 0.0832163 0.0322971 255 0 0
0.0003873 0.0832158 0.0323047 255 0 0
0.0026579 0.0832146 0.0323187 255 0 0
0.0050056 0.0832116 0.0323270 255 0 0
0.0073553 0.0832060 0.0323574 255 0 0
0.0097030 0.0831981 0.0324185 255 0 0
-0.0912484 0.0854565 0.0324609 255 0 0
-0.0889212 0.0854726 0.0323730 255 0 0
-0.0865976 0.0854832 0.0323275 255 0 0
-0.0842768 0.0854963 0.0323005 255 0 0
-0.0819625 0.0855020 0.0322843 255 0 0
-0.0796698 0.0855069 0.0322735 255 0 0
-0.0773577 0.0855096 0.0322678 255 0 0
-0.0750692 0.0855119 0.0322653 255 0 0
-0.0727741 0.0855127 0.0322638 255 0 0
-0.0705577 0.0855149 0.0322638 255 0 0
-0.0683132 0.0855175 0.0322632 255 0 0
-0.0659717 0.0855169 0.0322599 255 0 0
-0.0636555 0.0855179 0.0322582 255 0 0
-0.0613652 0.0855207 0.0322589 255 0 0
-0.0590667 0.0855222 0.0322593 255 0 0
-0.0567777 0.0855234 0.0322596 255 0 0
-0.0544825 0.0855241 0.0322599 255 0 0
-0.0521872 0.0855247 0.0322603 255 0 0
-0.0499020 0.0855251 0.0322613 255 0 0
-0.0476167 0.0855246 0.0322622 255 0 0
-0.0453860 0.0855248 0.0322635 255 0 0
-0.0431229 0.0855253 0.0322635 255 0 0
-0.0407957 0.0855242 0.0322614 255 0 0
-0.0384862 0.0855237 0.0322605 255 0 0
-0.0361863 0.0855238 0.0322611 255 0 0
-0.0338848 0.0855233 0.0322616 255 0 0
-0.0315850 0.0855227 0.0322621 255 0 0
-0.0292992 0.0855229 0.0322660 255 0 0
-0.0269945 0.0855233 0.0322752 255 0 0
-0.0248045 0.0855225 0.0322657 255 0 0
-0.0225732 0.0855202 0.0322601 255 0 0
-0.0202198 0.0855213 0.0322638 255 0 0
-0.0178916 0.0855221 0.0322660 255 0 0
-0.0155997 0.0855225 0.0322654 255 0 0
-0.0133071 0.0855228 0.0322650 255 0 0
-0.0110152 0.0855226 0.0322652 255 0 0
-0.0087182 0.0855229 0.0322653 255 0 0
-0.0064216 0.0855231 0.0322659 255 0 0
-0.0041364 0.0855230 0.0322675 255 0 0
-0.0018423 0.0855212 0.0322707 255 0 0
0.0003851 0.0855188 0.0322763 255 0 0
0.0026532 0.0855183 0.0322871 255 0 0
0.0049969 0.0855141 0.0322909 255 0 0
0.0073400 0.0855119 0.0323152 255 0 0
0.0096772 0.0855162 0.0323665 255 0 0
0.0120400 0.0855145 0.0324293 255 0 0
-0.0912415 0.0877327 0.0324729 255 0 0
-0.0889223 0.0877470 0.0323838 255 0 0
-0.0865908 0.0877529 0.0323597 255 0 0
-0.0842778 0.0877608 0.0323409 255 0 0
-0.0819631 0.0877657 0.0323272 255 0 0
-0.0796596 0.0877691 0.0323191 255 0 0
-0.0773579 0.0877702 0.0323157 255 0 0
-0.0750694 0.0877719 0.0323146 255 0 0
-0.0727742 0.0877727 0.0323139 255 0 0
-0.0705606 0.0877751 0.0323149 255 0 0
-0.0683165 0.0877766 0.0323156 255 0 0
-0.0659731 0.0877757 0.0323132 255 0 0
-0.0636562 0.0877764 0.0323124 255 0 0
-0.0613666 0.0877786 0.0323143 255 0 0
-0.0590683 0.0877802 0.0323157 255 0 0
-0.0567786 0.0877806 0.0323168 255 0 0
-0.0544841 0.0877809 0.0323177 255 0 0
-0.0521855 0.0877810 0.0323187 255 0 0
-0.0499038 0.0877808 0.0323202 255 0 0
-0.0476173 0.0877801 0.0323214 255 0 0
-0.0453878 0.0877805 0.0323229 255 0 0
-0.0431264 0.0877807 0.0323232 255 0 0
-0.0407971 0.0877799 0.0323210 255 0 0
-0.0384872 0.0877793 0.0323199 255 0 0
-0.0361868 0.0877797 0.0323201 255 0 0
-0.0338857 0.0877790 0.0323197 255 0 0
-0.0315860 0.0877774 0.0323196 255 0 0
-0.0292994 0.0877779 0.0323228 255 0 0
-0.0269945 0.0877807 0.0323309 255 0 0
-0.0248056 0.0877790 0.0323205 255 0 0
-0.0225763 0.0877783 0.0323133 255 0 0
-0.0202218 0.0877785 0.0323173 255 0 0
-0.0178927 0.0877790 0.0323191 255 0 0
-0.0156001 0.0877800 0.0323182 255 0 0
-0.0133071 0.0877805 0.0323176 255 0 0
-0.0110154 0.0877805 0.0323175 255 0 0
-0.0087188 0.0877806 0.0323174 255 0 0
-0.0064217 0.0877803 0.0323174 255 0 0
-0.0041371 0.0877796 0.0323182 255 0 0
-0.0018439 0.0877802 0.0323195 255 0 0
0.0003808 0.0877807 0.0323236 255 0 0
0.0026454 0.0877798 0.0323309 255 0 0
0.0049882 0.0877761 0.0323326 255 0 0
0.0073261 0.0877729 0.0323500 255 0 0
0.0096536 0.0877734 0.0323826 255 0 0
0.0120048 0.0877736 0.0324330 255 0 0
-0.0935393 0.0900058 0.0325874 255 0 0
-0.0912268 0.0900173 0.0324566 255 0 0
-0.0889198 0.0900312 0.0323725 255 0 0
-0.0865815 0.0900362 0.0323645 255 0 0
-0.0842671 0.0900396 0.0323549 255 0 0
-0.0819638 0.0900436 0.0323447 255 0 0
-0.0796567 0.0900463 0.0323392 255 0 0
-0.0773585 0.0900475 0.0323376 255 0 0
-0.0750701 0.0900483 0.0323377 255 0 0
-0.0727736 0.0900481 0.0323377 255 0 0
-0.0705625 0.0900505 0.0323397 255 0 0
-0.0683189 0.0900524 0.0323413 255 0 0
-0.0659744 0.0900511 0.0323386 255 0 0
-0.0636576 0.0900514 0.0323384 255 0 0
-0.0613666 0.0900536 0.0323409 255 0 0
-0.0590685 0.0900545 0.0323429 255 0 0
-0.0567787 0.0900546 0.0323446 255 0 0
-0.0544842 0.0900546 0.0323458 255 0 0
-0.0521850 0.0900544 0.0323471 255 0 0
-0.0499049 0.0900544 0.0323485 255 0 0
-0.0476173 0.0900543 0.0323498 255 0 0
-0.0453878 0.0900547 0.0323521 255 0 0
-0.0431270 0.0900546 0.0323528 255 0 0
-0.0407972 0.0900532 0.0323502 255 0 0
-0.0384872 0.0900525 0.0323484 255 0 0
-0.0361870 0.0900531 0.0323487 255 0 0
-0.0338863 0.0900526 0.0323481 255 0 0
-0.0315854 0.0900525 0.0323482 255 0 0
-0.0292993 0.0900545 0.0323517 255 0 0
-0.0269945 0.0900581 0.0323600 255 0 0
-0.0248069 0.0900536 0.0323475 255 0 0
-0.0225774 0.0900531 0.0323389 255 0 0
-0.0202229 0.0900552 0.0323440 255 0 0
-0.0178935 0.0900571 0.0323463 255 0 0
-0.0156002 0.0900579 0.0323454 255 0 0
-0.0133074 0.0900584 0.0323449 255 0 0
-0.0110155 0.0900588 0.0323447 255 0 0
-0.0087189 0.0900589 0.0323445 255 0 0
-0.0064221 0.0900593 0.0323444 255 0 0
-0.0041379 0.0900591 0.0323446 255 0 0
-0.0018452 0.0900559 0.0323451 255 0 0
0.0003780 0.0900559 0.0323469 255 0 0
0.0026404 0.0900539 0.0323507 255 0 0
0.0049821 0.0900526 0.0323510 255 0 0
0.0073161 0.0900526 0.0323604 255 0 0
0.0096372 0.0900493 0.0323788 255 0 0
0.0119807 0.0900499 0.0324149 255 0 0
0.0143447 0.0900499 0.0324648 255 0 0
-0.0935223 0.0922820 0.0325868 255 0 0
-0.0912210 0.0923107 0.0324443 255 0 0
-0.0889164 0.0923288 0.0323537 255 0 0
-0.0865802 0.0923299 0.0323451 255 0 0
-0.0842545 0.0923331 0.0323360 255 0 0
-0.0819628 0.0923354 0.0323257 255 0 0
-0.0796510 0.0923356 0.0323200 255 0 0
-0.0773573 0.0923353 0.0323181 255 0 0
-0.0750689 0.0923347 0.0323183 255 0 0
-0.0727737 0.0923341 0.0323187 255 0 0
-0.0705618 0.0923359 0.0323216 255 0 0
-0.0683165 0.0923377 0.0323236 255 0 0
-0.0659740 0.0923363 0.0323208 255 0 0
-0.0636567 0.0923363 0.0323201 255 0 0
-0.0613672 0.0923383 0.0323224 255 0 0
-0.0590681 0.0923390 0.0323240 255 0 0
-0.0567782 0.0923390 0.0323251 255 0 0
-0.0544841 0.0923393 0.0323261 255 0 0
-0.0521847 0.0923397 0.0323271 255 0 0
-0.0499032 0.0923400 0.0323286 255 0 0
-0.0476164 0.0923402 0.0323294 255 0 0
-0.0453887 0.0923412 0.0323305 255 0 0
-0.0431271 0.0923418 0.0323305 255 0 0
-0.0407975 0.0923410 0.0323278 255 0 0
-0.0384872 0.0923409 0.0323264 255 0 0
-0.0361863 0.0923418 0.0323264 255 0 0
-0.0338840 0.0923416 0.0323256 255 0 0
-0.0315852 0.0923403 0.0323253 255 0 0
-0.0292988 0.0923411 0.0323292 255 0 0
-0.0269937 0.0923429 0.0323383 255 0 0
-0.0248062 0.0923430 0.0323254 255 0 0
-0.0225778 0.0923433 0.0323171 255 0 0
-0.0202221 0.0923437 0.0323220 255 0 0
-0.0178926 0.0923439 0.0323244 255 0 0
-0.0156002 0.0923450 0.0323234 255 0 0
-0.0133071 0.0923453 0.0323228 255 0 0
-0.0110152 0.0923455 0.0323226 255 0 0
-0.0087186 0.0923456 0.0323225 255 0 0
-0.0064219 0.0923458 0.0323227 255 0 0
-0.0041377 0.0923459 0.0323235 255 0 0
-0.0018455 0.0923453 0.0323244 255 0 0
0.0003770 0.0923465 0.0323277 255 0 0
0.0026384 0.0923473 0.0323320 255 0 0
0.0049786 0.0923459 0.0323317 255 0 0
0.0073112 0.0923473 0.0323428 255 0 0
0.0096305 0.0923513 0.0323629 255 0 0
0.0119725 0.0923582 0.0324003 255 0 0
0.0143357 0.0923661 0.0324505 255 0 0
-0.0935104 0.0945775 0.0325827 255 0 0
-0.0912174 0.0946099 0.0324351 255 0 0
-0.0889130 0.0946293 0.0323412 255 0 0
-0.0865794 0.0946298 0.0323335 255 0 0
-0.0842539 0.0946309 0.0323246 255 0 0
-0.0819626 0.0946321 0.0323144 255 0 0
-0.0796478 0.0946317 0.0323087 255 0 0
-0.0773564 0.0946304 0.0323067 255 0 0
-0.0750680 0.0946297 0.0323070 255 0 0
-0.0727734 0.0946283 0.0323078 255 0 0
-0.0705616 0.0946305 0.0323107 255 0 0
-0.0683158 0.0946319 0.0323125 255 0 0
-0.0659749 0.0946303 0.0323101 255 0 0
-0.0636564 0.0946298 0.0323096 255 0 0
-0.0613665 0.0946314 0.0323115 255 0 0
-0.0590670 0.0946323 0.0323128 255 0 0
-0.0567772 0.0946320 0.0323135 255 0 0
-0.0544814 0.0946319 0.0323141 255 0 0
-0.0521847 0.0946323 0.0323147 255 0 0
-0.0499019 0.0946329 0.0323159 255 0 0
-0.0476154 0.0946333 0.0323168 255 0 0
-0.0453884 0.0946346 0.0323173 255 0 0
-0.0431275 0.0946354 0.0323171 255 0 0
-0.0407968 0.0946349 0.0323146 255 0 0
-0.0384867 0.0946351 0.0323131 255 0 0
-0.0361856 0.0946364 0.0323131 255 0 0
-0.0338834 0.0946364 0.0323126 255 0 0
-0.0315847 0.0946357 0.0323124 255 0 0
-0.0292984 0.0946369 0.0323163 255 0 0
-0.0269934 0.0946387 0.0323247 255 0 0
-0.0248066 0.0946390 0.0323132 255 0 0
-0.0225778 0.0946401 0.0323051 255 0 0
-0.0202218 0.0946391 0.0323096 255 0 0
-0.0178924 0.0946393 0.0323118 255 0 0
-0.0155998 0.0946404 0.0323111 255 0 0
-0.0133071 0.0946411 0.0323106 255 0 0
-0.0110151 0.0946409 0.0323104 255 0 0
-0.0087184 0.0946409 0.0323104 255 0 0
-0.0064217 0.0946415 0.0323107 255 0 0
-0.0041376 0.0946420 0.0323116 255 0 0
-0.0018455 0.0946429 0.0323128 255 0 0
0.0003764 0.0946447 0.0323160 255 0 0
0.0026373 0.0946459 0.0323213 255 0 0
0.0049770 0.0946448 0.0323218 255 0 0
0.0073091 0.0946470 0.0323334 255 0 0
0.0096277 0.0946530 0.0323559 255 0 0
0.0119702 0.0946597 0.0323945 255 0 0
0.0143338 0.0946738 0.0324474 255 0 0
-0.0935124 0.0968866 0.0325724 255 0 0
-0.0912186 0.0969127 0.0324262 255 0 0
-0.0889152 0.0969278 0.0323343 255 0 0
-0.0865796 0.0969280 0.0323273 255 0 0
-0.0842537 0.0969291 0.0323195 255 0 0
-0.0819622 0.0969291 0.0323109 255 0 0
-0.0796470 0.0969289 0.0323066 255 0 0
-0.0773557 0.0969276 0.0323056 255 0 0
-0.0750675 0.0969264 0.0323064 255 0 0
-0.0727722 0.0969245 0.0323073 255 0 0
-0.0705623 0.0969275 0.0323104 255 0 0
-0.0683157 0.0969301 0.0323122 255 0 0
-0.0659746 0.0969295 0.0323090 255 0 0
-0.0636561 0.0969300 0.0323078 255 0 0
-0.0613657 0.0969319 0.0323097 255 0 0
-0.0590668 0.0969330 0.0323109 255 0 0
-0.0567774 0.0969337 0.0323114 255 0 0
-0.0544814 0.0969347 0.0323117 255 0 0
-0.0521842 0.0969355 0.0323121 255 0 0
-0.0499021 0.0969362 0.0323130 255 0 0
-0.0476153 0.0969366 0.0323134 255 0 0
-0.0453886 0.0969381 0.0323139 255 0 0
-0.0431274 0.0969388 0.0323135 255 0 0
-0.0407967 0.0969379 0.0323107 255 0 0
-0.0384872 0.0969377 0.0323090 255 0 0
-0.0361859 0.0969387 0.0323090 255 0 0
-0.0338833 0.0969389 0.0323086 255 0 0
-0.0315846 0.0969380 0.0323084 255 0 0
-0.0292985 0.0969383 0.0323126 255 0 0
-0.0269934 0.0969395 0.0323216 255 0 0
-0.0248070 0.0969398 0.0323095 255 0 0
-0.0225782 0.0969414 0.0323017 255 0 0
-0.0202219 0.0969395 0.0323062 255 0 0
-0.0178926 0.0969391 0.0323087 255 0 0
-0.0156000 0.0969398 0.0323080 255 0 0
-0.0133072 0.0969400 0.0323076 255 0 0
-0.0110151 0.0969397 0.0323077 255 0 0
-0.0087184 0.0969398 0.0323080 255 0 0
-0.0064213 0.0969402 0.0323084 255 0 0
-0.0041373 0.0969405 0.0323096 255 0 0
-0.0018452 0.0969407 0.0323111 255 0 0
0.0003759 0.0969422 0.0323146 255 0 0
0.0026365 0.0969439 0.0323202 255 0 0
0.0049770 0.0969433 0.0323207 255 0 0
0.0073103 0.0969438 0.0323340 255 0 0
0.0096305 0.0969471 0.0323582 255 0 0
0.0119771 0.0969538 0.0324005 255 0 0
0.0143478 0.0969600 0.0324527 255 0 0
-0.0935162 0.0991984 0.0325628 255 0 0
-0.0912196 0.0992129 0.0324189 255 0 0
-0.0889151 0.0992221 0.0323295 255 0 0
-0.0865792 0.0992225 0.0323229 255 0 0
-0.0842545 0.0992228 0.0323164 255 0 0
-0.0819626 0.0992239 0.0323090 255 0 0
-0.0796475 0.0992241 0.0323050 255 0 0
-0.0773558 0.0992231 0.0323042 255 0 0
-0.0750676 0.0992227 0.0323049 255 0 0
-0.0727717 0.0992218 0.0323055 255 0 0
-0.0705608 0.0992253 0.0323081 255 0 0
-0.0683165 0.0992276 0.0323093 255 0 0
-0.0659751 0.0992259 0.0323063 255 0 0
-0.0636566 0.0992259 0.0323048 255 0 0
-0.0613650 0.0992285 0.0323064 255 0 0
-0.0590662 0.0992303 0.0323074 255 0 0
-0.0567770 0.0992317 0.0323077 255 0 0
-0.0544814 0.0992324 0.0323079 255 0 0
-0.0521834 0.0992333 0.0323083 255 0 0
-0.0499022 0.0992343 0.0323091 255 0 0
-0.0476153 0.0992346 0.0323094 255 0 0
-0.0453877 0.0992365 0.0323098 255 0 0
-0.0431271 0.0992373 0.0323095 255 0 0
-0.0407963 0.0992355 0.0323066 255 0 0
-0.0384867 0.0992351 0.0323047 255 0 0
-0.0361854 0.0992365 0.0323049 255 0 0
-0.0338841 0.0992364 0.0323043 255 0 0
-0.0315849 0.0992359 0.0323043 255 0 0
-0.0292986 0.0992377 0.0323083 255 0 0
-0.0269944 0.0992386 0.0323178 255 0 0
-0.0248071 0.0992388 0.0323062 255 0 0
-0.0225782 0.0992383 0.0322975 255 0 0
-0.0202221 0.0992370 0.0323032 255 0 0
-0.0178929 0.0992369 0.0323056 255 0 0
-0.0155999 0.0992379 0.0323052 255 0 0
-0.0133070 0.0992380 0.0323050 255 0 0
-0.0110151 0.0992375 0.0323050 255 0 0
-0.0087184 0.0992379 0.0323052 255 0 0
-0.0064213 0.0992383 0.0323058 255 0 0
-0.0041372 0.0992390 0.0323070 255 0 0
-0.0018449 0.0992393 0.0323085 255 0 0
0.0003761 0.0992400 0.0323119 255 0 0
0.0026370 0.0992413 0.0323180 255 0 0
0.0049780 0.0992402 0.0323188 255 0 0
0.0073125 0.0992408 0.0323341 255 0 0
0.0096339 0.0992457 0.0323625 255 0 0
0.0119841 0.0992489 0.0324117 255 0 0
-0.0935201 0.1015017 0.0325488 255 0 0
-0.0912227 0.1015060 0.0324113 255 0 0
-0.0889165 0.1015083 0.0323266 255 0 0
-0.0865798 0.1015109 0.0323200 255 0 0
-0.0842542 0.1015113 0.0323128 255 0 0
-0.0819622 0.1015118 0.0323051 255 0 0
-0.0796457 0.1015109 0.0323006 255 0 0
-0.0773546 0.1015109 0.0322991 255 0 0
-0.0750661 0.1015110 0.0322994 255 0 0
-0.0727714 0.1015104 0.0322995 255 0 0
-0.0705598 0.1015146 0.0323014 255 0 0
-0.0683147 0.1015171 0.0323020 255 0 0
-0.0659749 0.1015159 0.0322981 255 0 0
-0.0636554 0.1015160 0.0322966 255 0 0
-0.0613648 0.1015187 0.0322976 255 0 0
-0.0590661 0.1015203 0.0322980 255 0 0
-0.0567768 0.1015214 0.0322981 255 0 0
-0.0544828 0.1015227 0.0322982 255 0 0
-0.0521847 0.1015237 0.0322987 255 0 0
-0.0499033 0.1015246 0.0322993 255 0 0
-0.0476158 0.1015250 0.0322997 255 0 0
-0.0453880 0.1015267 0.0323003 255 0 0
-0.0431263 0.1015274 0.0323004 255 0 0
-0.0407966 0.1015255 0.0322968 255 0 0
-0.0384872 0.1015250 0.0322954 255 0 0
-0.0361856 0.1015262 0.0322956 255 0 0
-0.0338858 0.1015260 0.0322953 255 0 0
-0.0315856 0.1015254 0.0322955 255 0 0
-0.0292988 0.1015264 0.0322999 255 0 0
-0.0269950 0.1015282 0.0323106 255 0 0
-0.0248068 0.1015287 0.0322981 255 0 0
-0.0225765 0.1015287 0.0322910 255 0 0
-0.0202216 0.1015267 0.0322954 255 0 0
-0.0178927 0.1015258 0.0322979 255 0 0
-0.0155998 0.1015272 0.0322975 255 0 0
-0.0133070 0.1015279 0.0322975 255 0 0
-0.0110155 0.1015279 0.0322977 255 0 0
-0.0087186 0.1015283 0.0322980 255 0 0
-0.0064216 0.1015292 0.0322986 255 0 0
-0.0041373 0.1015300 0.0322998 255 0 0
-0.0018448 0.1015305 0.0323015 255 0 0
0.0003772 0.1015317 0.0323054 255 0 0
0.0026391 0.1015334 0.0323121 255 0 0
0.0049800 0.1015330 0.0323129 255 0 0
0.0073153 0.1015327 0.0323308 255 0 0
0.0096386 0.1015353 0.0323625 255 0 0
0.0119900 0.1015324 0.0324221 255 0 0
-0.0935343 0.1038044 0.0325455 255 0 0
-0.0912242 0.1038012 0.0324107 255 0 0
-0.0889146 0.1037975 0.0323276 255 0 0
-0.0865796 0.1038025 0.0323205 255 0 0
-0.0842566 0.1038052 0.0323123 255 0 0
-0.0819629 0.1038057 0.0323036 255 0 0
-0.0796466 0.1038058 0.0322986 255 0 0
-0.0773545 0.1038058 0.0322965 255 0 0
-0.0750664 0.1038063 0.0322963 255 0 0
-0.0727723 0.1038062 0.0322957 255 0 0
-0.0705594 0.1038099 0.0322972 255 0 0
-0.0683141 0.1038127 0.0322976 255 0 0
-0.0659758 0.1038113 0.0322931 255 0 0
-0.0636563 0.1038119 0.0322911 255 0 0
-0.0613647 0.1038147 0.0322917 255 0 0
-0.0590657 0.1038166 0.0322921 255 0 0
-0.0567765 0.1038180 0.0322923 255 0 0
-0.0544832 0.1038191 0.0322925 255 0 0
-0.0521845 0.1038205 0.0322928 255 0 0
-0.0499034 0.1038214 0.0322936 255 0 0
-0.0476163 0.1038217 0.0322943 255 0 0
-0.0453876 0.1038232 0.0322954 255 0 0
-0.0431252 0.1038238 0.0322953 255 0 0
-0.0407962 0.1038217 0.0322921 255 0 0
-0.0384868 0.1038209 0.0322904 255 0 0
-0.0361852 0.1038221 0.0322908 255 0 0
-0.0338866 0.1038219 0.0322907 255 0 0
-0.0315865 0.1038214 0.0322911 255 0 0
-0.0292990 0.1038227 0.0322962 255 0 0
-0.0269955 0.1038242 0.0323068 255 0 0
-0.0248061 0.1038245 0.0322947 255 0 0
-0.0225752 0.1038254 0.0322874 255 0 0
-0.0202211 0.1038231 0.0322918 255 0 0
-0.0178925 0.1038223 0.0322949 255 0 0
-0.0155995 0.1038232 0.0322942 255 0 0
-0.0133069 0.1038240 0.0322940 255 0 0
-0.0110156 0.1038240 0.0322942 255 0 0
-0.0087187 0.1038249 0.0322945 255 0 0
-0.0064218 0.1038258 0.0322951 255 0 0
-0.0041373 0.1038266 0.0322964 255 0 0
-0.0018445 0.1038279 0.0322981 255 0 0
0.0003785 0.1038300 0.0323019 255 0 0
0.0026415 0.1038316 0.0323094 255 0 0
0.0049824 0.1038318 0.0323108 255 0 0
0.0073189 0.1038320 0.0323310 255 0 0
0.0096445 0.1038353 0.0323673 255 0 0
0.0119977 0.1038374 0.0324332 255 0 0
-0.0935537 0.1061122 0.0325635 255 0 0
-0.0912329 0.1061022 0.0324187 255 0 0
-0.0889147 0.1060984 0.0323300 255 0 0
-0.0865794 0.1061035 0.0323201 255 0 0
-0.0842578 0.1061055 0.0323101 255 0 0
-0.0819620 0.1061066 0.0323001 255 0 0
-0.0796528 0.1061083 0.0322939 255 0 0
-0.0773540 0.1061094 0.0322912 255 0 0
-0.0750656 0.1061106 0.0322901 255 0 0
-0.0727729 0.1061128 0.0322893 255 0 0
-0.0705571 0.1061174 0.0322900 255 0 0
-0.0683142 0.1061208 0.0322900 255 0 0
-0.0659751 0.1061201 0.0322855 255 0 0
-0.0636556 0.1061207 0.0322832 255 0 0
-0.0613648 0.1061231 0.0322841 255 0 0
-0.0590652 0.1061251 0.0322847 255 0 0
-0.0567763 0.1061257 0.0322849 255 0 0
-0.0544830 0.1061269 0.0322851 255 0 0
-0.0521843 0.1061279 0.0322856 255 0 0
-0.0499035 0.1061290 0.0322863 255 0 0
-0.0476162 0.1061296 0.0322868 255 0 0
-0.0453873 0.1061312 0.0322880 255 0 0
-0.0431251 0.1061326 0.0322882 255 0 0
-0.0407958 0.1061306 0.0322857 255 0 0
-0.0384867 0.1061303 0.0322844 255 0 0
-0.0361850 0.1061313 0.0322851 255 0 0
-0.0338870 0.1061316 0.0322850 255 0 0
-0.0315881 0.1061314 0.0322854 255 0 0
-0.0292995 0.1061324 0.0322910 255 0 0
-0.0269955 0.1061342 0.0323014 255 0 0
-0.0248053 0.1061345 0.0322883 255 0 0
-0.0225737 0.1061346 0.0322812 255 0 0
-0.0202207 0.1061342 0.0322856 255 0 0
-0.0178921 0.1061327 0.0322886 255 0 0
-0.0155992 0.1061338 0.0322878 255 0 0
-0.0133066 0.1061347 0.0322874 255 0 0
-0.0110154 0.1061353 0.0322874 255 0 0
-0.0087186 0.1061361 0.0322874 255 0 0
-0.0064219 0.1061366 0.0322878 255 0 0
-0.0041373 0.1061373 0.0322889 255 0 0
-0.0018442 0.1061376 0.0322906 255 0 0
0.0003802 0.1061409 0.0322950 255 0 0
0.0026444 0.1061446 0.0323035 255 0 0
0.0049854 0.1061435 0.0323047 255 0 0
0.0073233 0.1061466 0.0323275 255 0 0
0.0096519 0.1061530 0.0323687 255 0 0
0.0120076 0.1061664 0.0324374 255 0 0
-0.0912424 0.1084123 0.0324171 255 0 0
-0.0889116 0.1084098 0.0323253 255 0 0
-0.0865812 0.1084116 0.0323099 255 0 0
-0.0842734 0.1084118 0.0322959 255 0 0
-0.0819628 0.1084111 0.0322838 255 0 0
-0.0796563 0.1084124 0.0322763 255 0 0
-0.0773537 0.1084129 0.0322726 255 0 0
-0.0750650 0.1084149 0.0322708 255 0 0
-0.0727746 0.1084157 0.0322692 255 0 0
-0.0705542 0.1084198 0.0322687 255 0 0
-0.0683119 0.1084226 0.0322683 255 0 0
-0.0659748 0.1084215 0.0322641 255 0 0
-0.0636550 0.1084220 0.0322622 255 0 0
-0.0613656 0.1084248 0.0322628 255 0 0
-0.0590648 0.1084268 0.0322631 255 0 0
-0.0567759 0.1084285 0.0322628 255 0 0
-0.0544834 0.1084297 0.0322627 255 0 0
-0.0521852 0.1084301 0.0322628 255 0 0
-0.0499043 0.1084311 0.0322636 255 0 0
-0.0476166 0.1084321 0.0322639 255 0 0
-0.0453865 0.1084350 0.0322656 255 0 0
-0.0431224 0.1084363 0.0322658 255 0 0
-0.0407950 0.1084353 0.0322625 255 0 0
-0.0384868 0.1084348 0.0322609 255 0 0
-0.0361847 0.1084359 0.0322614 255 0 0
-0.0338885 0.1084358 0.0322611 255 0 0
-0.0315881 0.1084355 0.0322612 255 0 0
-0.0293007 0.1084366 0.0322672 255 0 0
-0.0269973 0.1084398 0.0322779 255 0 0
-0.0248020 0.1084413 0.0322638 255 0 0
-0.0225677 0.1084417 0.0322552 255 0 0
-0.0202168 0.1084403 0.0322599 255 0 0
-0.0178901 0.1084398 0.0322622 255 0 0
-0.0155987 0.1084420 0.0322611 255 0 0
-0.0133063 0.1084432 0.0322603 255 0 0
-0.0110155 0.1084437 0.0322599 255 0 0
-0.0087190 0.1084448 0.0322596 255 0 0
-0.0064230 0.1084460 0.0322600 255 0 0
-0.0041379 0.1084469 0.0322611 255 0 0
-0.0018444 0.1084474 0.0322628 255 0 0
0.0003838 0.1084513 0.0322678 255 0 0
0.0026505 0.1084565 0.0322772 255 0 0
0.0049901 0.1084543 0.0322799 255 0 0
0.0073277 0.1084601 0.0323026 255 0 0
0.0096582 0.1084768 0.0323456 255 0 0
0.0120123 0.1085014 0.0324053 255 0 0
-0.0912533 0.1106379 0.0326511 255 0 0
-0.0889023 0.1106945 0.0323188 255 0 0
-0.0865864 0.1107107 0.0322791 255 0 0
-0.0842822 0.1107327 0.0322688 255 0 0
-0.0819628 0.1107320 0.0322544 255 0 0
-0.0796664 0.1107316 0.0322451 255 0 0
-0.0773537 0.1107312 0.0322402 255 0 0
-0.0750651 0.1107303 0.0322372 255 0 0
-0.0727745 0.1107300 0.0322352 255 0 0
-0.0705530 0.1107335 0.0322332 255 0 0
-0.0683085 0.1107354 0.0322317 255 0 0
-0.0659751 0.1107339 0.0322284 255 0 0
-0.0636552 0.1107343 0.0322268 255 0 0
-0.0613650 0.1107371 0.0322272 255 0 0
-0.0590643 0.1107400 0.0322273 255 0 0
-0.0567752 0.1107421 0.0322269 255 0 0
-0.0544830 0.1107438 0.0322264 255 0 0
-0.0521869 0.1107453 0.0322262 255 0 0
-0.0499054 0.1107471 0.0322262 255 0 0
-0.0476173 0.1107477 0.0322260 255 0 0
-0.0453826 0.1107490 0.0322269 255 0 0
-0.0431157 0.1107495 0.0322270 255 0 0
-0.0407934 0.1107478 0.0322244 255 0 0
-0.0384857 0.1107473 0.0322230 255 0 0
-0.0361838 0.1107485 0.0322232 255 0 0
-0.0338910 0.1107488 0.0322225 255 0 0
-0.0315878 0.1107490 0.0322220 255 0 0
-0.0293031 0.1107512 0.0322263 255 0 0
-0.0270001 0.1107544 0.0322371 255 0 0
-0.0247974 0.1107539 0.0322230 255 0 0
-0.0225592 0.1107537 0.0322127 255 0 0
-0.0202128 0.1107530 0.0322186 255 0 0
-0.0178885 0.1107538 0.0322198 255 0 0
-0.0155982 0.1107557 0.0322186 255 0 0
-0.0133068 0.1107572 0.0322177 255 0 0
-0.0110162 0.1107583 0.0322169 255 0 0
-0.0087204 0.1107596 0.0322165 255 0 0
-0.0064249 0.1107611 0.0322166 255 0 0
-0.0041390 0.1107626 0.0322174 255 0 0
-0.0018450 0.1107635 0.0322191 255 0 0
0.0003887 0.1107700 0.0322264 255 0 0
0.0026589 0.1107754 0.0322369 255 0 0
0.0049964 0.1107743 0.0322416 255 0 0
0.0073325 0.1107880 0.0322579 255 0 0
0.0096640 0.1108056 0.0322857 255 0 0
0.0120134 0.1108383 0.0323280 255 0 0
-0.0912526 0.1134761 0.0320267 255 0 0
-0.0888899 0.1131059 0.0323569 255 0 0
-0.0866114 0.1130528 0.0323428 255 0 0
-0.0842901 0.1130337 0.0323147 255 0 0
-0.0819690 0.1130237 0.0322967 255 0 0
-0.0796722 0.1130223 0.0322844 255 0 0
-0.0773538 0.1130222 0.0322768 255 0 0
-0.0750650 0.1130225 0.0322720 255 0 0
-0.0727740 0.1130220 0.0322686 255 0 0
-0.0705525 0.1130276 0.0322671 255 0 0
-0.0683038 0.1130315 0.0322656 255 0 0
-0.0659744 0.1130296 0.0322618 255 0 0
-0.0636548 0.1130299 0.0322592 255 0 0
-0.0613650 0.1130330 0.0322598 255 0 0
-0.0590645 0.1130357 0.0322595 255 0 0
-0.0567749 0.1130380 0.0322587 255 0 0
-0.0544832 0.1130404 0.0322579 255 0 0
-0.0521900 0.1130428 0.0322573 255 0 0
-0.0499070 0.1130456 0.0322574 255 0 0
-0.0476192 0.1130480 0.0322571 255 0 0
-0.0453768 0.1130525 0.0322587 255 0 0
-0.0431107 0.1130550 0.0322604 255 0 0
-0.0407913 0.1130542 0.0322553 255 0 0
-0.0384856 0.1130547 0.0322535 255 0 0
-0.0361836 0.1130571 0.0322529 255 0 0
-0.0338911 0.1130583 0.0322518 255 0 0
-0.0315878 0.1130590 0.0322509 255 0 0
-0.0293042 0.1130621 0.0322551 255 0 0
-0.0270026 0.1130673 0.0322628 255 0 0
-0.0247935 0.1130678 0.0322483 255 0 0
-0.0225503 0.1130677 0.0322405 255 0 0
-0.0202090 0.1130678 0.0322429 255 0 0
-0.0178875 0.1130686 0.0322458 255 0 0
-0.0155974 0.1130714 0.0322429 255 0 0
-0.0133079 0.1130735 0.0322413 255 0 0
-0.0110160 0.1130755 0.0322403 255 0 0
-0.0087216 0.1130774 0.0322397 255 0 0
-0.0064268 0.1130793 0.0322397 255 0 0
-0.0041401 0.1130813 0.0322411 255 0 0
-0.0018453 0.1130836 0.0322458 255 0 0
0.0003940 0.1130912 0.0322551 255 0 0
0.0026686 0.1131065 0.0322752 255 0 0
0.0050047 0.1131170 0.0322923 255 0 0
0.0073435 0.1131331 0.0323263 255 0 0
0.0096818 0.1131621 0.0323953 255 0 0
-0.0888648 0.1154901 0.0324053 255 0 0
-0.0866071 0.1154048 0.0323627 255 0 0
-0.0842939 0.1153533 0.0323337 255 0 0
-0.0819721 0.1153486 0.0323195 255 0 0
-0.0796735 0.1153445 0.0323020 255 0 0
-0.0773571 0.1153445 0.0322908 255 0 0
-0.0750651 0.1153445 0.0322836 255 0 0
-0.0727741 0.1153438 0.0322783 255 0 0
-0.0705526 0.1153503 0.0322759 255 0 0
-0.0682977 0.1153545 0.0322737 255 0 0
-0.0659733 0.1153533 0.0322680 255 0 0
-0.0636550 0.1153534 0.0322659 255 0 0
-0.0613647 0.1153569 0.0322659 255 0 0
-0.0590651 0.1153600 0.0322652 255 0 0
-0.0567747 0.1153627 0.0322639 255 0 0
-0.0544833 0.1153654 0.0322627 255 0 0
-0.0521937 0.1153684 0.0322617 255 0 0
-0.0499066 0.1153725 0.0322612 255 0 0
-0.0476188 0.1153756 0.0322604 255 0 0
-0.0453720 0.1153813 0.0322663 255 0 0
-0.0431055 0.1153835 0.0322679 255 0 0
-0.0407903 0.1153824 0.0322636 255 0 0
-0.0384850 0.1153834 0.0322608 255 0 0
-0.0361830 0.1153866 0.0322598 255 0 0
-0.0338908 0.1153882 0.0322580 255 0 0
-0.0315931 0.1153897 0.0322561 255 0 0
-0.0293062 0.1153947 0.0322575 255 0 0
-0.0270055 0.1153999 0.0322645 255 0 0
-0.0247882 0.1154038 0.0322525 255 0 0
-0.0225405 0.1154052 0.0322432 255 0 0
-0.0202042 0.1154036 0.0322471 255 0 0
-0.0178861 0.1154035 0.0322473 255 0 0
-0.0155968 0.1154059 0.0322458 255 0 0
-0.0133075 0.1154081 0.0322443 255 0 0
-0.0110168 0.1154098 0.0322433 255 0 0
-0.0087230 0.1154116 0.0322426 255 0 0
-0.0064288 0.1154140 0.0322428 255 0 0
-0.0041412 0.1154177 0.0322450 255 0 0
-0.0018452 0.1154252 0.0322512 255 0 0
0.0003984 0.1154352 0.0322672 255 0 0
0.0026762 0.1154478 0.0322943 255 0 0
0.0050142 0.1154568 0.0323206 255 0 0
0.0073541 0.1154907 0.0323647 255 0 0
-0.0889253 0.1178812 0.0323821 255 0 0
-0.0866227 0.1177477 0.0323513 255 0 0
-0.0842934 0.1177040 0.0323201 255 0 0
-0.0819902 0.1176933 0.0322929 255 0 0
-0.0796727 0.1176847 0.0322717 255 0 0
-0.0773693 0.1176761 0.0322588 255 0 0
-0.0750706 0.1176732 0.0322495 255 0 0
-0.0727734 0.1176716 0.0322431 255 0 0
-0.0705504 0.1176755 0.0322382 255 0 0
-0.0682887 0.1176783 0.0322347 255 0 0
-0.0659623 0.1176768 0.0322317 255 0 0
-0.0636534 0.1176771 0.0322297 255 0 0
-0.0613637 0.1176804 0.0322287 255 0 0
-0.0590692 0.1176830 0.0322274 255 0 0
-0.0567741 0.1176852 0.0322259 255 0 0
-0.0544826 0.1176874 0.0322246 255 0 0
-0.0521934 0.1176894 0.0322239 255 0 0
-0.0499058 0.1176919 0.0322243 255 0 0
-0.0476181 0.1176936 0.0322236 255 0 0
-0.0453692 0.1176948 0.0322291 255 0 0
-0.0431001 0.1176968 0.0322305 255 0 0
-0.0407883 0.1176970 0.0322275 255 0 0
-0.0384842 0.1176982 0.0322252 255 0 0
-0.0361837 0.1177007 0.0322232 255 0 0
-0.0338905 0.1177028 0.0322209 255 0 0
-0.0316001 0.1177045 0.0322188 255 0 0
-0.0293083 0.1177076 0.0322180 255 0 0
-0.0270091 0.1177117 0.0322216 255 0 0
-0.0247838 0.1177138 0.0322122 255 0 0
-0.0225309 0.1177164 0.0322077 255 0 0
-0.0202005 0.1177171 0.0322077 255 0 0
-0.0178863 0.1177182 0.0322073 255 0 0
-0.0155990 0.1177206 0.0322056 255 0 0
-0.0133070 0.1177237 0.0322041 255 0 0
-0.0110180 0.1177263 0.0322030 255 0 0
-0.0087239 0.1177287 0.0322023 255 0 0
-0.0064299 0.1177312 0.0322029 255 0 0
-0.0041411 0.1177341 0.0322058 255 0 0
-0.0018418 0.1177396 0.0322160 255 0 0
0.0004034 0.1177642 0.0322426 255 0 0
0.0026844 0.1177860 0.0322717 255 0 0
0.0050302 0.1177892 0.0323158 255 0 0
-0.0866295 0.1200838 0.0323441 255 0 0
-0.0843063 0.1200474 0.0323072 255 0 0
-0.0819966 0.1200310 0.0322791 255 0 0
-0.0796730 0.1200146 0.0322510 255 0 0
-0.0773800 0.1200046 0.0322325 255 0 0
-0.0750811 0.1200020 0.0322182 255 0 0
-0.0727731 0.1200011 0.0322081 255 0 0
-0.0705480 0.1200032 0.0321990 255 0 0
-0.0682732 0.1200052 0.0321922 255 0 0
-0.0659493 0.1200045 0.0321900 255 0 0
-0.0636522 0.1200052 0.0321879 255 0 0
-0.0613630 0.1200081 0.0321857 255 0 0
-0.0590728 0.1200108 0.0321835 255 0 0
-0.0567751 0.1200130 0.0321813 255 0 0
-0.0544832 0.1200152 0.0321793 255 0 0
-0.0521930 0.1200171 0.0321775 255 0 0
-0.0499063 0.1200195 0.0321762 255 0 0
-0.0476187 0.1200220 0.0321750 255 0 0
-0.0453670 0.1200238 0.0321822 255 0 0
-0.0430936 0.1200260 0.0321810 255 0 0
-0.0407780 0.1200266 0.0321776 255 0 0
-0.0384830 0.1200277 0.0321750 255 0 0
-0.0361901 0.1200302 0.0321726 255 0 0
-0.0338912 0.1200317 0.0321705 255 0 0
-0.0316005 0.1200335 0.0321680 255 0 0
-0.0293120 0.1200357 0.0321663 255 0 0
-0.0270128 0.1200364 0.0321684 255 0 0
-0.0247771 0.1200420 0.0321600 255 0 0
-0.0225195 0.1200456 0.0321563 255 0 0
-0.0201976 0.1200458 0.0321556 255 0 0
-0.0178890 0.1200472 0.0321549 255 0 0
-0.0155983 0.1200505 0.0321532 255 0 0
-0.0133092 0.1200538 0.0321521 255 0 0
-0.0110175 0.1200569 0.0321514 255 0 0
-0.0087251 0.1200608 0.0321516 255 0 0
-0.0064315 0.1200629 0.0321538 255 0 0
-0.0041415 0.1200663 0.0321597 255 0 0
-0.0018390 0.1200677 0.0321703 255 0 0
0.0004064 0.1201022 0.0322197 255 0 0
0.0026894 0.1201296 0.0322598 255 0 0
0.0050462 0.1201308 0.0322961 255 0 0
-0.0843335 0.1223454 0.0323455 255 0 0
-0.0820033 0.1223237 0.0322847 255 0 0
-0.0796770 0.1223195 0.0322378 255 0 0
-0.0773808 0.1223167 0.0322061 255 0 0
-0.0750894 0.1223165 0.0321836 255 0 0
-0.0727785 0.1223163 0.0321680 255 0 0
-0.0705304 0.1223180 0.0321586 255 0 0
-0.0682659 0.1223192 0.0321519 255 0 0
-0.0659452 0.1223207 0.0321418 255 0 0
-0.0636508 0.1223224 0.0321385 255 0 0
-0.0613618 0.1223252 0.0321347 255 0 0
-0.0590721 0.1223279 0.0321314 255 0 0
-0.0567836 0.1223305 0.0321285 255 0 0
-0.0544825 0.1223329 0.0321261 255 0 0
-0.0521922 0.1223353 0.0321240 255 0 0
-0.0499061 0.1223376 0.0321276 255 0 0
-0.0476182 0.1223405 0.0321274 255 0 0
-0.0453649 0.1223440 0.0321242 255 0 0
-0.0430816 0.1223466 0.0321223 255 0 0
-0.0407744 0.1223480 0.0321197 255 0 0
-0.0384820 0.1223499 0.0321171 255 0 0
-0.0361921 0.1223526 0.0321144 255 0 0
-0.0338907 0.1223551 0.0321116 255 0 0
-0.0316002 0.1223568 0.0321088 255 0 0
-0.0293141 0.1223596 0.0321061 255 0 0
-0.0270189 0.1223621 0.0321040 255 0 0
-0.0247701 0.1223681 0.0320997 255 0 0
-0.0225048 0.1223731 0.0320963 255 0 0
-0.0201899 0.1223738 0.0320948 255 0 0
-0.0178891 0.1223759 0.0320934 255 0 0
-0.0155974 0.1223785 0.0320916 255 0 0
-0.0133086 0.1223823 0.0320908 255 0 0
-0.0110195 0.1223871 0.0320909 255 0 0
-0.0087270 0.1223922 0.0320926 255 0 0
-0.0064344 0.1223952 0.0320972 255 0 0
-0.0041439 0.1224016 0.0321014 255 0 0
-0.0018390 0.1224046 0.0321105 255 0 0
0.0004079 0.1224298 0.0321886 255 0 0
0.0026902 0.1224557 0.0322487 255 0 0
-0.0820230 0.1246676 0.0322852 255 0 0
-0.0796777 0.1246571 0.0322417 255 0 0
-0.0773812 0.1246548 0.0321958 255 0 0
-0.0750902 0.1246519 0.0321608 255 0 0
-0.0727957 0.1246508 0.0321350 255 0 0
-0.0705206 0.1246502 0.0321140 255 0 0
-0.0682636 0.1246515 0.0320985 255 0 0
-0.0659430 0.1246520 0.0320934 255 0 0
-0.0636499 0.1246533 0.0320885 255 0 0
-0.0613609 0.1246556 0.0320836 255 0 0
-0.0590720 0.1246581 0.0320794 255 0 0
-0.0567829 0.1246609 0.0320760 255 0 0
-0.0544941 0.1246638 0.0320732 255 0 0
-0.0521977 0.1246667 0.0320708 255 0 0
-0.0499162 0.1246699 0.0320685 255 0 0
-0.0476281 0.1246734 0.0320666 255 0 0
-0.0453520 0.1246773 0.0320629 255 0 0
-0.0430786 0.1246807 0.0320597 255 0 0
-0.0407724 0.1246820 0.0320574 255 0 0
-0.0384810 0.1246836 0.0320549 255 0 0
-0.0361917 0.1246866 0.0320520 255 0 0
-0.0339024 0.1246894 0.0320492 255 0 0
-0.0316019 0.1246920 0.0320462 255 0 0
-0.0293182 0.1246948 0.0320433 255 0 0
-0.0270236 0.1246970 0.0320406 255 0 0
-0.0247649 0.1247039 0.0320374 255 0 0
-0.0224922 0.1247104 0.0320347 255 0 0
-0.0201873 0.1247116 0.0320330 255 0 0
-0.0178879 0.1247139 0.0320319 255 0 0
-0.0155974 0.1247171 0.0320311 255 0 0
-0.0133078 0.1247213 0.0320322 255 0 0
-0.0110190 0.1247269 0.0320350 255 0 0
-0.0087287 0.1247356 0.0320421 255 0 0
-0.0064363 0.1247442 0.0320519 255 0 0
-0.0041446 0.1247558 0.0320707 255 0 0
-0.0018344 0.1247727 0.0320980 255 0 0
0.0004072 0.1248045 0.0321760 255 0 0
-0.0796866 0.1270425 0.0322575 255 0 0
-0.0773814 0.1270354 0.0321939 255 0 0
-0.0750902 0.1270301 0.0321418 255 0 0
-0.0727984 0.1270050 0.0321011 255 0 0
-0.0705187 0.1269921 0.0320693 255 0 0
-0.0682409 0.1269891 0.0320530 255 0 0
-0.0659405 0.1269887 0.0320376 255 0 0
-0.0636484 0.1269891 0.0320298 255 0 0
-0.0613601 0.1269896 0.0320299 255 0 0
-0.0590715 0.1269916 0.0320248 255 0 0
-0.0567822 0.1269939 0.0320208 255 0 0
-0.0544938 0.1269963 0.0320176 255 0 0
-0.0522048 0.1269991 0.0320150 255 0 0
-0.0499174 0.1270020 0.0320126 255 0 0
-0.0476295 0.1270044 0.0320105 255 0 0
-0.0453485 0.1270084 0.0320071 255 0 0
-0.0430651 0.1270118 0.0320042 255 0 0
-0.0407705 0.1270137 0.0320020 255 0 0
-0.0384800 0.1270160 0.0319996 255 0 0
-0.0361911 0.1270196 0.0319968 255 0 0
-0.0339020 0.1270225 0.0319937 255 0 0
-0.0316125 0.1270253 0.0319902 255 0 0
-0.0293182 0.1270273 0.0319866 255 0 0
-0.0270283 0.1270285 0.0319803 255 0 0
-0.0247594 0.1270389 0.0319735 255 0 0
-0.0224803 0.1270469 0.0319718 255 0 0
-0.0201792 0.1270473 0.0319705 255 0 0
-0.0178866 0.1270495 0.0319703 255 0 0
-0.0155981 0.1270497 0.0319709 255 0 0
-0.0133093 0.1270571 0.0319754 255 0 0
-0.0110205 0.1270675 0.0319837 255 0 0
-0.0087283 0.1270780 0.0319992 255 0 0
-0.0064368 0.1270897 0.0320252 255 0 0
-0.0041443 0.1271113 0.0320636 255 0 0
-0.0750902 0.1294042 0.0321636 255 0 0
-0.0727994 0.1293992 0.0321125 255 0 0
-0.0705169 0.1293685 0.0320679 255 0 0
-0.0682329 0.1293670 0.0320289 255 0 0
-0.0659395 0.1293607 0.0320122 255 0 0
-0.0636474 0.1293570 0.0319961 255 0 0
-0.0613592 0.1293586 0.0319863 255 0 0
-0.0590707 0.1293597 0.0319786 255 0 0
-0.0567821 0.1293616 0.0319731 255 0 0
-0.0544926 0.1293636 0.0319688 255 0 0
-0.0522043 0.1293661 0.0319655 255 0 0
-0.0499166 0.1293687 0.0319628 255 0 0
-0.0476287 0.1293709 0.0319604 255 0 0
-0.0453459 0.1293759 0.0319571 255 0 0
-0.0430603 0.1293795 0.0319545 255 0 0
-0.0407693 0.1293814 0.0319525 255 0 0
-0.0384793 0.1293839 0.0319502 255 0 0
-0.0361905 0.1293871 0.0319476 255 0 0
-0.0339015 0.1293898 0.0319443 255 0 0
-0.0316127 0.1293916 0.0319404 255 0 0
-0.0293242 0.1293910 0.0319349 255 0 0
-0.0270291 0.1293880 0.0319294 255 0 0
-0.0247523 0.1294005 0.0319285 255 0 0
-0.0224728 0.1294088 0.0319291 255 0 0
-0.0201748 0.1294090 0.0319325 255 0 0
-0.0178845 0.1294128 0.0319365 255 0 0
-0.0155961 0.1294162 0.0319385 255 0 0
-0.0133075 0.1294258 0.0319478 255 0 0
-0.0110188 0.1294387 0.0319641 255 0 0
-0.0087293 0.1294499 0.0319901 255 0 0
-0.0064366 0.1294638 0.0320189 255 0 0
-0.0682397 0.1317743 0.0320089 255 0 0
-0.0659431 0.1317369 0.0319531 255 0 0
-0.0636488 0.1317031 0.0319642 255 0 0
-0.0613599 0.1317143 0.0319581 255 0 0
-0.0590711 0.1317202 0.0319492 255 0 0
-0.0567825 0.1317253 0.0319431 255 0 0
-0.0544933 0.1317284 0.0319379 255 0 0
-0.0522051 0.1317310 0.0319335 255 0 0
-0.0499174 0.1317341 0.0319296 255 0 0
-0.0476294 0.1317367 0.0319263 255 0 0
-0.0453449 0.1317408 0.0319231 255 0 0
-0.0430586 0.1317443 0.0319206 255 0 0
-0.0407683 0.1317464 0.0319189 255 0 0
-0.0384788 0.1317487 0.0319166 255 0 0
-0.0361904 0.1317517 0.0319139 255 0 0
-0.0339016 0.1317539 0.0319099 255 0 0
-0.0316131 0.1317545 0.0319049 255 0 0
-0.0293245 0.1317519 0.0318971 255 0 0
-0.0270332 0.1317373 0.0318916 255 0 0
-0.0247415 0.1317889 0.0318829 255 0 0
-0.0224528 0.1318208 0.0318664 255 0 0
-0.0201669 0.1317858 0.0319082 255 0 0
-0.0178818 0.1317979 0.0319198 255 0 0
-0.0155947 0.1318229 0.0319702 255 0 0
-0.0133011 0.1318669 0.0318889 255 0 0
-0.0110158 0.1318645 0.0319583 255 0 0
-0.0613584 0.1341691 0.0320111 255 0 0
