ply
format ascii 1.0
element vertex 1182
property float x
property float y
property float z
property uchar red
property uchar green
property uchar blue
end_header
-0.0453491 0.0600853 -0.0331867 255 190 0
-0.0430615 0.0600810 -0.0331949 255 190 0
-0.0407735 0.0600778 -0.0332016 255 190 0
-0.0384857 0.0600745 -0.0332083 255 189 0
-0.0361979 0.0600711 -0.0332150 255 189 0
-0.0339101 0.0600680 -0.0332209 255 189 0
-0.0316222 0.0600652 -0.0332264 255 188 0
-0.0293344 0.0600622 -0.0332323 255 188 0
-0.0270464 0.0600592 -0.0332381 255 187 0
-0.0247592 0.0600558 -0.0332441 255 187 0
-0.0224717 0.0600525 -0.0332497 255 187 0
-0.0201835 0.0600504 -0.0332546 255 186 0
-0.0178952 0.0600478 -0.0332598 255 186 0
-0.0156075 0.0600448 -0.0332653 255 186 0
-0.0133196 0.0600411 -0.0332713 255 186 0
-0.0110316 0.0600368 -0.0332782 255 185 0
-0.0087434 0.0600317 -0.0332863 255 185 0
-0.0064565 0.0600273 -0.0332921 255 185 0
-0.0041697 0.0600470 -0.0332893 255 184 0
-0.0018359 0.0602502 -0.0329333 255 145 0
-0.0796699 0.0623240 -0.0332620 255 193 0
-0.0773815 0.0623341 -0.0332455 255 190 0
-0.0750925 0.0623398 -0.0332389 255 187 0
-0.0728044 0.0623425 -0.0332380 255 186 0
-0.0705166 0.0623385 -0.0332489 255 186 0
-0.0682287 0.0623344 -0.0332597 255 186 0
-0.0659409 0.0623300 -0.0332698 255 185 0
-0.0636533 0.0623251 -0.0332804 255 185 0
-0.0613656 0.0623196 -0.0332918 255 185 0
-0.0590779 0.0623144 -0.0333026 255 185 0
-0.0567901 0.0623095 -0.0333127 255 185 0
-0.0545022 0.0623050 -0.0333219 255 185 0
-0.0522142 0.0623008 -0.0333304 255 185 0
-0.0499264 0.0622968 -0.0333383 255 184 0
-0.0476386 0.0622931 -0.0333455 255 184 0
-0.0453511 0.0622889 -0.0333530 255 184 0
-0.0430634 0.0622853 -0.0333597 255 184 0
-0.0407754 0.0622827 -0.0333649 255 183 0
-0.0384874 0.0622800 -0.0333705 255 183 0
-0.0361996 0.0622770 -0.0333765 255 182 0
-0.0339117 0.0622743 -0.0333818 255 182 0
-0.0316236 0.0622717 -0.0333864 255 181 0
-0.0293358 0.0622690 -0.0333915 255 181 0
-0.0270478 0.0622665 -0.0333966 255 180 0
-0.0247609 0.0622629 -0.0334025 255 180 0
-0.0224734 0.0622597 -0.0334081 255 180 0
-0.0201850 0.0622576 -0.0334126 255 179 0
-0.0178968 0.0622552 -0.0334176 255 179 0
-0.0156089 0.0622522 -0.0334231 255 178 0
-0.0133209 0.0622486 -0.0334292 255 178 0
-0.0110329 0.0622446 -0.0334355 255 178 0
-0.0087446 0.0622397 -0.0334434 255 178 0
-0.0064557 0.0622347 -0.0334512 255 178 0
-0.0041673 0.0622302 -0.0334561 255 178 0
-0.0018599 0.0624010 -0.0331390 255 143 0
-0.0819612 0.0645224 -0.0334362 255 189 0
-0.0796723 0.0645391 -0.0334031 255 184 0
-0.0773839 0.0645468 -0.0333923 255 181 0
-0.0750955 0.0645489 -0.0333929 255 179 0
-0.0728070 0.0645485 -0.0333985 255 179 0
-0.0705199 0.0645415 -0.0334153 255 180 0
-0.0682322 0.0645356 -0.0334294 255 180 0
-0.0659440 0.0645314 -0.0334387 255 179 0
-0.0636556 0.0645272 -0.0334477 255 179 0
-0.0613674 0.0645229 -0.0334564 255 179 0
-0.0590796 0.0645188 -0.0334642 255 178 0
-0.0567916 0.0645153 -0.0334713 255 178 0
-0.0545036 0.0645121 -0.0334775 255 177 0
-0.0522157 0.0645092 -0.0334833 255 177 0
-0.0499279 0.0645061 -0.0334890 255 176 0
-0.0476401 0.0645032 -0.0334946 255 176 0
-0.0453526 0.0644998 -0.0335008 255 176 0
-0.0430650 0.0644969 -0.0335063 255 175 0
-0.0407769 0.0644948 -0.0335105 255 174 0
-0.0384889 0.0644924 -0.0335154 255 174 0
-0.0362009 0.0644897 -0.0335209 255 173 0
-0.0339130 0.0644871 -0.0335256 255 173 0
-0.0316251 0.0644849 -0.0335296 255 172 0
-0.0293370 0.0644825 -0.0335338 255 172 0
-0.0270489 0.0644805 -0.0335378 255 171 0
-0.0247622 0.0644767 -0.0335440 255 171 0
-0.0224749 0.0644731 -0.0335498 255 171 0
-0.0201864 0.0644714 -0.0335536 255 170 0
-0.0178980 0.0644691 -0.0335582 255 170 0
-0.0156101 0.0644661 -0.0335636 255 169 0
-0.0133221 0.0644626 -0.0335696 255 169 0
-0.0110340 0.0644589 -0.0335757 255 169 0
-0.0087458 0.0644539 -0.0335837 255 169 0
-0.0064572 0.0644470 -0.0335946 255 169 0
-0.0041671 0.0644358 -0.0336117 255 170 0
-0.0018628 0.0645287 -0.0334358 255 151 0
0.0003277 0.0640623 -0.0342802 255 241 0
-0.0819640 0.0667194 -0.0336084 255 183 0
-0.0796748 0.0667322 -0.0335852 255 179 0
-0.0773861 0.0667380 -0.0335789 255 177 0
-0.0750979 0.0667385 -0.0335801 255 176 0
-0.0728095 0.0667371 -0.0335850 255 175 0
-0.0705222 0.0667319 -0.0335954 255 175 0
-0.0682343 0.0667276 -0.0336044 255 174 0
-0.0659460 0.0667246 -0.0336107 255 174 0
-0.0636576 0.0667214 -0.0336170 255 173 0
-0.0613693 0.0667178 -0.0336235 255 173 0
-0.0590814 0.0667145 -0.0336296 255 172 0
-0.0567933 0.0667114 -0.0336353 255 172 0
-0.0545054 0.0667086 -0.0336404 255 171 0
-0.0522175 0.0667060 -0.0336451 255 170 0
-0.0499297 0.0667035 -0.0336494 255 170 0
-0.0476416 0.0667012 -0.0336534 255 169 0
-0.0453544 0.0666982 -0.0336586 255 168 0
-0.0430668 0.0666955 -0.0336633 255 168 0
-0.0407786 0.0666937 -0.0336667 255 167 0
-0.0384906 0.0666915 -0.0336707 255 167 0
-0.0362026 0.0666889 -0.0336755 255 166 0
-0.0339144 0.0666866 -0.0336798 255 165 0
-0.0316263 0.0666843 -0.0336840 255 165 0
-0.0293387 0.0666816 -0.0336885 255 164 0
-0.0270504 0.0666790 -0.0336934 255 164 0
-0.0247639 0.0666755 -0.0336981 255 163 0
-0.0224769 0.0666723 -0.0337031 255 163 0
-0.0201880 0.0666699 -0.0337082 255 163 0
-0.0178995 0.0666671 -0.0337135 255 162 0
-0.0156115 0.0666638 -0.0337193 255 162 0
-0.0133234 0.0666604 -0.0337250 255 162 0
-0.0110353 0.0666570 -0.0337306 255 162 0
-0.0087471 0.0666528 -0.0337373 255 162 0
-0.0064585 0.0666476 -0.0337461 255 162 0
-0.0041696 0.0666403 -0.0337588 255 162 0
-0.0018717 0.0666958 -0.0336600 255 151 0
0.0003651 0.0664036 -0.0341683 255 205 0
-0.0842555 0.0689152 -0.0337721 255 178 0
-0.0819661 0.0689339 -0.0337405 255 173 0
-0.0796773 0.0689437 -0.0337242 255 170 0
-0.0773885 0.0689472 -0.0337205 255 168 0
-0.0751001 0.0689469 -0.0337222 255 167 0
-0.0728113 0.0689453 -0.0337265 255 166 0
-0.0705242 0.0689410 -0.0337328 255 165 0
-0.0682364 0.0689374 -0.0337386 255 165 0
-0.0659477 0.0689361 -0.0337434 255 164 0
-0.0636592 0.0689341 -0.0337483 255 163 0
-0.0613713 0.0689310 -0.0337536 255 163 0
-0.0590834 0.0689280 -0.0337587 255 162 0
-0.0567953 0.0689254 -0.0337635 255 162 0
-0.0545072 0.0689230 -0.0337679 255 162 0
-0.0522190 0.0689208 -0.0337719 255 161 0
-0.0499311 0.0689186 -0.0337753 255 161 0
-0.0476431 0.0689164 -0.0337785 255 160 0
-0.0453562 0.0689132 -0.0337829 255 160 0
-0.0430688 0.0689106 -0.0337870 255 159 0
-0.0407802 0.0689087 -0.0337900 255 159 0
-0.0384919 0.0689065 -0.0337935 255 159 0
-0.0362039 0.0689039 -0.0337978 255 158 0
-0.0339158 0.0689015 -0.0338018 255 158 0
-0.0316278 0.0688990 -0.0338058 255 158 0
-0.0293398 0.0688961 -0.0338103 255 157 0
-0.0270514 0.0688933 -0.0338153 255 157 0
-0.0247654 0.0688896 -0.0338194 255 157 0
-0.0224785 0.0688863 -0.0338238 255 157 0
-0.0201893 0.0688837 -0.0338291 255 156 0
-0.0179006 0.0688809 -0.0338344 255 156 0
-0.0156126 0.0688774 -0.0338398 255 156 0
-0.0133245 0.0688742 -0.0338449 255 156 0
-0.0110364 0.0688713 -0.0338497 255 156 0
-0.0087481 0.0688682 -0.0338551 255 156 0
-0.0064595 0.0688641 -0.0338616 255 156 0
-0.0041706 0.0688589 -0.0338699 255 156 0
-0.0018805 0.0688703 -0.0338529 255 154 0
0.0003991 0.0687782 -0.0339969 255 168 0
0.0026842 0.0687234 -0.0340836 255 176 0
-0.0842573 0.0711472 -0.0338744 255 165 0
-0.0819676 0.0711663 -0.0338442 255 160 0
-0.0796786 0.0711773 -0.0338277 255 157 0
-0.0773896 0.0711809 -0.0338228 255 155 0
-0.0751011 0.0711816 -0.0338220 255 154 0
-0.0728123 0.0711807 -0.0338237 255 153 0
-0.0705252 0.0711779 -0.0338266 255 152 0
-0.0682374 0.0711754 -0.0338295 255 151 0
-0.0659490 0.0711738 -0.0338320 255 149 0
-0.0636606 0.0711720 -0.0338346 255 149 0
-0.0613722 0.0711699 -0.0338372 255 148 0
-0.0590841 0.0711680 -0.0338392 255 148 0
-0.0567959 0.0711663 -0.0338407 255 148 0
-0.0545077 0.0711647 -0.0338422 255 149 0
-0.0522195 0.0711631 -0.0338439 255 149 0
-0.0499315 0.0711614 -0.0338457 255 149 0
-0.0476434 0.0711596 -0.0338477 255 149 0
-0.0453569 0.0711574 -0.0338494 255 149 0
-0.0430694 0.0711554 -0.0338515 255 149 0
-0.0407806 0.0711535 -0.0338539 255 150 0
-0.0384921 0.0711515 -0.0338565 255 150 0
-0.0362040 0.0711491 -0.0338593 255 150 0
-0.0339160 0.0711467 -0.0338623 255 150 0
-0.0316278 0.0711442 -0.0338654 255 151 0
-0.0293401 0.0711416 -0.0338684 255 151 0
-0.0270515 0.0711393 -0.0338711 255 151 0
-0.0247659 0.0711356 -0.0338745 255 152 0
-0.0224791 0.0711325 -0.0338778 255 152 0
-0.0201898 0.0711304 -0.0338804 255 152 0
-0.0179010 0.0711282 -0.0338829 255 153 0
-0.0156128 0.0711255 -0.0338856 255 153 0
-0.0133247 0.0711231 -0.0338877 255 153 0
-0.0110366 0.0711207 -0.0338893 255 153 0
-0.0087483 0.0711180 -0.0338917 255 153 0
-0.0064598 0.0711146 -0.0338949 255 154 0
-0.0041713 0.0711097 -0.0338997 255 154 0
-0.0018815 0.0711112 -0.0338959 255 154 0
0.0004009 0.0710498 -0.0339819 255 163 0
0.0026869 0.0710093 -0.0340407 255 169 0
-0.0865484 0.0733587 -0.0339942 255 168 0
-0.0842586 0.0733935 -0.0339356 255 161 0
-0.0819692 0.0734109 -0.0339095 255 158 0
-0.0796802 0.0734209 -0.0338949 255 156 0
-0.0773908 0.0734243 -0.0338897 255 155 0
-0.0751022 0.0734253 -0.0338878 255 155 0
-0.0728135 0.0734248 -0.0338877 255 154 0
-0.0705264 0.0734234 -0.0338886 255 154 0
-0.0682388 0.0734221 -0.0338896 255 154 0
-0.0659500 0.0734211 -0.0338909 255 154 0
-0.0636615 0.0734198 -0.0338921 255 153 0
-0.0613730 0.0734183 -0.0338934 255 153 0
-0.0590847 0.0734170 -0.0338942 255 153 0
-0.0567965 0.0734159 -0.0338942 255 153 0
-0.0545082 0.0734147 -0.0338946 255 153 0
-0.0522197 0.0734133 -0.0338953 255 153 0
-0.0499318 0.0734116 -0.0338965 255 154 0
-0.0476438 0.0734097 -0.0338982 255 154 0
-0.0453572 0.0734076 -0.0338991 255 154 0
-0.0430699 0.0734054 -0.0339003 255 154 0
-0.0407810 0.0734035 -0.0339021 255 154 0
-0.0384926 0.0734014 -0.0339040 255 154 0
-0.0362045 0.0733991 -0.0339059 255 155 0
-0.0339163 0.0733968 -0.0339078 255 155 0
-0.0316282 0.0733944 -0.0339095 255 155 0
-0.0293402 0.0733920 -0.0339109 255 155 0
-0.0270515 0.0733900 -0.0339118 255 155 0
-0.0247661 0.0733864 -0.0339137 255 155 0
-0.0224797 0.0733834 -0.0339151 255 155 0
-0.0201900 0.0733818 -0.0339157 255 156 0
-0.0179010 0.0733802 -0.0339162 255 156 0
-0.0156131 0.0733779 -0.0339166 255 156 0
-0.0133249 0.0733761 -0.0339166 255 156 0
-0.0110368 0.0733743 -0.0339162 255 156 0
-0.0087484 0.0733720 -0.0339164 255 156 0
-0.0064600 0.0733689 -0.0339174 255 156 0
-0.0041717 0.0733642 -0.0339195 255 156 0
-0.0018823 0.0733582 -0.0339259 255 157 0
0.0004022 0.0733210 -0.0339653 255 161 0
0.0026891 0.0732915 -0.0339995 255 164 0
0.0049827 0.0732643 -0.0340489 255 169 0
-0.0865483 0.0756279 -0.0339818 255 162 0
-0.0842581 0.0756561 -0.0339353 255 157 0
-0.0819686 0.0756691 -0.0339172 255 156 0
-0.0796796 0.0756764 -0.0339059 255 154 0
-0.0773905 0.0756788 -0.0339004 255 154 0
-0.0751018 0.0756788 -0.0338976 255 154 0
-0.0728130 0.0756786 -0.0338966 255 154 0
-0.0705265 0.0756762 -0.0338958 255 153 0
-0.0682388 0.0756754 -0.0338956 255 153 0
-0.0659499 0.0756808 -0.0338959 255 154 0
-0.0636612 0.0756834 -0.0338968 255 154 0
-0.0613730 0.0756825 -0.0338982 255 154 0
-0.0590847 0.0756820 -0.0338993 255 154 0
-0.0567964 0.0756816 -0.0339000 255 154 0
-0.0545081 0.0756813 -0.0339009 255 154 0
-0.0522198 0.0756804 -0.0339023 255 154 0
-0.0499318 0.0756778 -0.0339046 255 154 0
-0.0476437 0.0756746 -0.0339071 255 155 0
-0.0453573 0.0756704 -0.0339094 255 155 0
-0.0430702 0.0756667 -0.0339115 255 155 0
-0.0407812 0.0756640 -0.0339135 255 155 0
-0.0384928 0.0756612 -0.0339153 255 156 0
-0.0362046 0.0756581 -0.0339170 255 156 0
-0.0339164 0.0756552 -0.0339181 255 156 0
-0.0316283 0.0756525 -0.0339185 255 156 0
-0.0293401 0.0756500 -0.0339186 255 156 0
-0.0270515 0.0756481 -0.0339184 255 156 0
-0.0247664 0.0756437 -0.0339181 255 156 0
-0.0224801 0.0756402 -0.0339178 255 156 0
-0.0201903 0.0756390 -0.0339178 255 156 0
-0.0179012 0.0756372 -0.0339175 255 156 0
-0.0156130 0.0756341 -0.0339168 255 156 0
-0.0133249 0.0756323 -0.0339160 255 156 0
-0.0110367 0.0756321 -0.0339153 255 155 0
-0.0087484 0.0756315 -0.0339150 255 155 0
-0.0064600 0.0756297 -0.0339153 255 156 0
-0.0041717 0.0756238 -0.0339164 255 156 0
-0.0018826 0.0756142 -0.0339231 255 156 0
0.0004027 0.0755883 -0.0339459 255 159 0
0.0026897 0.0755642 -0.0339708 255 161 0
0.0049822 0.0755319 -0.0340187 255 166 0
-0.0888375 0.0778656 -0.0340246 255 167 0
-0.0865482 0.0779025 -0.0339661 255 161 0
-0.0842583 0.0779256 -0.0339308 255 157 0
-0.0819691 0.0779349 -0.0339191 255 156 0
-0.0796801 0.0779398 -0.0339109 255 155 0
-0.0773906 0.0779412 -0.0339061 255 155 0
-0.0751024 0.0779406 -0.0339033 255 154 0
-0.0728136 0.0779402 -0.0339020 255 154 0
-0.0705274 0.0779382 -0.0339014 255 154 0
-0.0682399 0.0779382 -0.0339014 255 154 0
-0.0659510 0.0779452 -0.0339021 255 154 0
-0.0636617 0.0779488 -0.0339036 255 154 0
-0.0613733 0.0779480 -0.0339060 255 155 0
-0.0590850 0.0779474 -0.0339081 255 155 0
-0.0567967 0.0779471 -0.0339100 255 155 0
-0.0545082 0.0779469 -0.0339118 255 155 0
-0.0522200 0.0779456 -0.0339137 255 155 0
-0.0499320 0.0779428 -0.0339159 255 156 0
-0.0476439 0.0779392 -0.0339181 255 156 0
-0.0453577 0.0779343 -0.0339200 255 156 0
-0.0430705 0.0779301 -0.0339217 255 156 0
-0.0407814 0.0779272 -0.0339230 255 156 0
-0.0384929 0.0779242 -0.0339240 255 156 0
-0.0362047 0.0779212 -0.0339248 255 156 0
-0.0339165 0.0779183 -0.0339248 255 156 0
-0.0316283 0.0779156 -0.0339241 255 156 0
-0.0293401 0.0779129 -0.0339233 255 156 0
-0.0270510 0.0779110 -0.0339226 255 156 0
-0.0247666 0.0779064 -0.0339209 255 156 0
-0.0224805 0.0779027 -0.0339194 255 156 0
-0.0201903 0.0779017 -0.0339188 255 156 0
-0.0179010 0.0779001 -0.0339179 255 156 0
-0.0156130 0.0778966 -0.0339166 255 156 0
-0.0133248 0.0778952 -0.0339155 255 156 0
-0.0110366 0.0778956 -0.0339146 255 155 0
-0.0087483 0.0778956 -0.0339140 255 155 0
-0.0064599 0.0778943 -0.0339137 255 155 0
-0.0041717 0.0778885 -0.0339142 255 155 0
-0.0018829 0.0778770 -0.0339207 255 156 0
0.0004029 0.0778587 -0.0339313 255 157 0
0.0026902 0.0778373 -0.0339488 255 159 0
0.0049817 0.0778027 -0.0339919 255 163 0
-0.0888367 0.0801594 -0.0339932 255 0 0
-0.0865478 0.0801907 -0.0339476 255 0 0
-0.0842583 0.0802093 -0.0339202 255 0 0
-0.0819689 0.0802150 -0.0339117 255 0 0
-0.0796793 0.0802179 -0.0339059 255 0 0
-0.0773903 0.0802184 -0.0339024 255 0 0
-0.0751017 0.0802174 -0.0339006 255 0 0
-0.0728131 0.0802154 -0.0339000 255 0 0
-0.0705274 0.0802177 -0.0339011 255 0 0
-0.0682400 0.0802192 -0.0339028 255 0 0
-0.0659507 0.0802216 -0.0339050 255 0 0
-0.0636612 0.0802220 -0.0339078 255 0 0
-0.0613731 0.0802200 -0.0339116 255 0 0
-0.0590848 0.0802184 -0.0339151 255 0 0
-0.0567966 0.0802169 -0.0339183 255 0 0
-0.0545081 0.0802153 -0.0339209 255 0 0
-0.0522196 0.0802132 -0.0339229 255 0 0
-0.0499317 0.0802103 -0.0339242 255 0 0
-0.0476437 0.0802072 -0.0339251 255 0 0
-0.0453578 0.0802029 -0.0339253 255 0 0
-0.0430708 0.0801994 -0.0339253 255 0 0
-0.0407815 0.0801970 -0.0339255 255 0 0
-0.0384927 0.0801946 -0.0339252 255 0 0
-0.0362045 0.0801921 -0.0339246 255 0 0
-0.0339164 0.0801896 -0.0339235 255 0 0
-0.0316279 0.0801873 -0.0339220 255 0 0
-0.0293399 0.0801848 -0.0339209 255 0 0
-0.0270510 0.0801828 -0.0339202 255 0 0
-0.0247667 0.0801785 -0.0339179 255 0 0
-0.0224808 0.0801751 -0.0339160 255 0 0
-0.0201903 0.0801742 -0.0339151 255 0 0
-0.0179010 0.0801729 -0.0339140 255 0 0
-0.0156129 0.0801708 -0.0339127 255 0 0
-0.0133247 0.0801696 -0.0339116 255 0 0
-0.0110365 0.0801696 -0.0339109 255 0 0
-0.0087481 0.0801686 -0.0339102 255 0 0
-0.0064598 0.0801662 -0.0339100 255 0 0
-0.0041717 0.0801617 -0.0339106 255 0 0
-0.0018830 0.0801519 -0.0339161 255 0 0
0.0004031 0.0801388 -0.0339224 255 0 0
0.0026905 0.0801184 -0.0339368 255 0 0
0.0049812 0.0800822 -0.0339691 255 0 0
0.0072716 0.0800498 -0.0339995 255 0 0
-0.0911284 0.0823835 -0.0340423 255 0 0
-0.0888361 0.0824415 -0.0339646 255 0 0
-0.0865472 0.0824660 -0.0339296 255 0 0
-0.0842581 0.0824800 -0.0339086 255 0 0
-0.0819687 0.0824830 -0.0339025 255 0 0
-0.0796791 0.0824843 -0.0338986 255 0 0
-0.0773900 0.0824838 -0.0338967 255 0 0
-0.0751013 0.0824816 -0.0338971 255 0 0
-0.0728126 0.0824787 -0.0338985 255 0 0
-0.0705274 0.0824803 -0.0339018 255 0 0
-0.0682401 0.0824811 -0.0339051 255 0 0
-0.0659504 0.0824809 -0.0339085 255 0 0
-0.0636613 0.0824801 -0.0339117 255 0 0
-0.0613732 0.0824789 -0.0339148 255 0 0
-0.0590845 0.0824777 -0.0339178 255 0 0
-0.0567964 0.0824767 -0.0339208 255 0 0
-0.0545079 0.0824750 -0.0339226 255 0 0
-0.0522195 0.0824728 -0.0339235 255 0 0
-0.0499315 0.0824702 -0.0339237 255 0 0
-0.0476435 0.0824676 -0.0339233 255 0 0
-0.0453577 0.0824638 -0.0339225 255 0 0
-0.0430708 0.0824606 -0.0339215 255 0 0
-0.0407814 0.0824588 -0.0339205 255 0 0
-0.0384925 0.0824569 -0.0339193 255 0 0
-0.0362044 0.0824547 -0.0339177 255 0 0
-0.0339162 0.0824525 -0.0339162 255 0 0
-0.0316276 0.0824503 -0.0339148 255 0 0
-0.0293395 0.0824480 -0.0339134 255 0 0
-0.0270505 0.0824458 -0.0339124 255 0 0
-0.0247671 0.0824416 -0.0339100 255 0 0
-0.0224814 0.0824384 -0.0339080 255 0 0
-0.0201907 0.0824372 -0.0339073 255 0 0
-0.0179011 0.0824361 -0.0339064 255 0 0
-0.0156128 0.0824347 -0.0339051 255 0 0
-0.0133247 0.0824337 -0.0339043 255 0 0
-0.0110365 0.0824333 -0.0339038 255 0 0
-0.0087481 0.0824319 -0.0339033 255 0 0
-0.0064596 0.0824298 -0.0339030 255 0 0
-0.0041715 0.0824261 -0.0339037 255 0 0
-0.0018830 0.0824179 -0.0339085 255 0 0
0.0004031 0.0824059 -0.0339119 255 0 0
0.0026904 0.0823863 -0.0339243 255 0 0
0.0049810 0.0823547 -0.0339478 255 0 0
0.0072715 0.0823208 -0.0339762 255 0 0
-0.0911268 0.0846686 -0.0339960 255 0 0
-0.0888361 0.0847191 -0.0339291 255 0 0
-0.0865474 0.0847377 -0.0339011 255 0 0
-0.0842583 0.0847484 -0.0338835 255 0 0
-0.0819682 0.0847505 -0.0338772 255 0 0
-0.0796790 0.0847507 -0.0338732 255 0 0
-0.0773900 0.0847486 -0.0338717 255 0 0
-0.0751014 0.0847457 -0.0338738 255 0 0
-0.0728128 0.0847421 -0.0338776 255 0 0
-0.0705281 0.0847391 -0.0338830 255 0 0
-0.0682411 0.0847371 -0.0338876 255 0 0
-0.0659507 0.0847362 -0.0338921 255 0 0
-0.0636609 0.0847359 -0.0338954 255 0 0
-0.0613732 0.0847365 -0.0338968 255 0 0
-0.0590850 0.0847369 -0.0338988 255 0 0
-0.0567962 0.0847371 -0.0339008 255 0 0
-0.0545078 0.0847362 -0.0339015 255 0 0
-0.0522195 0.0847340 -0.0339014 255 0 0
-0.0499315 0.0847316 -0.0339006 255 0 0
-0.0476434 0.0847291 -0.0338992 255 0 0
-0.0453578 0.0847257 -0.0338982 255 0 0
-0.0430709 0.0847229 -0.0338968 255 0 0
-0.0407811 0.0847214 -0.0338949 255 0 0
-0.0384924 0.0847197 -0.0338932 255 0 0
-0.0362042 0.0847176 -0.0338917 255 0 0
-0.0339159 0.0847155 -0.0338904 255 0 0
-0.0316271 0.0847132 -0.0338892 255 0 0
-0.0293391 0.0847106 -0.0338878 255 0 0
-0.0270500 0.0847087 -0.0338868 255 0 0
-0.0247670 0.0847048 -0.0338842 255 0 0
-0.0224816 0.0847017 -0.0338823 255 0 0
-0.0201904 0.0847005 -0.0338822 255 0 0
-0.0179007 0.0846992 -0.0338817 255 0 0
-0.0156125 0.0846978 -0.0338804 255 0 0
-0.0133243 0.0846968 -0.0338795 255 0 0
-0.0110361 0.0846961 -0.0338794 255 0 0
-0.0087477 0.0846958 -0.0338789 255 0 0
-0.0064592 0.0846952 -0.0338783 255 0 0
-0.0041712 0.0846920 -0.0338791 255 0 0
-0.0018826 0.0846847 -0.0338827 255 0 0
0.0004029 0.0846721 -0.0338856 255 0 0
0.0026902 0.0846533 -0.0338960 255 0 0
0.0049810 0.0846286 -0.0339119 255 0 0
0.0072716 0.0845982 -0.0339373 255 0 0
0.0095621 0.0845577 -0.0339755 255 0 0
-0.0911269 0.0869120 -0.0339957 255 0 0
-0.0888367 0.0869543 -0.0339407 255 0 0
-0.0865479 0.0869676 -0.0339226 255 0 0
-0.0842590 0.0869733 -0.0339132 255 0 0
-0.0819684 0.0869725 -0.0339133 255 0 0
-0.0796793 0.0869699 -0.0339141 255 0 0
-0.0773904 0.0869665 -0.0339157 255 0 0
-0.0751018 0.0869629 -0.0339177 255 0 0
-0.0728131 0.0869600 -0.0339201 255 0 0
-0.0705279 0.0869567 -0.0339217 255 0 0
-0.0682419 0.0869551 -0.0339232 255 0 0
-0.0659508 0.0869562 -0.0339246 255 0 0
-0.0636616 0.0869576 -0.0339256 255 0 0
-0.0613731 0.0869605 -0.0339256 255 0 0
-0.0590849 0.0869616 -0.0339259 255 0 0
-0.0567965 0.0869614 -0.0339263 255 0 0
-0.0545081 0.0869604 -0.0339257 255 0 0
-0.0522196 0.0869586 -0.0339243 255 0 0
-0.0499317 0.0869564 -0.0339231 255 0 0
-0.0476435 0.0869541 -0.0339218 255 0 0
-0.0453583 0.0869515 -0.0339197 255 0 0
-0.0430714 0.0869493 -0.0339181 255 0 0
-0.0407814 0.0869478 -0.0339167 255 0 0
-0.0384925 0.0869461 -0.0339152 255 0 0
-0.0362044 0.0869442 -0.0339134 255 0 0
-0.0339162 0.0869421 -0.0339121 255 0 0
-0.0316272 0.0869398 -0.0339112 255 0 0
-0.0293395 0.0869376 -0.0339103 255 0 0
-0.0270502 0.0869354 -0.0339097 255 0 0
-0.0247675 0.0869312 -0.0339084 255 0 0
-0.0224823 0.0869281 -0.0339076 255 0 0
-0.0201909 0.0869270 -0.0339080 255 0 0
-0.0179012 0.0869256 -0.0339084 255 0 0
-0.0156127 0.0869243 -0.0339084 255 0 0
-0.0133246 0.0869228 -0.0339087 255 0 0
-0.0110364 0.0869219 -0.0339093 255 0 0
-0.0087479 0.0869209 -0.0339100 255 0 0
-0.0064594 0.0869193 -0.0339107 255 0 0
-0.0041713 0.0869151 -0.0339120 255 0 0
-0.0018825 0.0869082 -0.0339154 255 0 0
0.0004026 0.0868966 -0.0339173 255 0 0
0.0026896 0.0868803 -0.0339261 255 0 0
0.0049807 0.0868636 -0.0339361 255 0 0
0.0072713 0.0868359 -0.0339584 255 0 0
0.0095611 0.0867960 -0.0339969 255 0 0
-0.0911269 0.0891641 -0.0339751 255 0 0
-0.0888373 0.0891975 -0.0339356 255 0 0
-0.0865484 0.0892057 -0.0339269 255 0 0
-0.0842579 0.0892086 -0.0339242 255 0 0
-0.0819682 0.0892060 -0.0339282 255 0 0
-0.0796790 0.0892026 -0.0339317 255 0 0
-0.0773902 0.0891988 -0.0339345 255 0 0
-0.0751017 0.0891951 -0.0339357 255 0 0
-0.0728132 0.0891926 -0.0339361 255 0 0
-0.0705275 0.0891899 -0.0339342 255 0 0
-0.0682426 0.0891895 -0.0339325 255 0 0
-0.0659505 0.0891923 -0.0339313 255 0 0
-0.0636615 0.0891955 -0.0339303 255 0 0
-0.0613731 0.0892005 -0.0339296 255 0 0
-0.0590849 0.0892019 -0.0339290 255 0 0
-0.0567965 0.0892002 -0.0339283 255 0 0
-0.0545081 0.0891983 -0.0339272 255 0 0
-0.0522198 0.0891966 -0.0339259 255 0 0
-0.0499317 0.0891942 -0.0339249 255 0 0
-0.0476437 0.0891917 -0.0339243 255 0 0
-0.0453586 0.0891895 -0.0339225 255 0 0
-0.0430714 0.0891872 -0.0339212 255 0 0
-0.0407814 0.0891853 -0.0339209 255 0 0
-0.0384928 0.0891834 -0.0339202 255 0 0
-0.0362047 0.0891814 -0.0339192 255 0 0
-0.0339162 0.0891794 -0.0339183 255 0 0
-0.0316268 0.0891773 -0.0339179 255 0 0
-0.0293393 0.0891746 -0.0339175 255 0 0
-0.0270499 0.0891723 -0.0339175 255 0 0
-0.0247676 0.0891681 -0.0339167 255 0 0
-0.0224829 0.0891648 -0.0339165 255 0 0
-0.0201909 0.0891635 -0.0339174 255 0 0
-0.0179010 0.0891623 -0.0339183 255 0 0
-0.0156128 0.0891614 -0.0339191 255 0 0
-0.0133246 0.0891605 -0.0339201 255 0 0
-0.0110363 0.0891598 -0.0339210 255 0 0
-0.0087477 0.0891579 -0.0339221 255 0 0
-0.0064593 0.0891546 -0.0339232 255 0 0
-0.0041713 0.0891492 -0.0339243 255 0 0
-0.0018824 0.0891420 -0.0339262 255 0 0
0.0004024 0.0891333 -0.0339273 255 0 0
0.0026892 0.0891203 -0.0339327 255 0 0
0.0049807 0.0891092 -0.0339367 255 0 0
0.0072711 0.0890866 -0.0339550 255 0 0
0.0095602 0.0890507 -0.0339890 255 0 0
0.0118509 0.0890048 -0.0340347 255 0 0
-0.0934184 0.0913767 -0.0340465 255 0 0
-0.0911278 0.0914247 -0.0339863 255 0 0
-0.0888382 0.0914539 -0.0339494 255 0 0
-0.0865484 0.0914586 -0.0339463 255 0 0
-0.0842575 0.0914605 -0.0339440 255 0 0
-0.0819687 0.0914597 -0.0339430 255 0 0
-0.0796792 0.0914577 -0.0339423 255 0 0
-0.0773905 0.0914546 -0.0339416 255 0 0
-0.0751022 0.0914510 -0.0339406 255 0 0
-0.0728136 0.0914481 -0.0339395 255 0 0
-0.0705279 0.0914446 -0.0339369 255 0 0
-0.0682426 0.0914432 -0.0339349 255 0 0
-0.0659513 0.0914445 -0.0339340 255 0 0
-0.0636619 0.0914468 -0.0339331 255 0 0
-0.0613734 0.0914517 -0.0339322 255 0 0
-0.0590850 0.0914531 -0.0339315 255 0 0
-0.0567965 0.0914516 -0.0339309 255 0 0
-0.0545081 0.0914502 -0.0339299 255 0 0
-0.0522196 0.0914487 -0.0339286 255 0 0
-0.0499317 0.0914470 -0.0339274 255 0 0
-0.0476435 0.0914449 -0.0339264 255 0 0
-0.0453588 0.0914429 -0.0339249 255 0 0
-0.0430718 0.0914409 -0.0339239 255 0 0
-0.0407814 0.0914394 -0.0339232 255 0 0
-0.0384925 0.0914376 -0.0339229 255 0 0
-0.0362045 0.0914355 -0.0339226 255 0 0
-0.0339162 0.0914337 -0.0339226 255 0 0
-0.0316268 0.0914315 -0.0339228 255 0 0
-0.0293394 0.0914289 -0.0339233 255 0 0
-0.0270498 0.0914268 -0.0339243 255 0 0
-0.0247683 0.0914223 -0.0339257 255 0 0
-0.0224835 0.0914187 -0.0339271 255 0 0
-0.0201914 0.0914169 -0.0339288 255 0 0
-0.0179013 0.0914157 -0.0339301 255 0 0
-0.0156129 0.0914152 -0.0339310 255 0 0
-0.0133247 0.0914143 -0.0339319 255 0 0
-0.0110365 0.0914131 -0.0339330 255 0 0
-0.0087478 0.0914109 -0.0339338 255 0 0
-0.0064593 0.0914075 -0.0339344 255 0 0
-0.0041713 0.0914033 -0.0339348 255 0 0
-0.0018824 0.0913972 -0.0339356 255 0 0
0.0004021 0.0913893 -0.0339361 255 0 0
0.0026887 0.0913777 -0.0339407 255 0 0
0.0049803 0.0913689 -0.0339426 255 0 0
0.0072709 0.0913481 -0.0339586 255 0 0
0.0095598 0.0913145 -0.0339888 255 0 0
0.0118506 0.0912708 -0.0340349 255 0 0
-0.0934196 0.0936365 -0.0340601 255 0 0
-0.0911292 0.0936824 -0.0339946 255 0 0
-0.0888394 0.0937106 -0.0339549 255 0 0
-0.0865486 0.0937135 -0.0339540 255 0 0
-0.0842573 0.0937140 -0.0339510 255 0 0
-0.0819685 0.0937149 -0.0339463 255 0 0
-0.0796800 0.0937135 -0.0339425 255 0 0
-0.0773907 0.0937112 -0.0339395 255 0 0
-0.0751026 0.0937080 -0.0339368 255 0 0
-0.0728135 0.0937049 -0.0339344 255 0 0
-0.0705287 0.0937013 -0.0339313 255 0 0
-0.0682435 0.0936997 -0.0339292 255 0 0
-0.0659511 0.0936986 -0.0339285 255 0 0
-0.0636620 0.0936994 -0.0339280 255 0 0
-0.0613733 0.0937037 -0.0339274 255 0 0
-0.0590850 0.0937054 -0.0339270 255 0 0
-0.0567967 0.0937049 -0.0339266 255 0 0
-0.0545082 0.0937042 -0.0339261 255 0 0
-0.0522188 0.0937031 -0.0339254 255 0 0
-0.0499314 0.0937016 -0.0339247 255 0 0
-0.0476432 0.0936999 -0.0339241 255 0 0
-0.0453593 0.0936978 -0.0339235 255 0 0
-0.0430720 0.0936959 -0.0339233 255 0 0
-0.0407819 0.0936941 -0.0339232 255 0 0
-0.0384929 0.0936921 -0.0339236 255 0 0
-0.0362048 0.0936899 -0.0339244 255 0 0
-0.0339165 0.0936876 -0.0339250 255 0 0
-0.0316267 0.0936852 -0.0339256 255 0 0
-0.0293390 0.0936825 -0.0339267 255 0 0
-0.0270494 0.0936800 -0.0339281 255 0 0
-0.0247684 0.0936756 -0.0339303 255 0 0
-0.0224843 0.0936721 -0.0339321 255 0 0
-0.0201919 0.0936702 -0.0339336 255 0 0
-0.0179013 0.0936688 -0.0339346 255 0 0
-0.0156129 0.0936689 -0.0339349 255 0 0
-0.0133247 0.0936678 -0.0339354 255 0 0
-0.0110364 0.0936656 -0.0339361 255 0 0
-0.0087477 0.0936627 -0.0339364 255 0 0
-0.0064590 0.0936596 -0.0339364 255 0 0
-0.0041711 0.0936565 -0.0339359 255 0 0
-0.0018822 0.0936526 -0.0339357 255 0 0
0.0004017 0.0936447 -0.0339365 255 0 0
0.0026881 0.0936347 -0.0339401 255 0 0
0.0049802 0.0936267 -0.0339413 255 0 0
0.0072710 0.0936080 -0.0339551 255 0 0
0.0095603 0.0935773 -0.0339816 255 0 0
0.0118511 0.0935388 -0.0340242 255 0 0
0.0141437 0.0934924 -0.0340802 255 0 0
-0.0934195 0.0958841 -0.0340540 255 0 0
-0.0911289 0.0959332 -0.0339905 255 0 0
-0.0888387 0.0959624 -0.0339507 255 0 0
-0.0865464 0.0959650 -0.0339467 255 0 0
-0.0842567 0.0959655 -0.0339418 255 0 0
-0.0819677 0.0959658 -0.0339362 255 0 0
-0.0796791 0.0959641 -0.0339320 255 0 0
-0.0773898 0.0959607 -0.0339288 255 0 0
-0.0751015 0.0959551 -0.0339256 255 0 0
-0.0728129 0.0959498 -0.0339226 255 0 0
-0.0705272 0.0959450 -0.0339201 255 0 0
-0.0682427 0.0959433 -0.0339181 255 0 0
-0.0659507 0.0959454 -0.0339170 255 0 0
-0.0636613 0.0959487 -0.0339164 255 0 0
-0.0613731 0.0959549 -0.0339165 255 0 0
-0.0590848 0.0959580 -0.0339164 255 0 0
-0.0567965 0.0959574 -0.0339160 255 0 0
-0.0545080 0.0959565 -0.0339160 255 0 0
-0.0522194 0.0959551 -0.0339162 255 0 0
-0.0499318 0.0959534 -0.0339165 255 0 0
-0.0476438 0.0959510 -0.0339170 255 0 0
-0.0453593 0.0959483 -0.0339178 255 0 0
-0.0430721 0.0959457 -0.0339191 255 0 0
-0.0407816 0.0959438 -0.0339207 255 0 0
-0.0384928 0.0959414 -0.0339226 255 0 0
-0.0362045 0.0959389 -0.0339250 255 0 0
-0.0339162 0.0959365 -0.0339265 255 0 0
-0.0316261 0.0959341 -0.0339275 255 0 0
-0.0293392 0.0959315 -0.0339287 255 0 0
-0.0270495 0.0959291 -0.0339299 255 0 0
-0.0247685 0.0959249 -0.0339308 255 0 0
-0.0224842 0.0959217 -0.0339313 255 0 0
-0.0201914 0.0959201 -0.0339316 255 0 0
-0.0179013 0.0959185 -0.0339316 255 0 0
-0.0156126 0.0959173 -0.0339309 255 0 0
-0.0133244 0.0959158 -0.0339304 255 0 0
-0.0110363 0.0959139 -0.0339301 255 0 0
-0.0087475 0.0959125 -0.0339301 255 0 0
-0.0064589 0.0959112 -0.0339302 255 0 0
-0.0041709 0.0959080 -0.0339292 255 0 0
-0.0018821 0.0959036 -0.0339284 255 0 0
0.0004019 0.0958934 -0.0339285 255 0 0
0.0026884 0.0958813 -0.0339316 255 0 0
0.0049803 0.0958733 -0.0339328 255 0 0
0.0072713 0.0958566 -0.0339444 255 0 0
0.0095608 0.0958321 -0.0339653 255 0 0
0.0118514 0.0957998 -0.0339999 255 0 0
0.0141427 0.0957611 -0.0340459 255 0 0
-0.0934194 0.0981389 -0.0340545 255 0 0
-0.0911291 0.0981900 -0.0339896 255 0 0
-0.0888394 0.0982199 -0.0339488 255 0 0
-0.0865468 0.0982232 -0.0339418 255 0 0
-0.0842571 0.0982245 -0.0339356 255 0 0
-0.0819682 0.0982244 -0.0339295 255 0 0
-0.0796795 0.0982225 -0.0339251 255 0 0
-0.0773905 0.0982187 -0.0339221 255 0 0
-0.0751020 0.0982121 -0.0339188 255 0 0
-0.0728133 0.0982057 -0.0339156 255 0 0
-0.0705272 0.0982009 -0.0339138 255 0 0
-0.0682439 0.0981996 -0.0339127 255 0 0
-0.0659504 0.0982034 -0.0339119 255 0 0
-0.0636614 0.0982078 -0.0339118 255 0 0
-0.0613731 0.0982140 -0.0339127 255 0 0
-0.0590846 0.0982168 -0.0339134 255 0 0
-0.0567964 0.0982169 -0.0339138 255 0 0
-0.0545079 0.0982157 -0.0339148 255 0 0
-0.0522194 0.0982139 -0.0339161 255 0 0
-0.0499318 0.0982120 -0.0339175 255 0 0
-0.0476437 0.0982096 -0.0339188 255 0 0
-0.0453595 0.0982066 -0.0339206 255 0 0
-0.0430723 0.0982037 -0.0339225 255 0 0
-0.0407817 0.0982015 -0.0339246 255 0 0
-0.0384927 0.0981989 -0.0339267 255 0 0
-0.0362046 0.0981962 -0.0339290 255 0 0
-0.0339165 0.0981937 -0.0339304 255 0 0
-0.0316263 0.0981914 -0.0339310 255 0 0
-0.0293389 0.0981888 -0.0339316 255 0 0
-0.0270491 0.0981866 -0.0339319 255 0 0
-0.0247681 0.0981826 -0.0339320 255 0 0
-0.0224840 0.0981795 -0.0339316 255 0 0
-0.0201914 0.0981781 -0.0339310 255 0 0
-0.0179011 0.0981763 -0.0339304 255 0 0
-0.0156125 0.0981744 -0.0339289 255 0 0
-0.0133244 0.0981726 -0.0339277 255 0 0
-0.0110361 0.0981707 -0.0339269 255 0 0
-0.0087474 0.0981702 -0.0339264 255 0 0
-0.0064588 0.0981701 -0.0339259 255 0 0
-0.0041708 0.0981672 -0.0339248 255 0 0
-0.0018820 0.0981621 -0.0339240 255 0 0
0.0004020 0.0981510 -0.0339245 255 0 0
0.0026885 0.0981392 -0.0339273 255 0 0
0.0049805 0.0981304 -0.0339285 255 0 0
0.0072717 0.0981154 -0.0339391 255 0 0
0.0095617 0.0980943 -0.0339593 255 0 0
0.0118520 0.0980661 -0.0339890 255 0 0
-0.0934205 0.1003962 -0.0340794 255 0 0
-0.0911296 0.1004517 -0.0339982 255 0 0
-0.0888400 0.1004867 -0.0339469 255 0 0
-0.0865471 0.1004927 -0.0339382 255 0 0
-0.0842572 0.1004958 -0.0339303 255 0 0
-0.0819676 0.1004957 -0.0339239 255 0 0
-0.0796785 0.1004945 -0.0339197 255 0 0
-0.0773901 0.1004917 -0.0339168 255 0 0
-0.0751016 0.1004872 -0.0339142 255 0 0
-0.0728130 0.1004825 -0.0339118 255 0 0
-0.0705274 0.1004831 -0.0339112 255 0 0
-0.0682441 0.1004848 -0.0339109 255 0 0
-0.0659504 0.1004874 -0.0339113 255 0 0
-0.0636612 0.1004902 -0.0339124 255 0 0
-0.0613731 0.1004935 -0.0339145 255 0 0
-0.0590849 0.1004949 -0.0339164 255 0 0
-0.0567963 0.1004944 -0.0339181 255 0 0
-0.0545082 0.1004933 -0.0339205 255 0 0
-0.0522197 0.1004911 -0.0339233 255 0 0
-0.0499316 0.1004883 -0.0339257 255 0 0
-0.0476437 0.1004855 -0.0339276 255 0 0
-0.0453597 0.1004816 -0.0339291 255 0 0
-0.0430727 0.1004784 -0.0339304 255 0 0
-0.0407814 0.1004759 -0.0339317 255 0 0
-0.0384926 0.1004733 -0.0339326 255 0 0
-0.0362046 0.1004706 -0.0339332 255 0 0
-0.0339164 0.1004680 -0.0339331 255 0 0
-0.0316260 0.1004655 -0.0339326 255 0 0
-0.0293390 0.1004625 -0.0339317 255 0 0
-0.0270491 0.1004604 -0.0339306 255 0 0
-0.0247684 0.1004555 -0.0339298 255 0 0
-0.0224846 0.1004517 -0.0339288 255 0 0
-0.0201916 0.1004499 -0.0339278 255 0 0
-0.0179011 0.1004481 -0.0339268 255 0 0
-0.0156125 0.1004458 -0.0339255 255 0 0
-0.0133243 0.1004435 -0.0339244 255 0 0
-0.0110362 0.1004411 -0.0339234 255 0 0
-0.0087473 0.1004397 -0.0339231 255 0 0
-0.0064588 0.1004381 -0.0339224 255 0 0
-0.0041708 0.1004350 -0.0339215 255 0 0
-0.0018819 0.1004302 -0.0339209 255 0 0
0.0004020 0.1004221 -0.0339211 255 0 0
0.0026885 0.1004118 -0.0339252 255 0 0
0.0049808 0.1004046 -0.0339269 255 0 0
0.0072722 0.1003890 -0.0339408 255 0 0
0.0095622 0.1003667 -0.0339676 255 0 0
0.0118539 0.1003379 -0.0340043 255 0 0
-0.0934213 0.1026658 -0.0340863 255 0 0
-0.0911301 0.1027246 -0.0339995 255 0 0
-0.0888403 0.1027616 -0.0339443 255 0 0
-0.0865479 0.1027709 -0.0339327 255 0 0
-0.0842580 0.1027761 -0.0339237 255 0 0
-0.0819686 0.1027768 -0.0339172 255 0 0
-0.0796791 0.1027757 -0.0339134 255 0 0
-0.0773905 0.1027733 -0.0339113 255 0 0
-0.0751021 0.1027700 -0.0339097 255 0 0
-0.0728132 0.1027667 -0.0339087 255 0 0
-0.0705278 0.1027686 -0.0339091 255 0 0
-0.0682446 0.1027702 -0.0339102 255 0 0
-0.0659512 0.1027717 -0.0339123 255 0 0
-0.0636616 0.1027729 -0.0339150 255 0 0
-0.0613734 0.1027739 -0.0339184 255 0 0
-0.0590851 0.1027749 -0.0339213 255 0 0
-0.0567965 0.1027750 -0.0339239 255 0 0
-0.0545083 0.1027739 -0.0339266 255 0 0
-0.0522197 0.1027717 -0.0339291 255 0 0
-0.0499322 0.1027690 -0.0339309 255 0 0
-0.0476440 0.1027660 -0.0339322 255 0 0
-0.0453600 0.1027624 -0.0339326 255 0 0
-0.0430730 0.1027591 -0.0339329 255 0 0
-0.0407819 0.1027566 -0.0339331 255 0 0
-0.0384931 0.1027539 -0.0339329 255 0 0
-0.0362048 0.1027512 -0.0339324 255 0 0
-0.0339165 0.1027485 -0.0339314 255 0 0
-0.0316259 0.1027458 -0.0339298 255 0 0
-0.0293388 0.1027432 -0.0339282 255 0 0
-0.0270488 0.1027410 -0.0339265 255 0 0
-0.0247685 0.1027361 -0.0339253 255 0 0
-0.0224848 0.1027323 -0.0339238 255 0 0
-0.0201915 0.1027302 -0.0339226 255 0 0
-0.0179010 0.1027282 -0.0339215 255 0 0
-0.0156125 0.1027257 -0.0339202 255 0 0
-0.0133243 0.1027235 -0.0339191 255 0 0
-0.0110361 0.1027210 -0.0339182 255 0 0
-0.0087472 0.1027190 -0.0339174 255 0 0
-0.0064587 0.1027172 -0.0339166 255 0 0
-0.0041707 0.1027142 -0.0339157 255 0 0
-0.0018818 0.1027095 -0.0339158 255 0 0
0.0004020 0.1027027 -0.0339168 255 0 0
0.0026886 0.1026938 -0.0339221 255 0 0
0.0049811 0.1026849 -0.0339251 255 0 0
0.0072727 0.1026685 -0.0339421 255 0 0
0.0095630 0.1026442 -0.0339746 255 0 0
0.0118553 0.1026126 -0.0340148 255 0 0
-0.0911298 0.1050181 -0.0339874 255 0 0
-0.0888405 0.1050533 -0.0339372 255 0 0
-0.0865516 0.1050654 -0.0339220 255 0 0
-0.0842582 0.1050722 -0.0339114 255 0 0
-0.0819679 0.1050733 -0.0339065 255 0 0
-0.0796791 0.1050718 -0.0339035 255 0 0
-0.0773903 0.1050689 -0.0339021 255 0 0
-0.0751015 0.1050663 -0.0339019 255 0 0
-0.0728128 0.1050634 -0.0339024 255 0 0
-0.0705272 0.1050624 -0.0339038 255 0 0
-0.0682446 0.1050616 -0.0339064 255 0 0
-0.0659505 0.1050616 -0.0339097 255 0 0
-0.0636613 0.1050620 -0.0339132 255 0 0
-0.0613733 0.1050626 -0.0339175 255 0 0
-0.0590850 0.1050631 -0.0339210 255 0 0
-0.0567965 0.1050648 -0.0339237 255 0 0
-0.0545081 0.1050642 -0.0339257 255 0 0
-0.0522193 0.1050624 -0.0339268 255 0 0
-0.0499318 0.1050600 -0.0339271 255 0 0
-0.0476437 0.1050575 -0.0339267 255 0 0
-0.0453601 0.1050538 -0.0339254 255 0 0
-0.0430730 0.1050502 -0.0339243 255 0 0
-0.0407814 0.1050483 -0.0339235 255 0 0
-0.0384927 0.1050462 -0.0339225 255 0 0
-0.0362046 0.1050437 -0.0339213 255 0 0
-0.0339164 0.1050415 -0.0339198 255 0 0
-0.0316256 0.1050393 -0.0339180 255 0 0
-0.0293387 0.1050367 -0.0339163 255 0 0
-0.0270488 0.1050343 -0.0339146 255 0 0
-0.0247679 0.1050307 -0.0339125 255 0 0
-0.0224844 0.1050275 -0.0339107 255 0 0
-0.0201915 0.1050259 -0.0339096 255 0 0
-0.0179010 0.1050243 -0.0339085 255 0 0
-0.0156124 0.1050220 -0.0339073 255 0 0
-0.0133242 0.1050200 -0.0339064 255 0 0
-0.0110361 0.1050186 -0.0339055 255 0 0
-0.0087472 0.1050184 -0.0339047 255 0 0
-0.0064586 0.1050183 -0.0339043 255 0 0
-0.0041706 0.1050158 -0.0339043 255 0 0
-0.0018817 0.1050098 -0.0339056 255 0 0
0.0004021 0.1050051 -0.0339065 255 0 0
0.0026889 0.1049959 -0.0339130 255 0 0
0.0049814 0.1049842 -0.0339194 255 0 0
0.0072733 0.1049653 -0.0339387 255 0 0
0.0095651 0.1049369 -0.0339750 255 0 0
-0.0911302 0.1072991 -0.0339842 255 0 0
-0.0888405 0.1073376 -0.0339316 255 0 0
-0.0865518 0.1073525 -0.0339116 255 0 0
-0.0842578 0.1073603 -0.0338989 255 0 0
-0.0819682 0.1073616 -0.0338945 255 0 0
-0.0796786 0.1073608 -0.0338926 255 0 0
-0.0773899 0.1073589 -0.0338928 255 0 0
-0.0751015 0.1073562 -0.0338946 255 0 0
-0.0728128 0.1073537 -0.0338973 255 0 0
-0.0705270 0.1073502 -0.0339001 255 0 0
-0.0682448 0.1073485 -0.0339031 255 0 0
-0.0659502 0.1073480 -0.0339059 255 0 0
-0.0636613 0.1073488 -0.0339087 255 0 0
-0.0613734 0.1073512 -0.0339117 255 0 0
-0.0590850 0.1073531 -0.0339136 255 0 0
-0.0567968 0.1073534 -0.0339151 255 0 0
-0.0545086 0.1073527 -0.0339160 255 0 0
-0.0522201 0.1073508 -0.0339159 255 0 0
-0.0499320 0.1073486 -0.0339148 255 0 0
-0.0476440 0.1073462 -0.0339130 255 0 0
-0.0453603 0.1073427 -0.0339109 255 0 0
-0.0430729 0.1073398 -0.0339091 255 0 0
-0.0407813 0.1073380 -0.0339074 255 0 0
-0.0384928 0.1073363 -0.0339058 255 0 0
-0.0362045 0.1073339 -0.0339039 255 0 0
-0.0339163 0.1073317 -0.0339021 255 0 0
-0.0316254 0.1073295 -0.0339004 255 0 0
-0.0293386 0.1073272 -0.0338985 255 0 0
-0.0270486 0.1073253 -0.0338969 255 0 0
-0.0247676 0.1073222 -0.0338944 255 0 0
-0.0224839 0.1073198 -0.0338924 255 0 0
-0.0201914 0.1073185 -0.0338917 255 0 0
-0.0179009 0.1073170 -0.0338912 255 0 0
-0.0156122 0.1073156 -0.0338899 255 0 0
-0.0133241 0.1073146 -0.0338890 255 0 0
-0.0110359 0.1073136 -0.0338885 255 0 0
-0.0087470 0.1073135 -0.0338883 255 0 0
-0.0064585 0.1073135 -0.0338881 255 0 0
-0.0041706 0.1073099 -0.0338884 255 0 0
-0.0018817 0.1073026 -0.0338911 255 0 0
0.0004024 0.1072958 -0.0338925 255 0 0
0.0026896 0.1072843 -0.0339017 255 0 0
0.0049817 0.1072701 -0.0339118 255 0 0
0.0072738 0.1072483 -0.0339363 255 0 0
0.0095662 0.1072176 -0.0339811 255 0 0
-0.0911314 0.1095678 -0.0339872 255 0 0
-0.0888408 0.1096215 -0.0339154 255 0 0
-0.0865524 0.1096372 -0.0338892 255 0 0
-0.0842590 0.1096465 -0.0338727 255 0 0
-0.0819683 0.1096500 -0.0338657 255 0 0
-0.0796786 0.1096500 -0.0338626 255 0 0
-0.0773896 0.1096481 -0.0338632 255 0 0
-0.0751015 0.1096452 -0.0338666 255 0 0
-0.0728125 0.1096423 -0.0338710 255 0 0
-0.0705269 0.1096388 -0.0338748 255 0 0
-0.0682453 0.1096378 -0.0338780 255 0 0
-0.0659498 0.1096388 -0.0338797 255 0 0
-0.0636608 0.1096406 -0.0338809 255 0 0
-0.0613732 0.1096457 -0.0338815 255 0 0
-0.0590847 0.1096478 -0.0338812 255 0 0
-0.0567964 0.1096468 -0.0338804 255 0 0
-0.0545080 0.1096455 -0.0338798 255 0 0
-0.0522197 0.1096436 -0.0338787 255 0 0
-0.0499318 0.1096417 -0.0338764 255 0 0
-0.0476437 0.1096397 -0.0338734 255 0 0
-0.0453589 0.1096362 -0.0338712 255 0 0
-0.0430723 0.1096336 -0.0338689 255 0 0
-0.0407808 0.1096318 -0.0338664 255 0 0
-0.0384923 0.1096300 -0.0338641 255 0 0
-0.0362043 0.1096269 -0.0338616 255 0 0
-0.0339162 0.1096247 -0.0338598 255 0 0
-0.0316253 0.1096226 -0.0338584 255 0 0
-0.0293383 0.1096209 -0.0338565 255 0 0
-0.0270483 0.1096195 -0.0338548 255 0 0
-0.0247671 0.1096166 -0.0338521 255 0 0
-0.0224833 0.1096137 -0.0338498 255 0 0
-0.0201909 0.1096126 -0.0338496 255 0 0
-0.0179006 0.1096115 -0.0338492 255 0 0
-0.0156118 0.1096104 -0.0338478 255 0 0
-0.0133237 0.1096092 -0.0338471 255 0 0
-0.0110356 0.1096090 -0.0338474 255 0 0
-0.0087468 0.1096084 -0.0338483 255 0 0
-0.0064585 0.1096069 -0.0338491 255 0 0
-0.0041704 0.1096017 -0.0338505 255 0 0
-0.0018817 0.1095921 -0.0338541 255 0 0
0.0004032 0.1095807 -0.0338575 255 0 0
0.0026907 0.1095655 -0.0338701 255 0 0
0.0049824 0.1095492 -0.0338848 255 0 0
0.0072742 0.1095252 -0.0339151 255 0 0
0.0095669 0.1094909 -0.0339702 255 0 0
-0.0888430 0.1118766 -0.0339606 255 0 0
-0.0865532 0.1118959 -0.0339223 255 0 0
-0.0842597 0.1119070 -0.0338994 255 0 0
-0.0819685 0.1119132 -0.0338936 255 0 0
-0.0796795 0.1119158 -0.0338902 255 0 0
-0.0773905 0.1119156 -0.0338894 255 0 0
-0.0751018 0.1119144 -0.0338896 255 0 0
-0.0728135 0.1119128 -0.0338902 255 0 0
-0.0705268 0.1119095 -0.0338900 255 0 0
-0.0682458 0.1119087 -0.0338898 255 0 0
-0.0659501 0.1119113 -0.0338891 255 0 0
-0.0636611 0.1119149 -0.0338885 255 0 0
-0.0613730 0.1119209 -0.0338880 255 0 0
-0.0590848 0.1119226 -0.0338873 255 0 0
-0.0567965 0.1119203 -0.0338862 255 0 0
-0.0545081 0.1119183 -0.0338844 255 0 0
-0.0522197 0.1119168 -0.0338815 255 0 0
-0.0499316 0.1119154 -0.0338774 255 0 0
-0.0476435 0.1119144 -0.0338726 255 0 0
-0.0453569 0.1119123 -0.0338678 255 0 0
-0.0430724 0.1119107 -0.0338632 255 0 0
-0.0407806 0.1119097 -0.0338588 255 0 0
-0.0384923 0.1119085 -0.0338545 255 0 0
-0.0362041 0.1119072 -0.0338500 255 0 0
-0.0339160 0.1119055 -0.0338457 255 0 0
-0.0316265 0.1119044 -0.0338417 255 0 0
-0.0293380 0.1119031 -0.0338375 255 0 0
-0.0270486 0.1119022 -0.0338336 255 0 0
-0.0247668 0.1118996 -0.0338286 255 0 0
-0.0224816 0.1118980 -0.0338240 255 0 0
-0.0201907 0.1118981 -0.0338209 255 0 0
-0.0179003 0.1118985 -0.0338176 255 0 0
-0.0156115 0.1118990 -0.0338138 255 0 0
-0.0133234 0.1118988 -0.0338105 255 0 0
-0.0110353 0.1118989 -0.0338079 255 0 0
-0.0087471 0.1118985 -0.0338055 255 0 0
-0.0064582 0.1118968 -0.0338040 255 0 0
-0.0041701 0.1118905 -0.0338028 255 0 0
-0.0018815 0.1118809 -0.0338076 255 0 0
0.0004039 0.1118625 -0.0338067 255 0 0
0.0026916 0.1118432 -0.0338188 255 0 0
0.0049827 0.1118230 -0.0338502 255 0 0
0.0072744 0.1117983 -0.0338876 255 0 0
-0.0888465 0.1141372 -0.0340206 255 0 0
-0.0865548 0.1141606 -0.0339513 255 0 0
-0.0842601 0.1141760 -0.0339081 255 0 0
-0.0819686 0.1141847 -0.0338959 255 0 0
-0.0796796 0.1141891 -0.0338875 255 0 0
-0.0773906 0.1141907 -0.0338821 255 0 0
-0.0751022 0.1141903 -0.0338778 255 0 0
-0.0728133 0.1141908 -0.0338743 255 0 0
-0.0705263 0.1141905 -0.0338702 255 0 0
-0.0682423 0.1141922 -0.0338669 255 0 0
-0.0659494 0.1141972 -0.0338637 255 0 0
-0.0636609 0.1142046 -0.0338598 255 0 0
-0.0613727 0.1142162 -0.0338566 255 0 0
-0.0590843 0.1142189 -0.0338543 255 0 0
-0.0567959 0.1142149 -0.0338524 255 0 0
-0.0545076 0.1142125 -0.0338491 255 0 0
-0.0522194 0.1142111 -0.0338443 255 0 0
-0.0499315 0.1142098 -0.0338382 255 0 0
-0.0476433 0.1142090 -0.0338316 255 0 0
-0.0453564 0.1142088 -0.0338244 255 0 0
-0.0430714 0.1142081 -0.0338177 255 0 0
-0.0407802 0.1142069 -0.0338116 255 0 0
-0.0384917 0.1142067 -0.0338055 255 0 0
-0.0362035 0.1142069 -0.0337992 255 0 0
-0.0339155 0.1142059 -0.0337930 255 0 0
-0.0316275 0.1142041 -0.0337868 255 0 0
-0.0293375 0.1142041 -0.0337809 255 0 0
-0.0270491 0.1142038 -0.0337752 255 0 0
-0.0247663 0.1142018 -0.0337685 255 0 0
-0.0224808 0.1142019 -0.0337619 255 0 0
-0.0201895 0.1142026 -0.0337565 255 0 0
-0.0178998 0.1142028 -0.0337510 255 0 0
-0.0156109 0.1142042 -0.0337453 255 0 0
-0.0133228 0.1142045 -0.0337400 255 0 0
-0.0110347 0.1142032 -0.0337350 255 0 0
-0.0087465 0.1142030 -0.0337305 255 0 0
-0.0064578 0.1142017 -0.0337268 255 0 0
-0.0041696 0.1141948 -0.0337246 255 0 0
-0.0018810 0.1141839 -0.0337306 255 0 0
0.0004047 0.1141602 -0.0337341 255 0 0
0.0026925 0.1141375 -0.0337511 255 0 0
0.0049833 0.1141079 -0.0337971 255 0 0
0.0072752 0.1140769 -0.0338428 255 0 0
-0.0865519 0.1164651 -0.0338551 255 0 0
-0.0842604 0.1164774 -0.0338288 255 0 0
-0.0819672 0.1164982 -0.0337961 255 0 0
-0.0796781 0.1165109 -0.0337736 255 0 0
-0.0773887 0.1165174 -0.0337599 255 0 0
-0.0751003 0.1165187 -0.0337495 255 0 0
-0.0728118 0.1165199 -0.0337406 255 0 0
-0.0705244 0.1165125 -0.0337326 255 0 0
-0.0682378 0.1165101 -0.0337255 255 0 0
-0.0659475 0.1165183 -0.0337202 255 0 0
-0.0636588 0.1165254 -0.0337151 255 0 0
-0.0613710 0.1165316 -0.0337104 255 0 0
-0.0590825 0.1165344 -0.0337055 255 0 0
-0.0567942 0.1165347 -0.0337006 255 0 0
-0.0545060 0.1165346 -0.0336951 255 0 0
-0.0522177 0.1165344 -0.0336892 255 0 0
-0.0499297 0.1165344 -0.0336826 255 0 0
-0.0476417 0.1165339 -0.0336758 255 0 0
-0.0453544 0.1165339 -0.0336685 255 0 0
-0.0430690 0.1165341 -0.0336616 255 0 0
-0.0407782 0.1165336 -0.0336552 255 0 0
-0.0384901 0.1165334 -0.0336487 255 0 0
-0.0362020 0.1165335 -0.0336422 255 0 0
-0.0339139 0.1165326 -0.0336357 255 0 0
-0.0316259 0.1165318 -0.0336292 255 0 0
-0.0293361 0.1165313 -0.0336228 255 0 0
-0.0270477 0.1165308 -0.0336166 255 0 0
-0.0247647 0.1165299 -0.0336093 255 0 0
-0.0224786 0.1165305 -0.0336027 255 0 0
-0.0201879 0.1165306 -0.0335969 255 0 0
-0.0178983 0.1165307 -0.0335910 255 0 0
-0.0156103 0.1165347 -0.0335848 255 0 0
-0.0133217 0.1165365 -0.0335791 255 0 0
-0.0110334 0.1165333 -0.0335742 255 0 0
-0.0087453 0.1165318 -0.0335696 255 0 0
-0.0064567 0.1165293 -0.0335655 255 0 0
-0.0041684 0.1165224 -0.0335628 255 0 0
-0.0018794 0.1165196 -0.0335630 255 0 0
0.0004058 0.1164741 -0.0335803 255 0 0
0.0026935 0.1164441 -0.0335987 255 0 0
0.0049861 0.1164458 -0.0336211 255 0 0
-0.0842622 0.1187987 -0.0337392 255 0 0
-0.0819658 0.1188229 -0.0336880 255 0 0
-0.0796762 0.1188380 -0.0336528 255 0 0
-0.0773873 0.1188446 -0.0336305 255 0 0
-0.0750986 0.1188464 -0.0336137 255 0 0
-0.0728100 0.1188488 -0.0336011 255 0 0
-0.0705222 0.1188392 -0.0335893 255 0 0
-0.0682344 0.1188352 -0.0335793 255 0 0
-0.0659458 0.1188456 -0.0335727 255 0 0
-0.0636571 0.1188538 -0.0335660 255 0 0
-0.0613692 0.1188601 -0.0335589 255 0 0
-0.0590809 0.1188652 -0.0335520 255 0 0
-0.0567926 0.1188689 -0.0335450 255 0 0
-0.0545042 0.1188706 -0.0335380 255 0 0
-0.0522160 0.1188720 -0.0335309 255 0 0
-0.0499280 0.1188727 -0.0335236 255 0 0
-0.0476400 0.1188728 -0.0335163 255 0 0
-0.0453525 0.1188732 -0.0335084 255 0 0
-0.0430678 0.1188741 -0.0335010 255 0 0
-0.0407765 0.1188740 -0.0334941 255 0 0
-0.0384885 0.1188739 -0.0334875 255 0 0
-0.0362004 0.1188737 -0.0334807 255 0 0
-0.0339124 0.1188733 -0.0334740 255 0 0
-0.0316245 0.1188732 -0.0334670 255 0 0
-0.0293347 0.1188724 -0.0334599 255 0 0
-0.0270464 0.1188711 -0.0334531 255 0 0
-0.0247630 0.1188722 -0.0334451 255 0 0
-0.0224773 0.1188737 -0.0334377 255 0 0
-0.0201862 0.1188717 -0.0334313 255 0 0
-0.0178969 0.1188726 -0.0334253 255 0 0
-0.0156089 0.1188784 -0.0334188 255 0 0
-0.0133209 0.1188795 -0.0334128 255 0 0
-0.0110321 0.1188753 -0.0334073 255 0 0
-0.0087440 0.1188724 -0.0334025 255 0 0
-0.0064556 0.1188686 -0.0333990 255 0 0
-0.0041674 0.1188629 -0.0333977 255 0 0
-0.0018778 0.1188665 -0.0333937 255 0 0
0.0004063 0.1188063 -0.0334374 255 0 0
0.0026945 0.1187726 -0.0334659 255 0 0
-0.0819639 0.1211246 -0.0335483 255 0 0
-0.0796745 0.1211497 -0.0335092 255 0 0
-0.0773851 0.1211660 -0.0334807 255 0 0
-0.0750966 0.1211761 -0.0334598 255 0 0
-0.0728079 0.1211819 -0.0334446 255 0 0
-0.0705203 0.1211815 -0.0334312 255 0 0
-0.0682323 0.1211854 -0.0334198 255 0 0
-0.0659437 0.1211929 -0.0334132 255 0 0
-0.0636554 0.1212010 -0.0334063 255 0 0
-0.0613672 0.1212094 -0.0333991 255 0 0
-0.0590789 0.1212154 -0.0333917 255 0 0
-0.0567908 0.1212185 -0.0333842 255 0 0
-0.0545025 0.1212207 -0.0333765 255 0 0
-0.0522143 0.1212222 -0.0333686 255 0 0
-0.0499263 0.1212241 -0.0333606 255 0 0
-0.0476382 0.1212249 -0.0333527 255 0 0
-0.0453507 0.1212264 -0.0333444 255 0 0
-0.0430630 0.1212277 -0.0333364 255 0 0
-0.0407748 0.1212277 -0.0333288 255 0 0
-0.0384867 0.1212278 -0.0333215 255 0 0
-0.0361987 0.1212282 -0.0333138 255 0 0
-0.0339107 0.1212282 -0.0333061 255 0 0
-0.0316229 0.1212277 -0.0333000 255 0 0
-0.0293343 0.1212272 -0.0332925 255 0 0
-0.0270452 0.1212257 -0.0332854 255 0 0
-0.0247595 0.1212279 -0.0332765 255 0 0
-0.0224739 0.1212299 -0.0332684 255 0 0
-0.0201835 0.1212288 -0.0332613 255 0 0
-0.0178955 0.1212290 -0.0332544 255 0 0
-0.0156075 0.1212338 -0.0332476 255 0 0
-0.0133196 0.1212341 -0.0332411 255 0 0
-0.0110314 0.1212283 -0.0332353 255 0 0
-0.0087432 0.1212247 -0.0332308 255 0 0
-0.0064548 0.1212189 -0.0332284 255 0 0
-0.0041666 0.1212072 -0.0332303 255 0 0
-0.0018776 0.1212075 -0.0332233 255 0 0
0.0004087 0.1211358 -0.0332990 255 0 0
-0.0796727 0.1234838 -0.0333619 255 0 0
-0.0773833 0.1235052 -0.0333259 255 0 0
-0.0750945 0.1235195 -0.0333014 255 0 0
-0.0728059 0.1235288 -0.0332826 255 0 0
-0.0705181 0.1235376 -0.0332658 255 0 0
-0.0682301 0.1235461 -0.0332522 255 0 0
