ply
format ascii 1.0
element vertex 1229
property float x
property float y
property float z
property uchar red
property uchar green
property uchar blue
end_header
-0.0544945 0.1244166 0.0268674 255 0 0
-0.0522067 0.1244166 0.0268674 255 0 0
-0.0499189 0.1244166 0.0268674 255 0 0
-0.0476311 0.1244166 0.0268674 255 0 0
-0.0453433 0.1244166 0.0268674 255 0 0
-0.0430556 0.1244166 0.0268674 255 0 0
-0.0407678 0.1244166 0.0268674 255 0 0
-0.0384800 0.1244166 0.0268674 255 0 0
-0.0361922 0.1244166 0.0268674 255 0 0
-0.0339044 0.1244166 0.0268674 255 0 0
-0.0316167 0.1244166 0.0268674 255 0 0
-0.0293289 0.1244166 0.0268674 255 0 0
-0.0270411 0.1244166 0.0268674 255 0 0
-0.0247533 0.1244166 0.0268674 255 0 0
-0.0224655 0.1244166 0.0268674 255 0 0
-0.0201778 0.1244166 0.0268674 255 0 0
-0.0178900 0.1244166 0.0268674 255 0 0
-0.0156022 0.1244166 0.0268674 255 0 0
-0.0133144 0.1244166 0.0268674 255 0 0
-0.0110266 0.1244166 0.0268674 255 0 0
-0.0087388 0.1244166 0.0268674 255 0 0
-0.0064511 0.1244166 0.0268674 255 0 0
-0.0041633 0.1244166 0.0268674 255 0 0
-0.0018755 0.1244166 0.0268674 255 0 0
0.0004123 0.1244166 0.0268674 255 0 0
0.0027001 0.1244166 0.0268674 255 0 0
-0.0819481 0.1267037 0.0268672 255 0 0
-0.0796602 0.1267039 0.0268673 255 0 0
-0.0773724 0.1267041 0.0268673 255 0 0
-0.0750845 0.1267042 0.0268674 255 0 0
-0.0727967 0.1267044 0.0268674 255 0 0
-0.0705090 0.1267046 0.0268675 255 0 0
-0.0682212 0.1267048 0.0268676 255 0 0
-0.0659334 0.1267046 0.0268675 255 0 0
-0.0636456 0.1267044 0.0268674 255 0 0
-0.0613578 0.1267044 0.0268674 255 0 0
-0.0590700 0.1267044 0.0268674 255 0 0
-0.0567822 0.1267044 0.0268674 255 0 0
-0.0544945 0.1267044 0.0268674 255 0 0
-0.0522067 0.1267044 0.0268674 255 0 0
-0.0499189 0.1267044 0.0268674 255 0 0
-0.0476311 0.1267044 0.0268674 255 0 0
-0.0453433 0.1267044 0.0268674 255 0 0
-0.0430556 0.1267044 0.0268674 255 0 0
-0.0407678 0.1267044 0.0268674 255 0 0
-0.0384800 0.1267044 0.0268674 255 0 0
-0.0361922 0.1267044 0.0268674 255 0 0
-0.0339044 0.1267044 0.0268674 255 0 0
-0.0316167 0.1267044 0.0268674 255 0 0
-0.0293289 0.1267044 0.0268674 255 0 0
-0.0270411 0.1267044 0.0268674 255 0 0
-0.0247533 0.1267044 0.0268674 255 0 0
-0.0224655 0.1267044 0.0268674 255 0 0
-0.0201778 0.1267044 0.0268674 255 0 0
-0.0178900 0.1267044 0.0268674 255 0 0
-0.0156022 0.1267044 0.0268674 255 0 0
-0.0133144 0.1267044 0.0268674 255 0 0
-0.0110266 0.1267044 0.0268674 255 0 0
-0.0087388 0.1267044 0.0268674 255 0 0
-0.0064511 0.1267044 0.0268674 255 0 0
-0.0041633 0.1267044 0.0268674 255 0 0
-0.0018755 0.1267044 0.0268674 255 0 0
0.0004123 0.1267044 0.0268674 255 0 0
-0.0796602 0.1289918 0.0268673 255 0 0
-0.0773724 0.1289919 0.0268673 255 0 0
-0.0750845 0.1289921 0.0268674 255 0 0
-0.0727967 0.1289921 0.0268674 255 0 0
-0.0705091 0.1289927 0.0268677 255 0 0
-0.0682214 0.1289930 0.0268679 255 0 0
-0.0659335 0.1289926 0.0268677 255 0 0
-0.0636457 0.1289923 0.0268675 255 0 0
-0.0613579 0.1289923 0.0268675 255 0 0
-0.0590701 0.1289922 0.0268674 255 0 0
-0.0567823 0.1289922 0.0268674 255 0 0
-0.0544945 0.1289921 0.0268674 255 0 0
-0.0522067 0.1289921 0.0268674 255 0 0
-0.0499189 0.1289921 0.0268674 255 0 0
-0.0476311 0.1289921 0.0268674 255 0 0
-0.0453433 0.1289921 0.0268674 255 0 0
-0.0430556 0.1289921 0.0268674 255 0 0
-0.0407678 0.1289921 0.0268674 255 0 0
-0.0384800 0.1289921 0.0268674 255 0 0
-0.0361922 0.1289921 0.0268674 255 0 0
-0.0339044 0.1289921 0.0268674 255 0 0
-0.0316167 0.1289921 0.0268674 255 0 0
-0.0293289 0.1289921 0.0268674 255 0 0
-0.0270411 0.1289921 0.0268674 255 0 0
-0.0247533 0.1289921 0.0268674 255 0 0
-0.0224655 0.1289921 0.0268674 255 0 0
-0.0201778 0.1289921 0.0268674 255 0 0
-0.0178900 0.1289921 0.0268674 255 0 0
-0.0156022 0.1289921 0.0268674 255 0 0
-0.0133144 0.1289921 0.0268674 255 0 0
-0.0110266 0.1289921 0.0268674 255 0 0
-0.0087388 0.1289921 0.0268674 255 0 0
-0.0064511 0.1289921 0.0268674 255 0 0
-0.0041633 0.1289921 0.0268674 255 0 0
-0.0727967 0.1312799 0.0268674 255 0 0
-0.0705093 0.1312812 0.0268682 255 0 0
-0.0682218 0.1312820 0.0268686 255 0 0
-0.0659337 0.1312811 0.0268681 255 0 0
-0.0636458 0.1312805 0.0268677 255 0 0
-0.0613580 0.1312805 0.0268677 255 0 0
-0.0590702 0.1312803 0.0268676 255 0 0
-0.0567823 0.1312802 0.0268675 255 0 0
-0.0544945 0.1312801 0.0268675 255 0 0
-0.0522067 0.1312800 0.0268675 255 0 0
-0.0499189 0.1312799 0.0268674 255 0 0
-0.0476311 0.1312799 0.0268674 255 0 0
-0.0453433 0.1312799 0.0268674 255 0 0
-0.0430556 0.1312799 0.0268674 255 0 0
-0.0407678 0.1312799 0.0268674 255 0 0
-0.0384800 0.1312799 0.0268674 255 0 0
-0.0361922 0.1312799 0.0268674 255 0 0
-0.0339044 0.1312799 0.0268674 255 0 0
-0.0316167 0.1312799 0.0268674 255 0 0
-0.0293289 0.1312799 0.0268674 255 0 0
-0.0270411 0.1312800 0.0268674 255 0 0
-0.0247533 0.1312797 0.0268674 255 0 0
-0.0224655 0.1312795 0.0268674 255 0 0
-0.0201778 0.1312797 0.0268674 255 0 0
-0.0178900 0.1312798 0.0268674 255 0 0
-0.0156022 0.1312799 0.0268674 255 0 0
-0.0133144 0.1312799 0.0268674 255 0 0
-0.0110266 0.1312799 0.0268674 255 0 0
-0.0087388 0.1312799 0.0268674 255 0 0
-0.0659334 0.1335678 0.0268674 255 0 0
-0.0636455 0.1335675 0.0268673 255 0 0
-0.0613577 0.1335673 0.0268672 255 0 0
-0.0590699 0.1335673 0.0268671 255 0 0
-0.0567821 0.1335673 0.0268672 255 0 0
-0.0544944 0.1335675 0.0268672 255 0 0
-0.0522066 0.1335675 0.0268673 255 0 0
-0.0499189 0.1335675 0.0268673 255 0 0
-0.0476311 0.1335677 0.0268673 255 0 0
-0.0453433 0.1335677 0.0268673 255 0 0
-0.0430556 0.1335677 0.0268674 255 0 0
-0.0407678 0.1335677 0.0268674 255 0 0
-0.0384800 0.1335677 0.0268674 255 0 0
-0.0361922 0.1335677 0.0268674 255 0 0
-0.0339044 0.1335677 0.0268674 255 0 0
-0.0316167 0.1335677 0.0268674 255 0 0
-0.0293289 0.1335677 0.0268674 255 0 0
-0.0270411 0.1335676 0.0268674 255 0 0
-0.0247533 0.1335681 0.0268674 255 0 0
-0.0224655 0.1335683 0.0268674 255 0 0
-0.0201778 0.1335680 0.0268674 255 0 0
-0.0178900 0.1335678 0.0268674 255 0 0
-0.0453433 0.0351931 0.0291552 255 0 0
-0.0522067 0.0374809 0.0291552 255 0 0
-0.0499189 0.0374809 0.0291552 255 0 0
-0.0476311 0.0374809 0.0291552 255 0 0
-0.0453433 0.0374809 0.0291552 255 0 0
-0.0430556 0.0374809 0.0291552 255 0 0
-0.0407678 0.0374809 0.0291552 255 0 0
-0.0384800 0.0374809 0.0291552 255 0 0
-0.0361922 0.0374809 0.0291552 255 0 0
-0.0339044 0.0374809 0.0291552 255 0 0
-0.0316167 0.0374809 0.0291552 255 0 0
-0.0293289 0.0374809 0.0291552 255 0 0
-0.0590700 0.0397687 0.0291552 255 0 0
-0.0567822 0.0397687 0.0291552 255 0 0
-0.0544945 0.0397687 0.0291552 255 0 0
-0.0522067 0.0397687 0.0291552 255 0 0
-0.0499189 0.0397687 0.0291552 255 0 0
-0.0476311 0.0397687 0.0291552 255 0 0
-0.0453433 0.0397687 0.0291552 255 0 0
-0.0430556 0.0397687 0.0291552 255 0 0
-0.0407678 0.0397687 0.0291552 255 0 0
-0.0384800 0.0397687 0.0291552 255 0 0
-0.0361922 0.0397687 0.0291552 255 0 0
-0.0339044 0.0397687 0.0291552 255 0 0
-0.0316167 0.0397687 0.0291552 255 0 0
-0.0293289 0.0397687 0.0291552 255 0 0
-0.0270411 0.0397692 0.0291552 255 0 0
-0.0247533 0.0397675 0.0291550 255 0 0
-0.0224655 0.0397667 0.0291548 255 0 0
-0.0201778 0.0397678 0.0291550 255 0 0
-0.0178900 0.0397684 0.0291551 255 0 0
-0.0613578 0.0420564 0.0291552 255 0 0
-0.0590700 0.0420564 0.0291552 255 0 0
-0.0567822 0.0420564 0.0291552 255 0 0
-0.0544945 0.0420564 0.0291552 255 0 0
-0.0522067 0.0420564 0.0291552 255 0 0
-0.0499189 0.0420564 0.0291552 255 0 0
-0.0476311 0.0420564 0.0291552 255 0 0
-0.0453433 0.0420564 0.0291552 255 0 0
-0.0430556 0.0420564 0.0291552 255 0 0
-0.0407678 0.0420564 0.0291552 255 0 0
-0.0384800 0.0420564 0.0291552 255 0 0
-0.0361922 0.0420564 0.0291552 255 0 0
-0.0339044 0.0420564 0.0291552 255 0 0
-0.0316167 0.0420564 0.0291552 255 0 0
-0.0293289 0.0420564 0.0291551 255 0 0
-0.0270411 0.0420563 0.0291551 255 0 0
-0.0247533 0.0420555 0.0291550 255 0 0
-0.0224655 0.0420547 0.0291548 255 0 0
-0.0201778 0.0420544 0.0291548 255 0 0
-0.0178900 0.0420539 0.0291547 255 0 0
-0.0156023 0.0420529 0.0291545 255 0 0
-0.0636456 0.0443442 0.0291552 255 0 0
-0.0613578 0.0443442 0.0291552 255 0 0
-0.0590700 0.0443442 0.0291552 255 0 0
-0.0567822 0.0443442 0.0291552 255 0 0
-0.0544945 0.0443442 0.0291552 255 0 0
-0.0522067 0.0443442 0.0291552 255 0 0
-0.0499189 0.0443442 0.0291552 255 0 0
-0.0476311 0.0443442 0.0291552 255 0 0
-0.0453433 0.0443442 0.0291552 255 0 0
-0.0430556 0.0443442 0.0291552 255 0 0
-0.0407678 0.0443442 0.0291552 255 0 0
-0.0384800 0.0443442 0.0291552 255 0 0
-0.0361922 0.0443442 0.0291552 255 0 0
-0.0339044 0.0443442 0.0291552 255 0 0
-0.0316167 0.0443442 0.0291551 255 0 0
-0.0293289 0.0443441 0.0291551 255 0 0
-0.0270411 0.0443438 0.0291551 255 0 0
-0.0247533 0.0443435 0.0291550 255 0 0
-0.0224655 0.0443428 0.0291549 255 0 0
-0.0201778 0.0443417 0.0291547 255 0 0
-0.0178900 0.0443408 0.0291545 255 0 0
-0.0156023 0.0443393 0.0291542 255 0 0
-0.0133146 0.0443394 0.0291541 255 0 0
-0.0110270 0.0443412 0.0291543 255 0 0
-0.0682212 0.0466320 0.0291552 255 0 0
-0.0659334 0.0466320 0.0291552 255 0 0
-0.0636456 0.0466320 0.0291552 255 0 0
-0.0613578 0.0466320 0.0291552 255 0 0
-0.0590700 0.0466320 0.0291552 255 0 0
-0.0567822 0.0466320 0.0291552 255 0 0
-0.0544945 0.0466320 0.0291552 255 0 0
-0.0522067 0.0466320 0.0291552 255 0 0
-0.0499189 0.0466320 0.0291552 255 0 0
-0.0476311 0.0466320 0.0291552 255 0 0
-0.0453433 0.0466320 0.0291552 255 0 0
-0.0430556 0.0466320 0.0291552 255 0 0
-0.0407678 0.0466320 0.0291552 255 0 0
-0.0384800 0.0466320 0.0291552 255 0 0
-0.0361922 0.0466320 0.0291552 255 0 0
-0.0339044 0.0466320 0.0291552 255 0 0
-0.0316167 0.0466320 0.0291552 255 0 0
-0.0293289 0.0466319 0.0291551 255 0 0
-0.0270411 0.0466318 0.0291551 255 0 0
-0.0247533 0.0466317 0.0291551 255 0 0
-0.0224655 0.0466314 0.0291551 255 0 0
-0.0201778 0.0466309 0.0291550 255 0 0
-0.0178901 0.0466304 0.0291548 255 0 0
-0.0156024 0.0466295 0.0291546 255 0 0
-0.0133148 0.0466296 0.0291544 255 0 0
-0.0110273 0.0466308 0.0291544 255 0 0
-0.0087400 0.0466324 0.0291543 255 0 0
-0.0705089 0.0489198 0.0291552 255 0 0
-0.0682212 0.0489198 0.0291552 255 0 0
-0.0659334 0.0489198 0.0291552 255 0 0
-0.0636456 0.0489198 0.0291552 255 0 0
-0.0613578 0.0489198 0.0291552 255 0 0
-0.0590700 0.0489198 0.0291552 255 0 0
-0.0567822 0.0489198 0.0291552 255 0 0
-0.0544945 0.0489198 0.0291552 255 0 0
-0.0522067 0.0489198 0.0291552 255 0 0
-0.0499189 0.0489198 0.0291552 255 0 0
-0.0476311 0.0489198 0.0291552 255 0 0
-0.0453433 0.0489198 0.0291552 255 0 0
-0.0430556 0.0489198 0.0291552 255 0 0
-0.0407678 0.0489198 0.0291552 255 0 0
-0.0384800 0.0489198 0.0291552 255 0 0
-0.0361922 0.0489198 0.0291552 255 0 0
-0.0339044 0.0489198 0.0291552 255 0 0
-0.0316167 0.0489198 0.0291552 255 0 0
-0.0293289 0.0489197 0.0291552 255 0 0
-0.0270411 0.0489197 0.0291551 255 0 0
-0.0247533 0.0489197 0.0291551 255 0 0
-0.0224655 0.0489197 0.0291551 255 0 0
-0.0201778 0.0489195 0.0291551 255 0 0
-0.0178901 0.0489193 0.0291550 255 0 0
-0.0156024 0.0489189 0.0291548 255 0 0
-0.0133149 0.0489192 0.0291547 255 0 0
-0.0110276 0.0489201 0.0291544 255 0 0
-0.0087399 0.0489223 0.0291541 255 0 0
-0.0064536 0.0489248 0.0291561 255 0 0
-0.0727967 0.0512076 0.0291552 255 0 0
-0.0705089 0.0512076 0.0291552 255 0 0
-0.0682212 0.0512076 0.0291552 255 0 0
-0.0659334 0.0512076 0.0291552 255 0 0
-0.0636456 0.0512076 0.0291552 255 0 0
-0.0613578 0.0512076 0.0291552 255 0 0
-0.0590700 0.0512076 0.0291552 255 0 0
-0.0567822 0.0512076 0.0291552 255 0 0
-0.0544945 0.0512076 0.0291552 255 0 0
-0.0522067 0.0512076 0.0291552 255 0 0
-0.0499189 0.0512076 0.0291552 255 0 0
-0.0476311 0.0512076 0.0291552 255 0 0
-0.0453433 0.0512076 0.0291552 255 0 0
-0.0430556 0.0512076 0.0291552 255 0 0
-0.0407678 0.0512076 0.0291552 255 0 0
-0.0384800 0.0512076 0.0291552 255 0 0
-0.0361922 0.0512076 0.0291552 255 0 0
-0.0339044 0.0512076 0.0291552 255 0 0
-0.0316167 0.0512076 0.0291552 255 0 0
-0.0293289 0.0512075 0.0291552 255 0 0
-0.0270411 0.0512075 0.0291551 255 0 0
-0.0247533 0.0512075 0.0291552 255 0 0
-0.0224655 0.0512075 0.0291551 255 0 0
-0.0201778 0.0512074 0.0291551 255 0 0
-0.0178901 0.0512074 0.0291550 255 0 0
-0.0156024 0.0512073 0.0291549 255 0 0
-0.0133150 0.0512080 0.0291548 255 0 0
-0.0110278 0.0512093 0.0291545 255 0 0
-0.0087405 0.0512127 0.0291545 255 0 0
-0.0064554 0.0512152 0.0291550 255 0 0
-0.0041701 0.0512318 0.0291541 255 0 0
-0.0750845 0.0534954 0.0291552 255 0 0
-0.0727967 0.0534954 0.0291552 255 0 0
-0.0705089 0.0534954 0.0291552 255 0 0
-0.0682212 0.0534954 0.0291552 255 0 0
-0.0659334 0.0534954 0.0291552 255 0 0
-0.0636456 0.0534954 0.0291552 255 0 0
-0.0613578 0.0534954 0.0291552 255 0 0
-0.0590700 0.0534954 0.0291552 255 0 0
-0.0567822 0.0534954 0.0291552 255 0 0
-0.0544945 0.0534954 0.0291552 255 0 0
-0.0522067 0.0534954 0.0291552 255 0 0
-0.0499189 0.0534954 0.0291552 255 0 0
-0.0476311 0.0534954 0.0291552 255 0 0
-0.0453433 0.0534954 0.0291552 255 0 0
-0.0430556 0.0534954 0.0291552 255 0 0
-0.0407678 0.0534954 0.0291552 255 0 0
-0.0384800 0.0534954 0.0291552 255 0 0
-0.0361922 0.0534954 0.0291552 255 0 0
-0.0339044 0.0534954 0.0291552 255 0 0
-0.0316167 0.0534954 0.0291552 255 0 0
-0.0293289 0.0534953 0.0291552 255 0 0
-0.0270411 0.0534953 0.0291551 255 0 0
-0.0247533 0.0534953 0.0291552 255 0 0
-0.0224656 0.0534954 0.0291552 255 0 0
-0.0201778 0.0534953 0.0291551 255 0 0
-0.0178901 0.0534953 0.0291551 255 0 0
-0.0156024 0.0534955 0.0291550 255 0 0
-0.0133150 0.0534963 0.0291548 255 0 0
-0.0110279 0.0534978 0.0291546 255 0 0
-0.0087415 0.0535017 0.0291542 255 0 0
-0.0064558 0.0535062 0.0291546 255 0 0
-0.0041728 0.0535264 0.0291524 255 0 0
-0.0019333 0.0536991 0.0291320 255 0 0
-0.0773723 0.0557831 0.0291552 255 0 0
-0.0750845 0.0557831 0.0291552 255 0 0
-0.0727967 0.0557831 0.0291552 255 0 0
-0.0705089 0.0557831 0.0291552 255 0 0
-0.0682212 0.0557831 0.0291552 255 0 0
-0.0659334 0.0557831 0.0291552 255 0 0
-0.0636456 0.0557831 0.0291552 255 0 0
-0.0613578 0.0557831 0.0291552 255 0 0
-0.0590700 0.0557831 0.0291552 255 0 0
-0.0567822 0.0557831 0.0291552 255 0 0
-0.0544945 0.0557831 0.0291552 255 0 0
-0.0522067 0.0557831 0.0291552 255 0 0
-0.0499189 0.0557831 0.0291552 255 0 0
-0.0476311 0.0557831 0.0291552 255 0 0
-0.0453433 0.0557831 0.0291552 255 0 0
-0.0430556 0.0557831 0.0291552 255 0 0
-0.0407678 0.0557831 0.0291552 255 0 0
-0.0384800 0.0557831 0.0291552 255 0 0
-0.0361922 0.0557831 0.0291552 255 0 0
-0.0339044 0.0557831 0.0291552 255 0 0
-0.0316167 0.0557831 0.0291552 255 0 0
-0.0293289 0.0557831 0.0291552 255 0 0
-0.0270411 0.0557831 0.0291552 255 0 0
-0.0247533 0.0557831 0.0291552 255 0 0
-0.0224656 0.0557832 0.0291552 255 0 0
-0.0201778 0.0557832 0.0291551 255 0 0
-0.0178901 0.0557833 0.0291551 255 0 0
-0.0156024 0.0557834 0.0291550 255 0 0
-0.0133150 0.0557842 0.0291549 255 0 0
-0.0110278 0.0557857 0.0291546 255 0 0
-0.0087416 0.0557894 0.0291539 255 0 0
-0.0064565 0.0557943 0.0291541 255 0 0
-0.0041741 0.0558181 0.0291503 255 0 0
-0.0019677 0.0560833 0.0291161 255 0 0
-0.0773723 0.0580709 0.0291552 255 0 0
-0.0750845 0.0580709 0.0291552 255 0 0
-0.0727967 0.0580709 0.0291552 255 0 0
-0.0705089 0.0580709 0.0291552 255 0 0
-0.0682212 0.0580709 0.0291552 255 0 0
-0.0659334 0.0580709 0.0291552 255 0 0
-0.0636456 0.0580709 0.0291552 255 0 0
-0.0613578 0.0580709 0.0291552 255 0 0
-0.0590700 0.0580709 0.0291552 255 0 0
-0.0567822 0.0580709 0.0291552 255 0 0
-0.0544945 0.0580709 0.0291552 255 0 0
-0.0522067 0.0580709 0.0291552 255 0 0
-0.0499189 0.0580709 0.0291552 255 0 0
-0.0476311 0.0580709 0.0291552 255 0 0
-0.0453433 0.0580709 0.0291552 255 0 0
-0.0430556 0.0580709 0.0291552 255 0 0
-0.0407678 0.0580709 0.0291552 255 0 0
-0.0384800 0.0580709 0.0291552 255 0 0
-0.0361922 0.0580709 0.0291552 255 0 0
-0.0339044 0.0580709 0.0291552 255 0 0
-0.0316167 0.0580709 0.0291552 255 0 0
-0.0293289 0.0580709 0.0291552 255 0 0
-0.0270411 0.0580709 0.0291552 255 0 0
-0.0247533 0.0580709 0.0291552 255 0 0
-0.0224655 0.0580710 0.0291552 255 0 0
-0.0201778 0.0580710 0.0291552 255 0 0
-0.0178901 0.0580711 0.0291551 255 0 0
-0.0156024 0.0580713 0.0291551 255 0 0
-0.0133149 0.0580720 0.0291549 255 0 0
-0.0110276 0.0580732 0.0291547 255 0 0
-0.0087411 0.0580763 0.0291542 255 0 0
-0.0064551 0.0580837 0.0291532 255 0 0
-0.0041703 0.0580990 0.0291519 255 0 0
-0.0019500 0.0583165 0.0291218 255 0 0
0.0005589 0.0576742 0.0292073 255 0 0
-0.0796601 0.0603587 0.0291552 255 0 0
-0.0773723 0.0603587 0.0291552 255 0 0
-0.0750845 0.0603587 0.0291552 255 0 0
-0.0727967 0.0603587 0.0291552 255 0 0
-0.0705089 0.0603587 0.0291552 255 0 0
-0.0682212 0.0603587 0.0291552 255 0 0
-0.0659334 0.0603587 0.0291552 255 0 0
-0.0636456 0.0603587 0.0291552 255 0 0
-0.0613578 0.0603587 0.0291552 255 0 0
-0.0590700 0.0603587 0.0291552 255 0 0
-0.0567822 0.0603587 0.0291552 255 0 0
-0.0544945 0.0603587 0.0291552 255 0 0
-0.0522067 0.0603587 0.0291552 255 0 0
-0.0499189 0.0603587 0.0291552 255 0 0
-0.0476311 0.0603587 0.0291552 255 0 0
-0.0453433 0.0603587 0.0291552 255 0 0
-0.0430556 0.0603587 0.0291552 255 0 0
-0.0407678 0.0603587 0.0291552 255 0 0
-0.0384800 0.0603587 0.0291552 255 0 0
-0.0361922 0.0603587 0.0291552 255 0 0
-0.0339044 0.0603587 0.0291552 255 0 0
-0.0316167 0.0603587 0.0291552 255 0 0
-0.0293289 0.0603587 0.0291552 255 0 0
-0.0270411 0.0603587 0.0291552 255 0 0
-0.0247533 0.0603587 0.0291552 255 0 0
-0.0224655 0.0603587 0.0291552 255 0 0
-0.0201778 0.0603588 0.0291552 255 0 0
-0.0178900 0.0603588 0.0291551 255 0 0
-0.0156023 0.0603590 0.0291551 255 0 0
-0.0133148 0.0603595 0.0291550 255 0 0
-0.0110274 0.0603604 0.0291548 255 0 0
-0.0087404 0.0603625 0.0291545 255 0 0
-0.0064529 0.0603673 0.0291537 255 0 0
-0.0041657 0.0603732 0.0291532 255 0 0
-0.0018898 0.0604414 0.0291459 255 0 0
0.0004818 0.0601280 0.0291812 255 0 0
0.0027912 0.0600462 0.0291887 255 0 0
-0.0796601 0.0626465 0.0291552 255 0 0
-0.0773723 0.0626465 0.0291552 255 0 0
-0.0750845 0.0626465 0.0291552 255 0 0
-0.0727967 0.0626465 0.0291552 255 0 0
-0.0705089 0.0626465 0.0291552 255 0 0
-0.0682212 0.0626465 0.0291552 255 0 0
-0.0659334 0.0626465 0.0291552 255 0 0
-0.0636456 0.0626465 0.0291552 255 0 0
-0.0613578 0.0626465 0.0291552 255 0 0
-0.0590700 0.0626465 0.0291552 255 0 0
-0.0567822 0.0626465 0.0291552 255 0 0
-0.0544945 0.0626465 0.0291552 255 0 0
-0.0522067 0.0626465 0.0291552 255 0 0
-0.0499189 0.0626465 0.0291552 255 0 0
-0.0476311 0.0626465 0.0291552 255 0 0
-0.0453433 0.0626465 0.0291552 255 0 0
-0.0430556 0.0626465 0.0291552 255 0 0
-0.0407678 0.0626465 0.0291552 255 0 0
-0.0384800 0.0626465 0.0291552 255 0 0
-0.0361922 0.0626465 0.0291552 255 0 0
-0.0339044 0.0626465 0.0291552 255 0 0
-0.0316167 0.0626465 0.0291552 255 0 0
-0.0293289 0.0626465 0.0291552 255 0 0
-0.0270411 0.0626465 0.0291552 255 0 0
-0.0247533 0.0626465 0.0291552 255 0 0
-0.0224655 0.0626465 0.0291552 255 0 0
-0.0201778 0.0626465 0.0291552 255 0 0
-0.0178900 0.0626467 0.0291552 255 0 0
-0.0156023 0.0626467 0.0291551 255 0 0
-0.0133146 0.0626470 0.0291551 255 0 0
-0.0110271 0.0626476 0.0291550 255 0 0
-0.0087398 0.0626487 0.0291547 255 0 0
-0.0064520 0.0626509 0.0291544 255 0 0
-0.0041640 0.0626551 0.0291537 255 0 0
-0.0018767 0.0626743 0.0291532 255 0 0
0.0004187 0.0625969 0.0291570 255 0 0
0.0027104 0.0625684 0.0291588 255 0 0
0.0049984 0.0626180 0.0291565 255 0 0
-0.0819478 0.0649343 0.0291552 255 0 0
-0.0796601 0.0649343 0.0291552 255 0 0
-0.0773723 0.0649343 0.0291552 255 0 0
-0.0750845 0.0649343 0.0291552 255 0 0
-0.0727967 0.0649343 0.0291552 255 0 0
-0.0705089 0.0649343 0.0291552 255 0 0
-0.0682212 0.0649343 0.0291552 255 0 0
-0.0659334 0.0649343 0.0291552 255 0 0
-0.0636456 0.0649343 0.0291552 255 0 0
-0.0613578 0.0649343 0.0291552 255 0 0
-0.0590700 0.0649343 0.0291552 255 0 0
-0.0567822 0.0649343 0.0291552 255 0 0
-0.0544945 0.0649343 0.0291552 255 0 0
-0.0522067 0.0649343 0.0291552 255 0 0
-0.0499189 0.0649343 0.0291552 255 0 0
-0.0476311 0.0649343 0.0291552 255 0 0
-0.0453433 0.0649343 0.0291552 255 0 0
-0.0430556 0.0649343 0.0291552 255 0 0
-0.0407678 0.0649343 0.0291552 255 0 0
-0.0384800 0.0649343 0.0291552 255 0 0
-0.0361922 0.0649343 0.0291552 255 0 0
-0.0339044 0.0649343 0.0291552 255 0 0
-0.0316167 0.0649343 0.0291552 255 0 0
-0.0293289 0.0649343 0.0291552 255 0 0
-0.0270411 0.0649343 0.0291552 255 0 0
-0.0247533 0.0649343 0.0291552 255 0 0
-0.0224655 0.0649343 0.0291552 255 0 0
-0.0201778 0.0649343 0.0291552 255 0 0
-0.0178900 0.0649343 0.0291552 255 0 0
-0.0156023 0.0649345 0.0291552 255 0 0
-0.0133145 0.0649345 0.0291551 255 0 0
-0.0110269 0.0649348 0.0291551 255 0 0
-0.0087392 0.0649352 0.0291550 255 0 0
-0.0064516 0.0649353 0.0291550 255 0 0
-0.0041635 0.0649344 0.0291550 255 0 0
-0.0018756 0.0649369 0.0291545 255 0 0
0.0004150 0.0649158 0.0291555 255 0 0
0.0027041 0.0649050 0.0291562 255 0 0
0.0049900 0.0649190 0.0291554 255 0 0
-0.0842356 0.0672220 0.0291552 255 0 0
-0.0819478 0.0672220 0.0291552 255 0 0
-0.0796601 0.0672220 0.0291552 255 0 0
-0.0773723 0.0672220 0.0291552 255 0 0
-0.0750845 0.0672220 0.0291552 255 0 0
-0.0727967 0.0672220 0.0291552 255 0 0
-0.0705089 0.0672220 0.0291552 255 0 0
-0.0682212 0.0672220 0.0291552 255 0 0
-0.0659334 0.0672220 0.0291552 255 0 0
-0.0636456 0.0672220 0.0291552 255 0 0
-0.0613578 0.0672220 0.0291552 255 0 0
-0.0590700 0.0672220 0.0291552 255 0 0
-0.0567822 0.0672220 0.0291552 255 0 0
-0.0544945 0.0672220 0.0291552 255 0 0
-0.0522067 0.0672220 0.0291552 255 0 0
-0.0499189 0.0672220 0.0291552 255 0 0
-0.0476311 0.0672220 0.0291552 255 0 0
-0.0453433 0.0672220 0.0291552 255 0 0
-0.0430556 0.0672220 0.0291552 255 0 0
-0.0407678 0.0672220 0.0291552 255 0 0
-0.0384800 0.0672220 0.0291552 255 0 0
-0.0361922 0.0672220 0.0291552 255 0 0
-0.0339044 0.0672220 0.0291552 255 0 0
-0.0316167 0.0672220 0.0291552 255 0 0
-0.0293289 0.0672220 0.0291552 255 0 0
-0.0270411 0.0672220 0.0291552 255 0 0
-0.0247533 0.0672220 0.0291552 255 0 0
-0.0224655 0.0672220 0.0291552 255 0 0
-0.0201778 0.0672220 0.0291552 255 0 0
-0.0178900 0.0672220 0.0291552 255 0 0
-0.0156022 0.0672220 0.0291552 255 0 0
-0.0133145 0.0672222 0.0291552 255 0 0
-0.0110267 0.0672223 0.0291551 255 0 0
-0.0087390 0.0672224 0.0291551 255 0 0
-0.0064513 0.0672226 0.0291551 255 0 0
-0.0041635 0.0672225 0.0291551 255 0 0
-0.0018759 0.0672240 0.0291548 255 0 0
0.0004132 0.0672144 0.0291557 255 0 0
0.0027016 0.0672094 0.0291553 255 0 0
0.0049889 0.0672151 0.0291559 255 0 0
-0.0842356 0.0695098 0.0291552 255 0 0
-0.0819478 0.0695098 0.0291552 255 0 0
-0.0796601 0.0695098 0.0291552 255 0 0
-0.0773723 0.0695098 0.0291552 255 0 0
-0.0750845 0.0695098 0.0291552 255 0 0
-0.0727967 0.0695098 0.0291552 255 0 0
-0.0705089 0.0695098 0.0291552 255 0 0
-0.0682212 0.0695098 0.0291552 255 0 0
-0.0659334 0.0695098 0.0291552 255 0 0
-0.0636456 0.0695098 0.0291552 255 0 0
-0.0613578 0.0695098 0.0291552 255 0 0
-0.0590700 0.0695098 0.0291552 255 0 0
-0.0567822 0.0695098 0.0291552 255 0 0
-0.0544945 0.0695098 0.0291552 255 0 0
-0.0522067 0.0695098 0.0291552 255 0 0
-0.0499189 0.0695098 0.0291552 255 0 0
-0.0476311 0.0695098 0.0291552 255 0 0
-0.0453433 0.0695098 0.0291552 255 0 0
-0.0430556 0.0695098 0.0291552 255 0 0
-0.0407678 0.0695098 0.0291552 255 0 0
-0.0384800 0.0695098 0.0291552 255 0 0
-0.0361922 0.0695098 0.0291552 255 0 0
-0.0339044 0.0695098 0.0291552 255 0 0
-0.0316167 0.0695098 0.0291552 255 0 0
-0.0293289 0.0695098 0.0291552 255 0 0
-0.0270411 0.0695098 0.0291552 255 0 0
-0.0247533 0.0695098 0.0291552 255 0 0
-0.0224655 0.0695098 0.0291552 255 0 0
-0.0201778 0.0695098 0.0291552 255 0 0
-0.0178900 0.0695098 0.0291552 255 0 0
-0.0156022 0.0695098 0.0291552 255 0 0
-0.0133144 0.0695098 0.0291552 255 0 0
-0.0110267 0.0695098 0.0291552 255 0 0
-0.0087389 0.0695099 0.0291552 255 0 0
-0.0064512 0.0695100 0.0291551 255 0 0
-0.0041635 0.0695104 0.0291551 255 0 0
-0.0018759 0.0695111 0.0291550 255 0 0
0.0004122 0.0695087 0.0291553 255 0 0
0.0027003 0.0695073 0.0291555 255 0 0
0.0049879 0.0695081 0.0291554 255 0 0
0.0072758 0.0695086 0.0291553 255 0 0
-0.0865234 0.0717976 0.0291552 255 0 0
-0.0842356 0.0717976 0.0291552 255 0 0
-0.0819478 0.0717976 0.0291552 255 0 0
-0.0796601 0.0717976 0.0291552 255 0 0
-0.0773723 0.0717976 0.0291552 255 0 0
-0.0750845 0.0717976 0.0291552 255 0 0
-0.0727967 0.0717976 0.0291552 255 0 0
-0.0705089 0.0717976 0.0291552 255 0 0
-0.0682212 0.0717976 0.0291552 255 0 0
-0.0659334 0.0717976 0.0291552 255 0 0
-0.0636456 0.0717976 0.0291552 255 0 0
-0.0613578 0.0717976 0.0291552 255 0 0
-0.0590700 0.0717976 0.0291552 255 0 0
-0.0567822 0.0717976 0.0291552 255 0 0
-0.0544945 0.0717976 0.0291552 255 0 0
-0.0522067 0.0717976 0.0291552 255 0 0
-0.0499189 0.0717976 0.0291552 255 0 0
-0.0476311 0.0717976 0.0291552 255 0 0
-0.0453433 0.0717976 0.0291552 255 0 0
-0.0430556 0.0717976 0.0291552 255 0 0
-0.0407678 0.0717976 0.0291552 255 0 0
-0.0384800 0.0717976 0.0291552 255 0 0
-0.0361922 0.0717976 0.0291552 255 0 0
-0.0339044 0.0717976 0.0291552 255 0 0
-0.0316167 0.0717976 0.0291552 255 0 0
-0.0293289 0.0717976 0.0291552 255 0 0
-0.0270411 0.0717976 0.0291552 255 0 0
-0.0247533 0.0717976 0.0291552 255 0 0
-0.0224655 0.0717976 0.0291552 255 0 0
-0.0201778 0.0717976 0.0291552 255 0 0
-0.0178900 0.0717976 0.0291552 255 0 0
-0.0156022 0.0717976 0.0291552 255 0 0
-0.0133144 0.0717976 0.0291552 255 0 0
-0.0110267 0.0717976 0.0291552 255 0 0
-0.0087389 0.0717976 0.0291552 255 0 0
-0.0064511 0.0717977 0.0291552 255 0 0
-0.0041634 0.0717978 0.0291551 255 0 0
-0.0018757 0.0717981 0.0291551 255 0 0
0.0004123 0.0717966 0.0291553 255 0 0
0.0027003 0.0717958 0.0291554 255 0 0
0.0049881 0.0717964 0.0291553 255 0 0
0.0072759 0.0717968 0.0291553 255 0 0
-0.0865234 0.0740854 0.0291552 255 0 0
-0.0842356 0.0740854 0.0291552 255 0 0
-0.0819478 0.0740854 0.0291552 255 0 0
-0.0796601 0.0740854 0.0291552 255 0 0
-0.0773723 0.0740854 0.0291552 255 0 0
-0.0750845 0.0740854 0.0291552 255 0 0
-0.0727967 0.0740854 0.0291552 255 0 0
-0.0705089 0.0740854 0.0291552 255 0 0
-0.0682212 0.0740854 0.0291552 255 0 0
-0.0659334 0.0740854 0.0291552 255 0 0
-0.0636456 0.0740854 0.0291552 255 0 0
-0.0613578 0.0740854 0.0291552 255 0 0
-0.0590700 0.0740854 0.0291552 255 0 0
-0.0567822 0.0740854 0.0291552 255 0 0
-0.0544945 0.0740854 0.0291552 255 0 0
-0.0522067 0.0740854 0.0291552 255 0 0
-0.0499189 0.0740854 0.0291552 255 0 0
-0.0476311 0.0740854 0.0291552 255 0 0
-0.0453433 0.0740854 0.0291552 255 0 0
-0.0430556 0.0740854 0.0291552 255 0 0
-0.0407678 0.0740854 0.0291552 255 0 0
-0.0384800 0.0740854 0.0291552 255 0 0
-0.0361922 0.0740854 0.0291552 255 0 0
-0.0339044 0.0740854 0.0291552 255 0 0
-0.0316167 0.0740854 0.0291552 255 0 0
-0.0293289 0.0740854 0.0291552 255 0 0
-0.0270411 0.0740854 0.0291552 255 0 0
-0.0247533 0.0740854 0.0291552 255 0 0
-0.0224655 0.0740854 0.0291552 255 0 0
-0.0201778 0.0740854 0.0291552 255 0 0
-0.0178900 0.0740854 0.0291552 255 0 0
-0.0156022 0.0740854 0.0291552 255 0 0
-0.0133144 0.0740854 0.0291552 255 0 0
-0.0110266 0.0740854 0.0291552 255 0 0
-0.0087389 0.0740854 0.0291552 255 0 0
-0.0064511 0.0740854 0.0291552 255 0 0
-0.0041633 0.0740854 0.0291552 255 0 0
-0.0018755 0.0740855 0.0291552 255 0 0
0.0004124 0.0740846 0.0291553 255 0 0
0.0027002 0.0740842 0.0291553 255 0 0
0.0049881 0.0740847 0.0291553 255 0 0
0.0072758 0.0740848 0.0291552 255 0 0
-0.0888112 0.0763732 0.0291552 255 0 0
-0.0865234 0.0763732 0.0291552 255 0 0
-0.0842356 0.0763732 0.0291552 255 0 0
-0.0819478 0.0763732 0.0291552 255 0 0
-0.0796601 0.0763732 0.0291552 255 0 0
-0.0773723 0.0763732 0.0291552 255 0 0
-0.0750845 0.0763732 0.0291552 255 0 0
-0.0727967 0.0763732 0.0291552 255 0 0
-0.0705089 0.0763732 0.0291552 255 0 0
-0.0682212 0.0763732 0.0291552 255 0 0
-0.0659334 0.0763732 0.0291552 255 0 0
-0.0636456 0.0763732 0.0291552 255 0 0
-0.0613578 0.0763732 0.0291552 255 0 0
-0.0590700 0.0763732 0.0291552 255 0 0
-0.0567822 0.0763732 0.0291552 255 0 0
-0.0544945 0.0763732 0.0291552 255 0 0
-0.0522067 0.0763732 0.0291552 255 0 0
-0.0499189 0.0763732 0.0291552 255 0 0
-0.0476311 0.0763732 0.0291552 255 0 0
-0.0453433 0.0763732 0.0291552 255 0 0
-0.0430556 0.0763732 0.0291552 255 0 0
-0.0407678 0.0763732 0.0291552 255 0 0
-0.0384800 0.0763732 0.0291552 255 0 0
-0.0361922 0.0763732 0.0291552 255 0 0
-0.0339044 0.0763732 0.0291552 255 0 0
-0.0316167 0.0763732 0.0291552 255 0 0
-0.0293289 0.0763732 0.0291552 255 0 0
-0.0270411 0.0763732 0.0291552 255 0 0
-0.0247533 0.0763732 0.0291552 255 0 0
-0.0224655 0.0763732 0.0291552 255 0 0
-0.0201778 0.0763732 0.0291552 255 0 0
-0.0178900 0.0763732 0.0291552 255 0 0
-0.0156022 0.0763732 0.0291552 255 0 0
-0.0133144 0.0763732 0.0291552 255 0 0
-0.0110266 0.0763732 0.0291552 255 0 0
-0.0087388 0.0763732 0.0291552 255 0 0
-0.0064511 0.0763732 0.0291552 255 0 0
-0.0041633 0.0763732 0.0291552 255 0 0
-0.0018755 0.0763732 0.0291552 255 0 0
0.0004123 0.0763728 0.0291552 255 0 0
0.0027002 0.0763726 0.0291552 255 0 0
0.0049880 0.0763728 0.0291552 255 0 0
0.0072757 0.0763729 0.0291552 255 0 0
0.0095635 0.0763729 0.0291552 255 0 0
-0.0888112 0.0786610 0.0291552 255 0 0
-0.0865234 0.0786610 0.0291552 255 0 0
-0.0842356 0.0786610 0.0291552 255 0 0
-0.0819478 0.0786610 0.0291552 255 0 0
-0.0796601 0.0786610 0.0291552 255 0 0
-0.0773723 0.0786610 0.0291552 255 0 0
-0.0750845 0.0786610 0.0291552 255 0 0
-0.0727967 0.0786610 0.0291552 255 0 0
-0.0705089 0.0786610 0.0291552 255 0 0
-0.0682212 0.0786610 0.0291552 255 0 0
-0.0659334 0.0786610 0.0291552 255 0 0
-0.0636456 0.0786610 0.0291552 255 0 0
-0.0613578 0.0786610 0.0291552 255 0 0
-0.0590700 0.0786610 0.0291552 255 0 0
-0.0567822 0.0786610 0.0291552 255 0 0
-0.0544945 0.0786610 0.0291552 255 0 0
-0.0522067 0.0786610 0.0291552 255 0 0
-0.0499189 0.0786610 0.0291552 255 0 0
-0.0476311 0.0786610 0.0291552 255 0 0
-0.0453433 0.0786610 0.0291552 255 0 0
-0.0430556 0.0786610 0.0291552 255 0 0
-0.0407678 0.0786610 0.0291552 255 0 0
-0.0384800 0.0786610 0.0291552 255 0 0
-0.0361922 0.0786610 0.0291552 255 0 0
-0.0339044 0.0786610 0.0291552 255 0 0
-0.0316167 0.0786610 0.0291552 255 0 0
-0.0293289 0.0786610 0.0291552 255 0 0
-0.0270411 0.0786610 0.0291552 255 0 0
-0.0247533 0.0786610 0.0291552 255 0 0
-0.0224655 0.0786610 0.0291552 255 0 0
-0.0201778 0.0786610 0.0291552 255 0 0
-0.0178900 0.0786610 0.0291552 255 0 0
-0.0156022 0.0786610 0.0291552 255 0 0
-0.0133144 0.0786610 0.0291552 255 0 0
-0.0110266 0.0786610 0.0291552 255 0 0
-0.0087388 0.0786610 0.0291552 255 0 0
-0.0064511 0.0786610 0.0291552 255 0 0
-0.0041633 0.0786610 0.0291552 255 0 0
-0.0018755 0.0786610 0.0291552 255 0 0
0.0004123 0.0786607 0.0291552 255 0 0
0.0027001 0.0786607 0.0291552 255 0 0
0.0049879 0.0786607 0.0291552 255 0 0
0.0072757 0.0786609 0.0291552 255 0 0
0.0095634 0.0786610 0.0291552 255 0 0
-0.0910990 0.0809487 0.0291552 255 0 0
-0.0888112 0.0809487 0.0291552 255 0 0
-0.0865234 0.0809487 0.0291552 255 0 0
-0.0842356 0.0809487 0.0291552 255 0 0
-0.0819478 0.0809487 0.0291552 255 0 0
-0.0796601 0.0809487 0.0291552 255 0 0
-0.0773723 0.0809487 0.0291552 255 0 0
-0.0750845 0.0809487 0.0291552 255 0 0
-0.0727967 0.0809487 0.0291552 255 0 0
-0.0705089 0.0809487 0.0291552 255 0 0
-0.0682212 0.0809487 0.0291552 255 0 0
-0.0659334 0.0809487 0.0291552 255 0 0
-0.0636456 0.0809487 0.0291552 255 0 0
-0.0613578 0.0809487 0.0291552 255 0 0
-0.0590700 0.0809487 0.0291552 255 0 0
-0.0567822 0.0809487 0.0291552 255 0 0
-0.0544945 0.0809487 0.0291552 255 0 0
-0.0522067 0.0809487 0.0291552 255 0 0
-0.0499189 0.0809487 0.0291552 255 0 0
-0.0476311 0.0809487 0.0291552 255 0 0
-0.0453433 0.0809487 0.0291552 255 0 0
-0.0430556 0.0809487 0.0291552 255 0 0
-0.0407678 0.0809487 0.0291552 255 0 0
-0.0384800 0.0809487 0.0291552 255 0 0
-0.0361922 0.0809487 0.0291552 255 0 0
-0.0339044 0.0809487 0.0291552 255 0 0
-0.0316167 0.0809487 0.0291552 255 0 0
-0.0293289 0.0809487 0.0291552 255 0 0
-0.0270411 0.0809487 0.0291552 255 0 0
-0.0247533 0.0809487 0.0291552 255 0 0
-0.0224655 0.0809487 0.0291552 255 0 0
-0.0201778 0.0809487 0.0291552 255 0 0
-0.0178900 0.0809487 0.0291552 255 0 0
-0.0156022 0.0809487 0.0291552 255 0 0
-0.0133144 0.0809487 0.0291552 255 0 0
-0.0110266 0.0809487 0.0291552 255 0 0
-0.0087388 0.0809487 0.0291552 255 0 0
-0.0064511 0.0809487 0.0291552 255 0 0
-0.0041633 0.0809487 0.0291552 255 0 0
-0.0018755 0.0809487 0.0291552 255 0 0
0.0004123 0.0809487 0.0291552 255 0 0
0.0027001 0.0809487 0.0291552 255 0 0
0.0049879 0.0809487 0.0291552 255 0 0
0.0072756 0.0809487 0.0291552 255 0 0
0.0095634 0.0809487 0.0291552 255 0 0
-0.0910990 0.0832365 0.0291552 255 0 0
-0.0888112 0.0832365 0.0291552 255 0 0
-0.0865234 0.0832365 0.0291552 255 0 0
-0.0842356 0.0832365 0.0291552 255 0 0
-0.0819478 0.0832365 0.0291552 255 0 0
-0.0796601 0.0832365 0.0291552 255 0 0
-0.0773723 0.0832365 0.0291552 255 0 0
-0.0750845 0.0832365 0.0291552 255 0 0
-0.0727967 0.0832365 0.0291552 255 0 0
-0.0705089 0.0832365 0.0291552 255 0 0
-0.0682212 0.0832365 0.0291552 255 0 0
-0.0659334 0.0832365 0.0291552 255 0 0
-0.0636456 0.0832365 0.0291552 255 0 0
-0.0613578 0.0832365 0.0291552 255 0 0
-0.0590700 0.0832365 0.0291552 255 0 0
-0.0567822 0.0832365 0.0291552 255 0 0
-0.0544945 0.0832365 0.0291552 255 0 0
-0.0522067 0.0832365 0.0291552 255 0 0
-0.0499189 0.0832365 0.0291552 255 0 0
-0.0476311 0.0832365 0.0291552 255 0 0
-0.0453433 0.0832365 0.0291552 255 0 0
-0.0430556 0.0832365 0.0291552 255 0 0
-0.0407678 0.0832365 0.0291552 255 0 0
-0.0384800 0.0832365 0.0291552 255 0 0
-0.0361922 0.0832365 0.0291552 255 0 0
-0.0339044 0.0832365 0.0291552 255 0 0
-0.0316167 0.0832365 0.0291552 255 0 0
-0.0293289 0.0832365 0.0291552 255 0 0
-0.0270411 0.0832365 0.0291552 255 0 0
-0.0247533 0.0832365 0.0291552 255 0 0
-0.0224655 0.0832365 0.0291552 255 0 0
-0.0201778 0.0832365 0.0291552 255 0 0
-0.0178900 0.0832365 0.0291552 255 0 0
-0.0156022 0.0832365 0.0291552 255 0 0
-0.0133144 0.0832365 0.0291552 255 0 0
-0.0110266 0.0832365 0.0291552 255 0 0
-0.0087388 0.0832365 0.0291552 255 0 0
-0.0064511 0.0832365 0.0291552 255 0 0
-0.0041633 0.0832365 0.0291552 255 0 0
-0.0018755 0.0832365 0.0291552 255 0 0
0.0004123 0.0832365 0.0291552 255 0 0
0.0027001 0.0832365 0.0291552 255 0 0
0.0049879 0.0832365 0.0291552 255 0 0
0.0072756 0.0832365 0.0291552 255 0 0
0.0095634 0.0832365 0.0291552 255 0 0
0.0118512 0.0832365 0.0291552 255 0 0
-0.0933868 0.0855243 0.0291552 255 0 0
-0.0910990 0.0855243 0.0291552 255 0 0
-0.0888112 0.0855243 0.0291552 255 0 0
-0.0865234 0.0855243 0.0291552 255 0 0
-0.0842356 0.0855243 0.0291552 255 0 0
-0.0819478 0.0855243 0.0291552 255 0 0
-0.0796601 0.0855243 0.0291552 255 0 0
-0.0773723 0.0855243 0.0291552 255 0 0
-0.0750845 0.0855243 0.0291552 255 0 0
-0.0727967 0.0855243 0.0291552 255 0 0
-0.0705089 0.0855243 0.0291552 255 0 0
-0.0682212 0.0855243 0.0291552 255 0 0
-0.0659334 0.0855243 0.0291552 255 0 0
-0.0636456 0.0855243 0.0291552 255 0 0
-0.0613578 0.0855243 0.0291552 255 0 0
-0.0590700 0.0855243 0.0291552 255 0 0
-0.0567822 0.0855243 0.0291552 255 0 0
-0.0544945 0.0855243 0.0291552 255 0 0
-0.0522067 0.0855243 0.0291552 255 0 0
-0.0499189 0.0855243 0.0291552 255 0 0
-0.0476311 0.0855243 0.0291552 255 0 0
-0.0453433 0.0855243 0.0291552 255 0 0
-0.0430556 0.0855243 0.0291552 255 0 0
-0.0407678 0.0855243 0.0291552 255 0 0
-0.0384800 0.0855243 0.0291552 255 0 0
-0.0361922 0.0855243 0.0291552 255 0 0
-0.0339044 0.0855243 0.0291552 255 0 0
-0.0316167 0.0855243 0.0291552 255 0 0
-0.0293289 0.0855243 0.0291552 255 0 0
-0.0270411 0.0855243 0.0291552 255 0 0
-0.0247533 0.0855243 0.0291552 255 0 0
-0.0224655 0.0855243 0.0291552 255 0 0
-0.0201778 0.0855243 0.0291552 255 0 0
-0.0178900 0.0855243 0.0291552 255 0 0
-0.0156022 0.0855243 0.0291552 255 0 0
-0.0133144 0.0855243 0.0291552 255 0 0
-0.0110266 0.0855243 0.0291552 255 0 0
-0.0087388 0.0855243 0.0291552 255 0 0
-0.0064511 0.0855243 0.0291552 255 0 0
-0.0041633 0.0855243 0.0291552 255 0 0
-0.0018755 0.0855243 0.0291552 255 0 0
0.0004123 0.0855243 0.0291552 255 0 0
0.0027001 0.0855243 0.0291552 255 0 0
0.0049878 0.0855243 0.0291552 255 0 0
0.0072756 0.0855243 0.0291552 255 0 0
0.0095634 0.0855243 0.0291552 255 0 0
0.0118512 0.0855243 0.0291552 255 0 0
-0.0933868 0.0878121 0.0291552 255 0 0
-0.0910990 0.0878121 0.0291552 255 0 0
-0.0888112 0.0878121 0.0291552 255 0 0
-0.0865234 0.0878121 0.0291552 255 0 0
-0.0842356 0.0878121 0.0291552 255 0 0
-0.0819478 0.0878121 0.0291552 255 0 0
-0.0796601 0.0878121 0.0291552 255 0 0
-0.0773723 0.0878121 0.0291552 255 0 0
-0.0750845 0.0878121 0.0291552 255 0 0
-0.0727967 0.0878121 0.0291552 255 0 0
-0.0705089 0.0878121 0.0291552 255 0 0
-0.0682212 0.0878121 0.0291552 255 0 0
-0.0659334 0.0878121 0.0291552 255 0 0
-0.0636456 0.0878121 0.0291552 255 0 0
-0.0613578 0.0878121 0.0291552 255 0 0
-0.0590700 0.0878121 0.0291552 255 0 0
-0.0567822 0.0878121 0.0291552 255 0 0
-0.0544945 0.0878121 0.0291552 255 0 0
-0.0522067 0.0878121 0.0291552 255 0 0
-0.0499189 0.0878121 0.0291552 255 0 0
-0.0476311 0.0878121 0.0291552 255 0 0
-0.0453433 0.0878121 0.0291552 255 0 0
-0.0430556 0.0878121 0.0291552 255 0 0
-0.0407678 0.0878121 0.0291552 255 0 0
-0.0384800 0.0878121 0.0291552 255 0 0
-0.0361922 0.0878121 0.0291552 255 0 0
-0.0339044 0.0878121 0.0291552 255 0 0
-0.0316167 0.0878121 0.0291552 255 0 0
-0.0293289 0.0878121 0.0291552 255 0 0
-0.0270411 0.0878121 0.0291552 255 0 0
-0.0247533 0.0878121 0.0291552 255 0 0
-0.0224655 0.0878121 0.0291552 255 0 0
-0.0201778 0.0878121 0.0291552 255 0 0
-0.0178900 0.0878121 0.0291552 255 0 0
-0.0156022 0.0878121 0.0291552 255 0 0
-0.0133144 0.0878121 0.0291552 255 0 0
-0.0110266 0.0878121 0.0291552 255 0 0
-0.0087388 0.0878121 0.0291552 255 0 0
-0.0064511 0.0878121 0.0291552 255 0 0
-0.0041633 0.0878121 0.0291552 255 0 0
-0.0018755 0.0878121 0.0291552 255 0 0
0.0004123 0.0878121 0.0291552 255 0 0
0.0027001 0.0878121 0.0291552 255 0 0
0.0049878 0.0878121 0.0291552 255 0 0
0.0072756 0.0878121 0.0291552 255 0 0
0.0095634 0.0878121 0.0291552 255 0 0
0.0118512 0.0878121 0.0291552 255 0 0
0.0141390 0.0878121 0.0291552 255 0 0
-0.0933868 0.0900999 0.0291552 255 0 0
-0.0910990 0.0900999 0.0291552 255 0 0
-0.0888112 0.0900999 0.0291552 255 0 0
-0.0865234 0.0900999 0.0291552 255 0 0
-0.0842356 0.0900999 0.0291552 255 0 0
-0.0819478 0.0900999 0.0291552 255 0 0
-0.0796601 0.0900999 0.0291552 255 0 0
-0.0773723 0.0900999 0.0291552 255 0 0
-0.0750845 0.0900999 0.0291552 255 0 0
-0.0727967 0.0900999 0.0291552 255 0 0
-0.0705089 0.0900999 0.0291552 255 0 0
-0.0682212 0.0900999 0.0291552 255 0 0
-0.0659334 0.0900999 0.0291552 255 0 0
-0.0636456 0.0900999 0.0291552 255 0 0
-0.0613578 0.0900999 0.0291552 255 0 0
-0.0590700 0.0900999 0.0291552 255 0 0
-0.0567822 0.0900999 0.0291552 255 0 0
-0.0544945 0.0900999 0.0291552 255 0 0
-0.0522067 0.0900999 0.0291552 255 0 0
-0.0499189 0.0900999 0.0291552 255 0 0
-0.0476311 0.0900999 0.0291552 255 0 0
-0.0453433 0.0900999 0.0291552 255 0 0
-0.0430556 0.0900999 0.0291552 255 0 0
-0.0407678 0.0900999 0.0291552 255 0 0
-0.0384800 0.0900999 0.0291552 255 0 0
-0.0361922 0.0900999 0.0291552 255 0 0
-0.0339044 0.0900999 0.0291552 255 0 0
-0.0316167 0.0900999 0.0291552 255 0 0
-0.0293289 0.0900999 0.0291552 255 0 0
-0.0270411 0.0900999 0.0291552 255 0 0
-0.0247533 0.0900999 0.0291552 255 0 0
-0.0224655 0.0900999 0.0291552 255 0 0
-0.0201778 0.0900999 0.0291552 255 0 0
-0.0178900 0.0900999 0.0291552 255 0 0
-0.0156022 0.0900999 0.0291552 255 0 0
-0.0133144 0.0900999 0.0291552 255 0 0
-0.0110266 0.0900999 0.0291552 255 0 0
-0.0087388 0.0900999 0.0291552 255 0 0
-0.0064511 0.0900999 0.0291552 255 0 0
-0.0041633 0.0900999 0.0291552 255 0 0
-0.0018755 0.0900999 0.0291552 255 0 0
0.0004123 0.0900999 0.0291552 255 0 0
0.0027001 0.0900999 0.0291552 255 0 0
0.0049878 0.0900999 0.0291552 255 0 0
0.0072756 0.0900999 0.0291552 255 0 0
0.0095634 0.0900999 0.0291552 255 0 0
0.0118512 0.0900999 0.0291552 255 0 0
0.0141390 0.0900999 0.0291552 255 0 0
-0.0933868 0.0923876 0.0291552 255 0 0
-0.0910990 0.0923876 0.0291552 255 0 0
-0.0888112 0.0923876 0.0291552 255 0 0
-0.0865234 0.0923876 0.0291552 255 0 0
-0.0842356 0.0923876 0.0291552 255 0 0
-0.0819478 0.0923876 0.0291552 255 0 0
-0.0796601 0.0923876 0.0291552 255 0 0
-0.0773723 0.0923876 0.0291552 255 0 0
-0.0750845 0.0923876 0.0291552 255 0 0
-0.0727967 0.0923876 0.0291552 255 0 0
-0.0705089 0.0923876 0.0291552 255 0 0
-0.0682212 0.0923876 0.0291552 255 0 0
-0.0659334 0.0923876 0.0291552 255 0 0
-0.0636456 0.0923876 0.0291552 255 0 0
-0.0613578 0.0923876 0.0291552 255 0 0
-0.0590700 0.0923876 0.0291552 255 0 0
-0.0567822 0.0923876 0.0291552 255 0 0
-0.0544945 0.0923876 0.0291552 255 0 0
-0.0522067 0.0923876 0.0291552 255 0 0
-0.0499189 0.0923876 0.0291552 255 0 0
-0.0476311 0.0923876 0.0291552 255 0 0
-0.0453433 0.0923876 0.0291552 255 0 0
-0.0430556 0.0923876 0.0291552 255 0 0
-0.0407678 0.0923876 0.0291552 255 0 0
-0.0384800 0.0923876 0.0291552 255 0 0
-0.0361922 0.0923876 0.0291552 255 0 0
-0.0339044 0.0923876 0.0291552 255 0 0
-0.0316167 0.0923876 0.0291552 255 0 0
-0.0293289 0.0923876 0.0291552 255 0 0
-0.0270411 0.0923876 0.0291552 255 0 0
-0.0247533 0.0923876 0.0291552 255 0 0
-0.0224655 0.0923876 0.0291552 255 0 0
-0.0201778 0.0923876 0.0291552 255 0 0
-0.0178900 0.0923876 0.0291552 255 0 0
-0.0156022 0.0923876 0.0291552 255 0 0
-0.0133144 0.0923876 0.0291552 255 0 0
-0.0110266 0.0923876 0.0291552 255 0 0
-0.0087388 0.0923876 0.0291552 255 0 0
-0.0064511 0.0923876 0.0291552 255 0 0
-0.0041633 0.0923876 0.0291552 255 0 0
-0.0018755 0.0923876 0.0291552 255 0 0
0.0004123 0.0923876 0.0291552 255 0 0
0.0027001 0.0923876 0.0291551 255 0 0
0.0049878 0.0923876 0.0291552 255 0 0
0.0072756 0.0923876 0.0291552 255 0 0
0.0095634 0.0923876 0.0291552 255 0 0
0.0118512 0.0923876 0.0291552 255 0 0
0.0141390 0.0923876 0.0291552 255 0 0
-0.0956745 0.0946754 0.0291552 255 0 0
-0.0933868 0.0946754 0.0291552 255 0 0
-0.0910990 0.0946754 0.0291552 255 0 0
-0.0888112 0.0946754 0.0291552 255 0 0
-0.0865234 0.0946754 0.0291552 255 0 0
-0.0842356 0.0946754 0.0291552 255 0 0
-0.0819478 0.0946754 0.0291552 255 0 0
-0.0796601 0.0946754 0.0291552 255 0 0
-0.0773723 0.0946754 0.0291552 255 0 0
-0.0750845 0.0946754 0.0291552 255 0 0
-0.0727967 0.0946754 0.0291552 255 0 0
-0.0705089 0.0946754 0.0291552 255 0 0
-0.0682212 0.0946754 0.0291552 255 0 0
-0.0659334 0.0946754 0.0291552 255 0 0
-0.0636456 0.0946754 0.0291552 255 0 0
-0.0613578 0.0946754 0.0291552 255 0 0
-0.0590700 0.0946754 0.0291552 255 0 0
-0.0567822 0.0946754 0.0291552 255 0 0
-0.0544945 0.0946754 0.0291552 255 0 0
-0.0522067 0.0946754 0.0291552 255 0 0
-0.0499189 0.0946754 0.0291552 255 0 0
-0.0476311 0.0946754 0.0291552 255 0 0
-0.0453433 0.0946754 0.0291552 255 0 0
-0.0430556 0.0946754 0.0291552 255 0 0
-0.0407678 0.0946754 0.0291552 255 0 0
-0.0384800 0.0946754 0.0291552 255 0 0
-0.0361922 0.0946754 0.0291552 255 0 0
-0.0339044 0.0946754 0.0291552 255 0 0
-0.0316167 0.0946754 0.0291552 255 0 0
-0.0293289 0.0946754 0.0291552 255 0 0
-0.0270411 0.0946754 0.0291552 255 0 0
-0.0247533 0.0946754 0.0291552 255 0 0
-0.0224655 0.0946754 0.0291552 255 0 0
-0.0201778 0.0946754 0.0291552 255 0 0
-0.0178900 0.0946754 0.0291552 255 0 0
-0.0156022 0.0946754 0.0291552 255 0 0
-0.0133144 0.0946754 0.0291552 255 0 0
-0.0110266 0.0946754 0.0291552 255 0 0
-0.0087388 0.0946754 0.0291552 255 0 0
-0.0064511 0.0946754 0.0291552 255 0 0
-0.0041633 0.0946754 0.0291552 255 0 0
-0.0018755 0.0946754 0.0291552 255 0 0
0.0004123 0.0946754 0.0291551 255 0 0
0.0027001 0.0946755 0.0291551 255 0 0
0.0049878 0.0946754 0.0291551 255 0 0
0.0072756 0.0946754 0.0291552 255 0 0
0.0095634 0.0946754 0.0291552 255 0 0
0.0118512 0.0946754 0.0291552 255 0 0
0.0141390 0.0946754 0.0291552 255 0 0
-0.0956745 0.0969632 0.0291552 255 0 0
-0.0933868 0.0969632 0.0291552 255 0 0
-0.0910990 0.0969632 0.0291552 255 0 0
-0.0888112 0.0969631 0.0291551 255 0 0
-0.0865234 0.0969632 0.0291551 255 0 0
-0.0842356 0.0969632 0.0291552 255 0 0
-0.0819478 0.0969632 0.0291552 255 0 0
-0.0796601 0.0969632 0.0291552 255 0 0
-0.0773723 0.0969632 0.0291552 255 0 0
-0.0750845 0.0969632 0.0291552 255 0 0
-0.0727967 0.0969632 0.0291552 255 0 0
-0.0705089 0.0969632 0.0291552 255 0 0
-0.0682212 0.0969632 0.0291552 255 0 0
-0.0659334 0.0969632 0.0291552 255 0 0
-0.0636456 0.0969632 0.0291552 255 0 0
-0.0613578 0.0969632 0.0291552 255 0 0
-0.0590700 0.0969632 0.0291552 255 0 0
-0.0567822 0.0969632 0.0291552 255 0 0
-0.0544945 0.0969632 0.0291552 255 0 0
-0.0522067 0.0969632 0.0291552 255 0 0
-0.0499189 0.0969632 0.0291552 255 0 0
-0.0476311 0.0969632 0.0291552 255 0 0
-0.0453433 0.0969632 0.0291552 255 0 0
-0.0430556 0.0969632 0.0291552 255 0 0
-0.0407678 0.0969632 0.0291552 255 0 0
-0.0384800 0.0969632 0.0291552 255 0 0
-0.0361922 0.0969632 0.0291552 255 0 0
-0.0339044 0.0969632 0.0291552 255 0 0
-0.0316167 0.0969632 0.0291552 255 0 0
-0.0293289 0.0969632 0.0291552 255 0 0
-0.0270411 0.0969632 0.0291552 255 0 0
-0.0247533 0.0969632 0.0291552 255 0 0
-0.0224655 0.0969632 0.0291552 255 0 0
-0.0201778 0.0969632 0.0291552 255 0 0
-0.0178900 0.0969632 0.0291552 255 0 0
-0.0156022 0.0969632 0.0291552 255 0 0
-0.0133144 0.0969632 0.0291552 255 0 0
-0.0110266 0.0969632 0.0291552 255 0 0
-0.0087388 0.0969632 0.0291552 255 0 0
-0.0064511 0.0969632 0.0291552 255 0 0
-0.0041633 0.0969632 0.0291552 255 0 0
-0.0018755 0.0969632 0.0291552 255 0 0
0.0004123 0.0969632 0.0291551 255 0 0
0.0027001 0.0969632 0.0291551 255 0 0
0.0049878 0.0969632 0.0291551 255 0 0
0.0072756 0.0969632 0.0291552 255 0 0
0.0095634 0.0969632 0.0291552 255 0 0
0.0118512 0.0969632 0.0291552 255 0 0
0.0141390 0.0969632 0.0291552 255 0 0
-0.0956745 0.0992510 0.0291552 255 0 0
-0.0933868 0.0992510 0.0291552 255 0 0
-0.0910990 0.0992509 0.0291551 255 0 0
-0.0888112 0.0992508 0.0291551 255 0 0
-0.0865234 0.0992509 0.0291551 255 0 0
-0.0842356 0.0992509 0.0291551 255 0 0
-0.0819478 0.0992509 0.0291551 255 0 0
-0.0796601 0.0992509 0.0291552 255 0 0
-0.0773723 0.0992510 0.0291552 255 0 0
-0.0750845 0.0992510 0.0291552 255 0 0
-0.0727967 0.0992510 0.0291552 255 0 0
-0.0705089 0.0992510 0.0291552 255 0 0
-0.0682212 0.0992510 0.0291552 255 0 0
-0.0659334 0.0992510 0.0291552 255 0 0
-0.0636456 0.0992510 0.0291552 255 0 0
-0.0613578 0.0992510 0.0291552 255 0 0
-0.0590700 0.0992510 0.0291552 255 0 0
-0.0567822 0.0992510 0.0291552 255 0 0
-0.0544945 0.0992510 0.0291552 255 0 0
-0.0522067 0.0992510 0.0291552 255 0 0
-0.0499189 0.0992510 0.0291552 255 0 0
-0.0476311 0.0992510 0.0291552 255 0 0
-0.0453433 0.0992510 0.0291552 255 0 0
-0.0430556 0.0992510 0.0291552 255 0 0
-0.0407678 0.0992510 0.0291552 255 0 0
-0.0384800 0.0992510 0.0291552 255 0 0
-0.0361922 0.0992510 0.0291552 255 0 0
-0.0339044 0.0992510 0.0291552 255 0 0
-0.0316167 0.0992510 0.0291552 255 0 0
-0.0293289 0.0992510 0.0291552 255 0 0
-0.0270411 0.0992510 0.0291552 255 0 0
-0.0247533 0.0992510 0.0291552 255 0 0
-0.0224655 0.0992510 0.0291552 255 0 0
-0.0201778 0.0992510 0.0291552 255 0 0
-0.0178900 0.0992510 0.0291552 255 0 0
-0.0156022 0.0992510 0.0291552 255 0 0
-0.0133144 0.0992510 0.0291552 255 0 0
-0.0110266 0.0992510 0.0291552 255 0 0
-0.0087388 0.0992510 0.0291552 255 0 0
-0.0064511 0.0992510 0.0291552 255 0 0
-0.0041633 0.0992510 0.0291552 255 0 0
-0.0018755 0.0992510 0.0291552 255 0 0
0.0004123 0.0992510 0.0291551 255 0 0
0.0027001 0.0992510 0.0291551 255 0 0
0.0049878 0.0992510 0.0291551 255 0 0
0.0072756 0.0992510 0.0291551 255 0 0
0.0095634 0.0992510 0.0291552 255 0 0
0.0118512 0.0992510 0.0291552 255 0 0
0.0141390 0.0992510 0.0291552 255 0 0
-0.0956745 0.1015388 0.0291552 255 0 0
-0.0933868 0.1015388 0.0291552 255 0 0
-0.0910990 0.1015386 0.0291551 255 0 0
-0.0888113 0.1015385 0.0291551 255 0 0
-0.0865235 0.1015386 0.0291551 255 0 0
-0.0842357 0.1015386 0.0291551 255 0 0
-0.0819479 0.1015387 0.0291551 255 0 0
-0.0796601 0.1015387 0.0291551 255 0 0
-0.0773723 0.1015387 0.0291552 255 0 0
-0.0750845 0.1015388 0.0291552 255 0 0
-0.0727967 0.1015388 0.0291552 255 0 0
-0.0705089 0.1015388 0.0291552 255 0 0
-0.0682212 0.1015388 0.0291552 255 0 0
-0.0659334 0.1015388 0.0291552 255 0 0
-0.0636456 0.1015388 0.0291552 255 0 0
-0.0613578 0.1015388 0.0291552 255 0 0
-0.0590700 0.1015388 0.0291552 255 0 0
-0.0567822 0.1015388 0.0291552 255 0 0
-0.0544945 0.1015388 0.0291552 255 0 0
-0.0522067 0.1015388 0.0291552 255 0 0
