ply
format ascii 1.0
element vertex 1198
property float x
property float y
property float z
property uchar red
property uchar green
property uchar blue
end_header
-0.0018545 0.1290627 -0.0211098 255 0 0
-0.0773752 0.1314041 -0.0210682 255 0 0
-0.0750905 0.1314008 -0.0210861 255 0 0
-0.0728097 0.1314006 -0.0211081 255 0 0
-0.0705173 0.1314051 -0.0210765 255 0 0
-0.0682272 0.1313932 -0.0210445 255 0 0
-0.0659330 0.1313983 -0.0210415 255 0 0
-0.0636451 0.1314082 -0.0210410 255 0 0
-0.0613574 0.1314101 -0.0210463 255 0 0
-0.0590694 0.1314167 -0.0210520 255 0 0
-0.0567818 0.1314245 -0.0210576 255 0 0
-0.0544869 0.1314181 -0.0210605 255 0 0
-0.0521855 0.1313771 -0.0210631 255 0 0
-0.0499013 0.1313803 -0.0210625 255 0 0
-0.0476285 0.1313840 -0.0210593 255 0 0
-0.0453439 0.1313921 -0.0210764 255 0 0
-0.0430561 0.1314211 -0.0210815 255 0 0
-0.0407693 0.1313920 -0.0210728 255 0 0
-0.0384820 0.1313884 -0.0210682 255 0 0
-0.0361936 0.1314068 -0.0210707 255 0 0
-0.0339050 0.1314206 -0.0210733 255 0 0
-0.0316163 0.1314253 -0.0210746 255 0 0
-0.0293248 0.1314229 -0.0210769 255 0 0
-0.0270302 0.1314234 -0.0210790 255 0 0
-0.0247617 0.1313743 -0.0210638 255 0 0
-0.0224860 0.1314131 -0.0210861 255 0 0
-0.0201860 0.1314020 -0.0210763 255 0 0
-0.0178741 0.1313592 -0.0210462 255 0 0
-0.0156158 0.1313379 -0.0210151 255 0 0
-0.0132582 0.1312939 -0.0210214 255 0 0
-0.0110934 0.1312611 -0.0210905 255 0 0
-0.0086599 0.1314805 -0.0210596 255 0 0
-0.0064044 0.1314350 -0.0210845 255 0 0
-0.0705289 0.1336223 -0.0211309 255 0 0
-0.0682254 0.1336560 -0.0210433 255 0 0
-0.0659352 0.1335710 -0.0210324 255 0 0
-0.0636462 0.1335815 -0.0210348 255 0 0
-0.0613577 0.1335791 -0.0210481 255 0 0
-0.0590692 0.1335848 -0.0210623 255 0 0
-0.0567808 0.1335962 -0.0210793 255 0 0
-0.0544928 0.1336057 -0.0210879 255 0 0
-0.0522124 0.1336183 -0.0210979 255 0 0
-0.0499178 0.1336376 -0.0211070 255 0 0
-0.0476263 0.1336628 -0.0211194 255 0 0
-0.0453560 0.1337170 -0.0210730 255 0 0
-0.0430787 0.1337166 -0.0210548 255 0 0
-0.0407754 0.1337167 -0.0210824 255 0 0
-0.0384764 0.1337051 -0.0211003 255 0 0
-0.0361888 0.1337069 -0.0211039 255 0 0
-0.0339015 0.1337086 -0.0211057 255 0 0
-0.0316149 0.1337089 -0.0211061 255 0 0
-0.0293272 0.1337063 -0.0211013 255 0 0
-0.0270382 0.1337064 -0.0211082 255 0 0
-0.0247884 0.1336139 -0.0210465 255 0 0
-0.0225141 0.1336837 -0.0210150 255 0 0
-0.0202388 0.1336670 -0.0210123 255 0 0
-0.0179474 0.1337055 -0.0210395 255 0 0
-0.0155085 0.1337517 -0.0211224 255 0 0
-0.0613745 0.0350959 -0.0190019 255 0 0
-0.0590770 0.0350996 -0.0189880 255 0 0
-0.0567833 0.0351047 -0.0189800 255 0 0
-0.0544945 0.0351043 -0.0189758 255 0 0
-0.0522067 0.0351032 -0.0189730 255 0 0
-0.0499189 0.0351051 -0.0189710 255 0 0
-0.0476311 0.0351062 -0.0189715 255 0 0
-0.0453450 0.0351075 -0.0189752 255 0 0
-0.0430723 0.0351085 -0.0189751 255 0 0
-0.0407690 0.0351092 -0.0189668 255 0 0
-0.0384800 0.0351085 -0.0189671 255 0 0
-0.0361922 0.0351077 -0.0189706 255 0 0
-0.0339044 0.0351069 -0.0189734 255 0 0
-0.0316167 0.0351057 -0.0189760 255 0 0
-0.0293282 0.0351044 -0.0189797 255 0 0
-0.0270340 0.0351033 -0.0189830 255 0 0
-0.0247619 0.0351004 -0.0189898 255 0 0
-0.0224824 0.0351003 -0.0189959 255 0 0
-0.0201789 0.0351008 -0.0189946 255 0 0
-0.0178830 0.0350955 -0.0190012 255 0 0
-0.0636720 0.0373916 -0.0190014 255 0 0
-0.0613745 0.0373979 -0.0189871 255 0 0
-0.0590714 0.0373998 -0.0189767 255 0 0
-0.0567824 0.0373987 -0.0189718 255 0 0
-0.0544945 0.0373982 -0.0189775 255 0 0
-0.0522067 0.0374031 -0.0189786 255 0 0
-0.0499189 0.0374042 -0.0189776 255 0 0
-0.0476311 0.0374068 -0.0189769 255 0 0
-0.0453447 0.0374025 -0.0189775 255 0 0
-0.0430723 0.0373963 -0.0189777 255 0 0
-0.0407688 0.0373969 -0.0189762 255 0 0
-0.0384800 0.0373972 -0.0189751 255 0 0
-0.0361922 0.0373970 -0.0189776 255 0 0
-0.0339044 0.0373968 -0.0189788 255 0 0
-0.0316167 0.0373964 -0.0189786 255 0 0
-0.0293231 0.0373964 -0.0189782 255 0 0
-0.0270342 0.0373955 -0.0189781 255 0 0
-0.0247620 0.0373980 -0.0189787 255 0 0
-0.0224826 0.0373977 -0.0189804 255 0 0
-0.0201841 0.0373970 -0.0189807 255 0 0
-0.0178835 0.0373969 -0.0189860 255 0 0
-0.0155927 0.0373924 -0.0189909 255 0 0
-0.0132913 0.0373884 -0.0190015 255 0 0
-0.0659659 0.0396852 -0.0189932 255 0 0
-0.0636456 0.0396878 -0.0189762 255 0 0
-0.0613596 0.0396987 -0.0189701 255 0 0
-0.0590705 0.0396999 -0.0189710 255 0 0
-0.0567822 0.0396991 -0.0189710 255 0 0
-0.0544945 0.0396982 -0.0189712 255 0 0
-0.0522067 0.0396970 -0.0189754 255 0 0
-0.0499189 0.0396959 -0.0189810 255 0 0
-0.0476312 0.0396952 -0.0189834 255 0 0
-0.0453445 0.0396951 -0.0189843 255 0 0
-0.0430723 0.0396953 -0.0189824 255 0 0
-0.0407687 0.0396960 -0.0189738 255 0 0
-0.0384801 0.0396964 -0.0189729 255 0 0
-0.0361923 0.0396963 -0.0189730 255 0 0
-0.0339045 0.0396962 -0.0189730 255 0 0
-0.0316168 0.0396960 -0.0189731 255 0 0
-0.0293226 0.0396957 -0.0189731 255 0 0
-0.0270342 0.0396956 -0.0189728 255 0 0
-0.0247620 0.0396959 -0.0189786 255 0 0
-0.0224828 0.0396963 -0.0189782 255 0 0
-0.0201865 0.0396967 -0.0189779 255 0 0
-0.0178909 0.0396976 -0.0189784 255 0 0
-0.0155976 0.0396950 -0.0189733 255 0 0
-0.0133031 0.0396849 -0.0189809 255 0 0
-0.0110022 0.0396817 -0.0189963 255 0 0
-0.0705422 0.0419442 -0.0190159 255 0 0
-0.0682538 0.0419649 -0.0189979 255 0 0
-0.0659334 0.0419644 -0.0189971 255 0 0
-0.0636456 0.0419670 -0.0189913 255 0 0
-0.0613578 0.0419731 -0.0189883 255 0 0
-0.0590700 0.0419731 -0.0189884 255 0 0
-0.0567822 0.0419741 -0.0189921 255 0 0
-0.0544945 0.0419743 -0.0189962 255 0 0
-0.0522067 0.0419741 -0.0189978 255 0 0
-0.0499189 0.0419739 -0.0189986 255 0 0
-0.0476311 0.0419734 -0.0189991 255 0 0
-0.0453446 0.0419728 -0.0189989 255 0 0
-0.0430723 0.0419723 -0.0189984 255 0 0
-0.0407686 0.0419726 -0.0189977 255 0 0
-0.0384800 0.0419723 -0.0189973 255 0 0
-0.0361922 0.0419720 -0.0189971 255 0 0
-0.0339044 0.0419719 -0.0189961 255 0 0
-0.0316167 0.0419722 -0.0189955 255 0 0
-0.0293231 0.0419731 -0.0189949 255 0 0
-0.0270344 0.0419731 -0.0189934 255 0 0
-0.0247623 0.0419720 -0.0189944 255 0 0
-0.0224828 0.0419711 -0.0189945 255 0 0
-0.0201869 0.0419700 -0.0189900 255 0 0
-0.0178919 0.0419705 -0.0189878 255 0 0
-0.0156065 0.0419710 -0.0189855 255 0 0
-0.0133143 0.0419646 -0.0189860 255 0 0
-0.0110156 0.0419649 -0.0189879 255 0 0
-0.0087178 0.0419589 -0.0189976 255 0 0
-0.0727967 0.0442293 -0.0190124 255 0 0
-0.0705089 0.0442400 -0.0189949 255 0 0
-0.0682278 0.0442528 -0.0189905 255 0 0
-0.0659334 0.0442507 -0.0189939 255 0 0
-0.0636456 0.0442502 -0.0189969 255 0 0
-0.0613578 0.0442509 -0.0190030 255 0 0
-0.0590701 0.0442513 -0.0190069 255 0 0
-0.0567823 0.0442432 -0.0190102 255 0 0
-0.0544946 0.0442396 -0.0190113 255 0 0
-0.0522068 0.0442381 -0.0190120 255 0 0
-0.0499191 0.0442368 -0.0190124 255 0 0
-0.0476313 0.0442351 -0.0190129 255 0 0
-0.0453447 0.0442352 -0.0190123 255 0 0
-0.0430727 0.0442359 -0.0190116 255 0 0
-0.0407682 0.0442368 -0.0190103 255 0 0
-0.0384801 0.0442374 -0.0190096 255 0 0
-0.0361924 0.0442378 -0.0190092 255 0 0
-0.0339046 0.0442387 -0.0190089 255 0 0
-0.0316168 0.0442402 -0.0190088 255 0 0
-0.0293230 0.0442399 -0.0190084 255 0 0
-0.0270344 0.0442404 -0.0190029 255 0 0
-0.0247625 0.0442472 -0.0190104 255 0 0
-0.0224830 0.0442468 -0.0190116 255 0 0
-0.0201871 0.0442486 -0.0190081 255 0 0
-0.0178921 0.0442505 -0.0189997 255 0 0
-0.0156084 0.0442531 -0.0189908 255 0 0
-0.0133196 0.0442480 -0.0189880 255 0 0
-0.0110272 0.0442492 -0.0189857 255 0 0
-0.0087271 0.0442431 -0.0189883 255 0 0
-0.0064296 0.0442355 -0.0189970 255 0 0
-0.0750845 0.0465131 -0.0190176 255 0 0
-0.0727967 0.0465218 -0.0189958 255 0 0
-0.0705089 0.0465328 -0.0189998 255 0 0
-0.0682277 0.0465409 -0.0190011 255 0 0
-0.0659334 0.0465410 -0.0190052 255 0 0
-0.0636456 0.0465413 -0.0190065 255 0 0
-0.0613578 0.0465419 -0.0190076 255 0 0
-0.0590700 0.0465424 -0.0190084 255 0 0
-0.0567822 0.0465406 -0.0190091 255 0 0
-0.0544945 0.0465343 -0.0190104 255 0 0
-0.0522068 0.0465341 -0.0190117 255 0 0
-0.0499189 0.0465339 -0.0190125 255 0 0
-0.0476311 0.0465335 -0.0190130 255 0 0
-0.0453442 0.0465328 -0.0190125 255 0 0
-0.0430715 0.0465321 -0.0190119 255 0 0
-0.0407679 0.0465319 -0.0190113 255 0 0
-0.0384800 0.0465316 -0.0190106 255 0 0
-0.0361922 0.0465318 -0.0190101 255 0 0
-0.0339044 0.0465315 -0.0190097 255 0 0
-0.0316167 0.0465313 -0.0190094 255 0 0
-0.0293231 0.0465315 -0.0190090 255 0 0
-0.0270344 0.0465324 -0.0190073 255 0 0
-0.0247624 0.0465386 -0.0190105 255 0 0
-0.0224828 0.0465374 -0.0190119 255 0 0
-0.0201870 0.0465390 -0.0190095 255 0 0
-0.0178919 0.0465399 -0.0190073 255 0 0
-0.0156081 0.0465410 -0.0190042 255 0 0
-0.0133202 0.0465423 -0.0189973 255 0 0
-0.0110286 0.0465436 -0.0189921 255 0 0
-0.0087354 0.0465368 -0.0189925 255 0 0
-0.0064398 0.0465387 -0.0189926 255 0 0
-0.0041414 0.0465351 -0.0189933 255 0 0
-0.0773732 0.0488029 -0.0190111 255 0 0
-0.0750845 0.0488117 -0.0189970 255 0 0
-0.0727967 0.0488214 -0.0189837 255 0 0
-0.0705089 0.0488262 -0.0189974 255 0 0
-0.0682272 0.0488255 -0.0190074 255 0 0
-0.0659334 0.0488295 -0.0190072 255 0 0
-0.0636456 0.0488310 -0.0190073 255 0 0
-0.0613578 0.0488320 -0.0190076 255 0 0
-0.0590701 0.0488328 -0.0190080 255 0 0
-0.0567823 0.0488336 -0.0190093 255 0 0
-0.0544945 0.0488298 -0.0190102 255 0 0
-0.0522067 0.0488263 -0.0190110 255 0 0
-0.0499189 0.0488260 -0.0190116 255 0 0
-0.0476311 0.0488260 -0.0190121 255 0 0
-0.0453439 0.0488256 -0.0190117 255 0 0
-0.0430710 0.0488252 -0.0190115 255 0 0
-0.0407678 0.0488252 -0.0190111 255 0 0
-0.0384800 0.0488253 -0.0190106 255 0 0
-0.0361922 0.0488251 -0.0190105 255 0 0
-0.0339044 0.0488254 -0.0190106 255 0 0
-0.0316167 0.0488255 -0.0190108 255 0 0
-0.0293228 0.0488255 -0.0190105 255 0 0
-0.0270342 0.0488256 -0.0190089 255 0 0
-0.0247625 0.0488295 -0.0190115 255 0 0
-0.0224829 0.0488286 -0.0190118 255 0 0
-0.0201870 0.0488297 -0.0190100 255 0 0
-0.0178916 0.0488302 -0.0190084 255 0 0
-0.0156045 0.0488310 -0.0190072 255 0 0
-0.0133201 0.0488321 -0.0190052 255 0 0
-0.0110310 0.0488297 -0.0189993 255 0 0
-0.0087398 0.0488313 -0.0189936 255 0 0
-0.0064471 0.0488258 -0.0189901 255 0 0
-0.0041525 0.0488280 -0.0189876 255 0 0
-0.0018539 0.0488461 -0.0189672 255 0 0
-0.0796821 0.0510933 -0.0190092 255 0 0
-0.0773723 0.0511076 -0.0189962 255 0 0
-0.0750845 0.0511073 -0.0189938 255 0 0
-0.0727967 0.0511146 -0.0189905 255 0 0
-0.0705089 0.0511131 -0.0190002 255 0 0
-0.0682212 0.0511147 -0.0190072 255 0 0
-0.0659334 0.0511162 -0.0190064 255 0 0
-0.0636456 0.0511177 -0.0190040 255 0 0
-0.0613578 0.0511189 -0.0190038 255 0 0
-0.0590701 0.0511202 -0.0190040 255 0 0
-0.0567823 0.0511213 -0.0190046 255 0 0
-0.0544945 0.0511219 -0.0190054 255 0 0
-0.0522067 0.0511221 -0.0190065 255 0 0
-0.0499189 0.0511220 -0.0190078 255 0 0
-0.0476311 0.0511219 -0.0190087 255 0 0
-0.0453440 0.0511217 -0.0190089 255 0 0
-0.0430719 0.0511214 -0.0190089 255 0 0
-0.0407678 0.0511213 -0.0190072 255 0 0
-0.0384800 0.0511210 -0.0190060 255 0 0
-0.0361922 0.0511205 -0.0190059 255 0 0
-0.0339044 0.0511202 -0.0190061 255 0 0
-0.0316167 0.0511198 -0.0190063 255 0 0
-0.0293227 0.0511189 -0.0190066 255 0 0
-0.0270342 0.0511189 -0.0190044 255 0 0
-0.0247625 0.0511166 -0.0190110 255 0 0
-0.0224831 0.0511159 -0.0190120 255 0 0
-0.0201870 0.0511164 -0.0190102 255 0 0
-0.0178914 0.0511171 -0.0190061 255 0 0
-0.0156038 0.0511174 -0.0190039 255 0 0
-0.0133194 0.0511176 -0.0190016 255 0 0
-0.0110316 0.0511188 -0.0189995 255 0 0
-0.0087408 0.0511173 -0.0189938 255 0 0
-0.0064495 0.0511168 -0.0189931 255 0 0
-0.0041590 0.0511097 -0.0189894 255 0 0
-0.0018657 0.0511159 -0.0189639 255 0 0
-0.0819836 0.0533901 -0.0190094 255 0 0
-0.0796601 0.0533957 -0.0189957 255 0 0
-0.0773723 0.0533975 -0.0189933 255 0 0
-0.0750845 0.0534009 -0.0189908 255 0 0
-0.0727967 0.0534031 -0.0189921 255 0 0
-0.0705089 0.0534027 -0.0190028 255 0 0
-0.0682212 0.0534028 -0.0190064 255 0 0
-0.0659334 0.0534036 -0.0190025 255 0 0
-0.0636456 0.0534048 -0.0190014 255 0 0
-0.0613578 0.0534064 -0.0190019 255 0 0
-0.0590700 0.0534080 -0.0190023 255 0 0
-0.0567822 0.0534094 -0.0190027 255 0 0
-0.0544945 0.0534103 -0.0190031 255 0 0
-0.0522067 0.0534109 -0.0190038 255 0 0
-0.0499189 0.0534113 -0.0190053 255 0 0
-0.0476311 0.0534115 -0.0190063 255 0 0
-0.0453440 0.0534108 -0.0190071 255 0 0
-0.0430718 0.0534102 -0.0190070 255 0 0
-0.0407678 0.0534099 -0.0190050 255 0 0
-0.0384800 0.0534095 -0.0190044 255 0 0
-0.0361922 0.0534090 -0.0190044 255 0 0
-0.0339044 0.0534084 -0.0190044 255 0 0
-0.0316167 0.0534077 -0.0190046 255 0 0
-0.0293224 0.0534069 -0.0190048 255 0 0
-0.0270339 0.0534069 -0.0190030 255 0 0
-0.0247627 0.0534045 -0.0190105 255 0 0
-0.0224833 0.0534033 -0.0190118 255 0 0
-0.0201871 0.0534035 -0.0190092 255 0 0
-0.0178914 0.0534042 -0.0190048 255 0 0
-0.0156036 0.0534041 -0.0190031 255 0 0
-0.0133160 0.0534042 -0.0190017 255 0 0
-0.0110312 0.0534039 -0.0189999 255 0 0
-0.0087407 0.0534041 -0.0189972 255 0 0
-0.0064513 0.0534039 -0.0189928 255 0 0
-0.0041631 0.0534000 -0.0189921 255 0 0
-0.0018694 0.0533901 -0.0189696 255 0 0
0.0004206 0.0533989 -0.0190543 255 0 0
-0.0842721 0.0556785 -0.0190115 255 0 0
-0.0819484 0.0556839 -0.0189970 255 0 0
-0.0796601 0.0556889 -0.0189945 255 0 0
-0.0773723 0.0556919 -0.0189907 255 0 0
-0.0750845 0.0556904 -0.0189922 255 0 0
-0.0727967 0.0556898 -0.0189994 255 0 0
-0.0705089 0.0556896 -0.0190047 255 0 0
-0.0682212 0.0556893 -0.0190071 255 0 0
-0.0659334 0.0556908 -0.0190054 255 0 0
-0.0636456 0.0556921 -0.0190027 255 0 0
-0.0613578 0.0556936 -0.0190024 255 0 0
-0.0590700 0.0556951 -0.0190025 255 0 0
-0.0567822 0.0556965 -0.0190027 255 0 0
-0.0544945 0.0556975 -0.0190034 255 0 0
-0.0522067 0.0556981 -0.0190044 255 0 0
-0.0499189 0.0556985 -0.0190062 255 0 0
-0.0476311 0.0556985 -0.0190081 255 0 0
-0.0453439 0.0556979 -0.0190082 255 0 0
-0.0430720 0.0556973 -0.0190084 255 0 0
-0.0407678 0.0556968 -0.0190059 255 0 0
-0.0384800 0.0556963 -0.0190050 255 0 0
-0.0361922 0.0556958 -0.0190048 255 0 0
-0.0339044 0.0556952 -0.0190050 255 0 0
-0.0316167 0.0556946 -0.0190052 255 0 0
-0.0293224 0.0556939 -0.0190048 255 0 0
-0.0270340 0.0556934 -0.0190023 255 0 0
-0.0247628 0.0556911 -0.0190095 255 0 0
-0.0224835 0.0556895 -0.0190108 255 0 0
-0.0201872 0.0556898 -0.0190089 255 0 0
-0.0178913 0.0556900 -0.0190040 255 0 0
-0.0156034 0.0556901 -0.0190034 255 0 0
-0.0133158 0.0556902 -0.0190026 255 0 0
-0.0110274 0.0556899 -0.0190008 255 0 0
-0.0087397 0.0556896 -0.0189985 255 0 0
-0.0064518 0.0556896 -0.0189967 255 0 0
-0.0041626 0.0556891 -0.0189916 255 0 0
-0.0018671 0.0556713 -0.0189869 255 0 0
0.0004116 0.0556940 -0.0190186 255 0 0
0.0027075 0.0557062 -0.0190414 255 0 0
-0.0842632 0.0579747 -0.0189965 255 0 0
-0.0819478 0.0579790 -0.0189931 255 0 0
-0.0796601 0.0579809 -0.0189894 255 0 0
-0.0773723 0.0579785 -0.0189902 255 0 0
-0.0750845 0.0579775 -0.0189987 255 0 0
-0.0727967 0.0579769 -0.0190010 255 0 0
-0.0705089 0.0579767 -0.0190044 255 0 0
-0.0682212 0.0579776 -0.0190077 255 0 0
-0.0659334 0.0579787 -0.0190067 255 0 0
-0.0636456 0.0579802 -0.0190055 255 0 0
-0.0613578 0.0579819 -0.0190045 255 0 0
-0.0590700 0.0579834 -0.0190045 255 0 0
-0.0567822 0.0579849 -0.0190049 255 0 0
-0.0544945 0.0579859 -0.0190060 255 0 0
-0.0522067 0.0579865 -0.0190076 255 0 0
-0.0499189 0.0579866 -0.0190082 255 0 0
-0.0476311 0.0579867 -0.0190085 255 0 0
-0.0453440 0.0579863 -0.0190086 255 0 0
-0.0430718 0.0579855 -0.0190085 255 0 0
-0.0407678 0.0579851 -0.0190079 255 0 0
-0.0384800 0.0579844 -0.0190054 255 0 0
-0.0361922 0.0579838 -0.0190054 255 0 0
-0.0339044 0.0579831 -0.0190060 255 0 0
-0.0316167 0.0579824 -0.0190072 255 0 0
-0.0293221 0.0579814 -0.0190068 255 0 0
-0.0270337 0.0579810 -0.0190012 255 0 0
-0.0247630 0.0579792 -0.0190088 255 0 0
-0.0224838 0.0579780 -0.0190102 255 0 0
-0.0201874 0.0579779 -0.0190083 255 0 0
-0.0178912 0.0579777 -0.0190054 255 0 0
-0.0156034 0.0579773 -0.0190051 255 0 0
-0.0133157 0.0579771 -0.0190036 255 0 0
-0.0110268 0.0579773 -0.0190013 255 0 0
-0.0087366 0.0579770 -0.0190000 255 0 0
-0.0064501 0.0579763 -0.0189980 255 0 0
-0.0041628 0.0579767 -0.0189940 255 0 0
-0.0018669 0.0579694 -0.0189921 255 0 0
0.0004058 0.0579880 -0.0190009 255 0 0
0.0026976 0.0579971 -0.0190099 255 0 0
-0.0865607 0.0602642 -0.0189989 255 0 0
-0.0842356 0.0602704 -0.0189860 255 0 0
-0.0819478 0.0602705 -0.0189851 255 0 0
-0.0796601 0.0602686 -0.0189851 255 0 0
-0.0773723 0.0602671 -0.0189922 255 0 0
-0.0750845 0.0602653 -0.0189971 255 0 0
-0.0727967 0.0602649 -0.0189991 255 0 0
-0.0705089 0.0602652 -0.0190018 255 0 0
-0.0682212 0.0602587 -0.0190052 255 0 0
-0.0659334 0.0602618 -0.0190041 255 0 0
-0.0636456 0.0602681 -0.0190022 255 0 0
-0.0613579 0.0602696 -0.0190012 255 0 0
-0.0590701 0.0602714 -0.0190012 255 0 0
-0.0567822 0.0602728 -0.0190017 255 0 0
-0.0544945 0.0602742 -0.0190027 255 0 0
-0.0522067 0.0602749 -0.0190039 255 0 0
-0.0499189 0.0602752 -0.0190045 255 0 0
-0.0476311 0.0602753 -0.0190048 255 0 0
-0.0453441 0.0602745 -0.0190048 255 0 0
-0.0430740 0.0602739 -0.0190046 255 0 0
-0.0407678 0.0602734 -0.0190036 255 0 0
-0.0384800 0.0602729 -0.0190011 255 0 0
-0.0361922 0.0602722 -0.0190009 255 0 0
-0.0339044 0.0602715 -0.0190012 255 0 0
-0.0316167 0.0602708 -0.0190026 255 0 0
-0.0293219 0.0602700 -0.0190010 255 0 0
-0.0270336 0.0602695 -0.0189964 255 0 0
-0.0247630 0.0602678 -0.0190044 255 0 0
-0.0224839 0.0602666 -0.0190059 255 0 0
-0.0201875 0.0602665 -0.0190041 255 0 0
-0.0178912 0.0602665 -0.0190011 255 0 0
-0.0156033 0.0602660 -0.0190013 255 0 0
-0.0133155 0.0602656 -0.0190004 255 0 0
-0.0110257 0.0602652 -0.0189979 255 0 0
-0.0087362 0.0602657 -0.0189964 255 0 0
-0.0064497 0.0602655 -0.0189940 255 0 0
-0.0041621 0.0602666 -0.0189902 255 0 0
-0.0018679 0.0602643 -0.0189933 255 0 0
0.0004023 0.0602821 -0.0189913 255 0 0
0.0026910 0.0602836 -0.0189970 255 0 0
0.0050171 0.0602685 -0.0190260 255 0 0
-0.0888494 0.0625556 -0.0190000 255 0 0
-0.0865541 0.0625534 -0.0189805 255 0 0
-0.0842356 0.0625525 -0.0189723 255 0 0
-0.0819478 0.0625544 -0.0189741 255 0 0
-0.0796601 0.0625604 -0.0189754 255 0 0
-0.0773723 0.0625611 -0.0189823 255 0 0
-0.0750845 0.0625605 -0.0189853 255 0 0
-0.0727967 0.0625603 -0.0189877 255 0 0
-0.0705089 0.0625603 -0.0189906 255 0 0
-0.0682212 0.0625609 -0.0189924 255 0 0
-0.0659334 0.0625627 -0.0189901 255 0 0
-0.0636456 0.0625642 -0.0189893 255 0 0
-0.0613579 0.0625661 -0.0189893 255 0 0
-0.0590702 0.0625678 -0.0189895 255 0 0
-0.0567824 0.0625688 -0.0189896 255 0 0
-0.0544946 0.0625696 -0.0189897 255 0 0
-0.0522068 0.0625702 -0.0189900 255 0 0
-0.0499190 0.0625707 -0.0189903 255 0 0
-0.0476312 0.0625709 -0.0189905 255 0 0
-0.0453444 0.0625705 -0.0189906 255 0 0
-0.0430744 0.0625716 -0.0189904 255 0 0
-0.0407678 0.0625707 -0.0189896 255 0 0
-0.0384800 0.0625704 -0.0189892 255 0 0
-0.0361922 0.0625700 -0.0189890 255 0 0
-0.0339044 0.0625692 -0.0189890 255 0 0
-0.0316167 0.0625687 -0.0189888 255 0 0
-0.0293214 0.0625678 -0.0189878 255 0 0
-0.0270332 0.0625697 -0.0189858 255 0 0
-0.0247632 0.0625648 -0.0189944 255 0 0
-0.0224862 0.0625615 -0.0189972 255 0 0
-0.0201876 0.0625629 -0.0189916 255 0 0
-0.0178910 0.0625630 -0.0189881 255 0 0
-0.0156032 0.0625625 -0.0189884 255 0 0
-0.0133154 0.0625622 -0.0189883 255 0 0
-0.0110242 0.0625615 -0.0189877 255 0 0
-0.0087359 0.0625617 -0.0189868 255 0 0
-0.0064490 0.0625636 -0.0189857 255 0 0
-0.0041618 0.0625688 -0.0189834 255 0 0
-0.0018691 0.0625682 -0.0189839 255 0 0
0.0004001 0.0625628 -0.0189785 255 0 0
0.0026869 0.0625635 -0.0189841 255 0 0
0.0050058 0.0625557 -0.0190074 255 0 0
-0.0888494 0.0648470 -0.0189813 255 0 0
-0.0865317 0.0648435 -0.0189656 255 0 0
-0.0842356 0.0648437 -0.0189588 255 0 0
-0.0819478 0.0648441 -0.0189646 255 0 0
-0.0796601 0.0648417 -0.0189700 255 0 0
-0.0773723 0.0648393 -0.0189734 255 0 0
-0.0750845 0.0648352 -0.0189771 255 0 0
-0.0727967 0.0648341 -0.0189783 255 0 0
-0.0705089 0.0648345 -0.0189799 255 0 0
-0.0682212 0.0648351 -0.0189807 255 0 0
-0.0659334 0.0648360 -0.0189799 255 0 0
-0.0636456 0.0648370 -0.0189797 255 0 0
-0.0613580 0.0648387 -0.0189797 255 0 0
-0.0590702 0.0648402 -0.0189799 255 0 0
-0.0567824 0.0648419 -0.0189799 255 0 0
-0.0544946 0.0648434 -0.0189799 255 0 0
-0.0522069 0.0648447 -0.0189799 255 0 0
-0.0499191 0.0648452 -0.0189800 255 0 0
-0.0476313 0.0648457 -0.0189800 255 0 0
-0.0453446 0.0648470 -0.0189798 255 0 0
-0.0430746 0.0648563 -0.0189794 255 0 0
-0.0407679 0.0648560 -0.0189791 255 0 0
-0.0384800 0.0648556 -0.0189788 255 0 0
-0.0361922 0.0648549 -0.0189787 255 0 0
-0.0339046 0.0648541 -0.0189785 255 0 0
-0.0316168 0.0648537 -0.0189783 255 0 0
-0.0293211 0.0648535 -0.0189775 255 0 0
-0.0270331 0.0648548 -0.0189731 255 0 0
-0.0247634 0.0648499 -0.0189801 255 0 0
-0.0224870 0.0648476 -0.0189829 255 0 0
-0.0201877 0.0648488 -0.0189797 255 0 0
-0.0178911 0.0648487 -0.0189785 255 0 0
-0.0156031 0.0648489 -0.0189787 255 0 0
-0.0133153 0.0648484 -0.0189787 255 0 0
-0.0110237 0.0648481 -0.0189784 255 0 0
-0.0087355 0.0648478 -0.0189780 255 0 0
-0.0064474 0.0648474 -0.0189772 255 0 0
-0.0041614 0.0648479 -0.0189750 255 0 0
-0.0018699 0.0648481 -0.0189731 255 0 0
0.0003989 0.0648521 -0.0189695 255 0 0
0.0026840 0.0648476 -0.0189698 255 0 0
0.0049974 0.0648453 -0.0189874 255 0 0
0.0073113 0.0648437 -0.0190042 255 0 0
-0.0911387 0.0671344 -0.0189947 255 0 0
-0.0888498 0.0671354 -0.0189656 255 0 0
-0.0865234 0.0671346 -0.0189626 255 0 0
-0.0842356 0.0671310 -0.0189648 255 0 0
-0.0819478 0.0671289 -0.0189665 255 0 0
-0.0796601 0.0671268 -0.0189693 255 0 0
-0.0773723 0.0671258 -0.0189725 255 0 0
-0.0750845 0.0671249 -0.0189781 255 0 0
-0.0727967 0.0671239 -0.0189797 255 0 0
-0.0705089 0.0671239 -0.0189818 255 0 0
-0.0682341 0.0671244 -0.0189822 255 0 0
-0.0659334 0.0671253 -0.0189823 255 0 0
-0.0636456 0.0671268 -0.0189818 255 0 0
-0.0613580 0.0671282 -0.0189814 255 0 0
-0.0590702 0.0671299 -0.0189815 255 0 0
-0.0567824 0.0671316 -0.0189812 255 0 0
-0.0544946 0.0671325 -0.0189812 255 0 0
-0.0522068 0.0671332 -0.0189813 255 0 0
-0.0499189 0.0671336 -0.0189818 255 0 0
-0.0476311 0.0671338 -0.0189821 255 0 0
-0.0453447 0.0671332 -0.0189818 255 0 0
-0.0430749 0.0671326 -0.0189818 255 0 0
-0.0407678 0.0671325 -0.0189818 255 0 0
-0.0384800 0.0671321 -0.0189818 255 0 0
-0.0361922 0.0671317 -0.0189818 255 0 0
-0.0339044 0.0671313 -0.0189819 255 0 0
-0.0316132 0.0671310 -0.0189818 255 0 0
-0.0293208 0.0671306 -0.0189813 255 0 0
-0.0270303 0.0671305 -0.0189746 255 0 0
-0.0247636 0.0671283 -0.0189843 255 0 0
-0.0224924 0.0671270 -0.0189908 255 0 0
-0.0201878 0.0671276 -0.0189840 255 0 0
-0.0178907 0.0671277 -0.0189827 255 0 0
-0.0156030 0.0671274 -0.0189831 255 0 0
-0.0133145 0.0671272 -0.0189833 255 0 0
-0.0110233 0.0671269 -0.0189833 255 0 0
-0.0087353 0.0671266 -0.0189831 255 0 0
-0.0064463 0.0671261 -0.0189827 255 0 0
-0.0041603 0.0671259 -0.0189817 255 0 0
-0.0018706 0.0671251 -0.0189806 255 0 0
0.0003975 0.0671276 -0.0189736 255 0 0
0.0026806 0.0671283 -0.0189739 255 0 0
0.0049867 0.0671285 -0.0189791 255 0 0
0.0072970 0.0671278 -0.0189885 255 0 0
-0.0911388 0.0694249 -0.0189768 255 0 0
-0.0888419 0.0694286 -0.0189563 255 0 0
-0.0865234 0.0694286 -0.0189621 255 0 0
-0.0842356 0.0694273 -0.0189656 255 0 0
-0.0819478 0.0694230 -0.0189673 255 0 0
-0.0796601 0.0694215 -0.0189695 255 0 0
-0.0773723 0.0694212 -0.0189709 255 0 0
-0.0750845 0.0694209 -0.0189728 255 0 0
-0.0727967 0.0694190 -0.0189744 255 0 0
-0.0705089 0.0694184 -0.0189762 255 0 0
-0.0682442 0.0694190 -0.0189771 255 0 0
-0.0659334 0.0694206 -0.0189776 255 0 0
-0.0636456 0.0694223 -0.0189774 255 0 0
-0.0613580 0.0694242 -0.0189773 255 0 0
-0.0590702 0.0694259 -0.0189768 255 0 0
-0.0567824 0.0694276 -0.0189763 255 0 0
-0.0544947 0.0694289 -0.0189765 255 0 0
-0.0522069 0.0694300 -0.0189761 255 0 0
-0.0499191 0.0694300 -0.0189766 255 0 0
-0.0476313 0.0694301 -0.0189783 255 0 0
-0.0453470 0.0694277 -0.0189792 255 0 0
-0.0430753 0.0694271 -0.0189793 255 0 0
-0.0407680 0.0694267 -0.0189793 255 0 0
-0.0384800 0.0694265 -0.0189793 255 0 0
-0.0361922 0.0694261 -0.0189796 255 0 0
-0.0339044 0.0694256 -0.0189799 255 0 0
-0.0316107 0.0694249 -0.0189801 255 0 0
-0.0293205 0.0694245 -0.0189789 255 0 0
-0.0270290 0.0694245 -0.0189744 255 0 0
-0.0247670 0.0694223 -0.0189847 255 0 0
-0.0224955 0.0694210 -0.0189902 255 0 0
-0.0201880 0.0694215 -0.0189842 255 0 0
-0.0178908 0.0694216 -0.0189805 255 0 0
-0.0156029 0.0694212 -0.0189814 255 0 0
-0.0133139 0.0694210 -0.0189817 255 0 0
-0.0110230 0.0694206 -0.0189815 255 0 0
-0.0087350 0.0694203 -0.0189816 255 0 0
-0.0064454 0.0694206 -0.0189816 255 0 0
-0.0041589 0.0694202 -0.0189812 255 0 0
-0.0018706 0.0694197 -0.0189808 255 0 0
0.0003970 0.0694179 -0.0189747 255 0 0
0.0026782 0.0694178 -0.0189755 255 0 0
0.0049800 0.0694174 -0.0189717 255 0 0
0.0072869 0.0694157 -0.0189804 255 0 0
0.0095976 0.0694160 -0.0190040 255 0 0
-0.0911390 0.0717149 -0.0189672 255 0 0
-0.0888334 0.0717214 -0.0189545 255 0 0
-0.0865234 0.0717218 -0.0189596 255 0 0
-0.0842356 0.0717222 -0.0189628 255 0 0
-0.0819478 0.0717216 -0.0189635 255 0 0
-0.0796601 0.0717215 -0.0189635 255 0 0
-0.0773723 0.0717209 -0.0189632 255 0 0
-0.0750845 0.0717199 -0.0189641 255 0 0
-0.0727967 0.0717200 -0.0189644 255 0 0
-0.0705089 0.0717191 -0.0189649 255 0 0
-0.0682603 0.0717200 -0.0189666 255 0 0
-0.0659334 0.0717211 -0.0189664 255 0 0
-0.0636456 0.0717228 -0.0189676 255 0 0
-0.0613579 0.0717250 -0.0189689 255 0 0
-0.0590701 0.0717267 -0.0189686 255 0 0
-0.0567823 0.0717282 -0.0189682 255 0 0
-0.0544945 0.0717296 -0.0189678 255 0 0
-0.0522067 0.0717305 -0.0189679 255 0 0
-0.0499189 0.0717310 -0.0189681 255 0 0
-0.0476311 0.0717311 -0.0189679 255 0 0
-0.0453490 0.0717269 -0.0189664 255 0 0
-0.0430757 0.0717247 -0.0189656 255 0 0
-0.0407680 0.0717241 -0.0189653 255 0 0
-0.0384800 0.0717231 -0.0189654 255 0 0
-0.0361922 0.0717218 -0.0189659 255 0 0
-0.0339044 0.0717209 -0.0189665 255 0 0
-0.0316107 0.0717203 -0.0189671 255 0 0
-0.0293204 0.0717196 -0.0189659 255 0 0
-0.0270258 0.0717194 -0.0189614 255 0 0
-0.0247667 0.0717168 -0.0189710 255 0 0
-0.0224930 0.0717155 -0.0189750 255 0 0
-0.0201880 0.0717155 -0.0189715 255 0 0
-0.0178907 0.0717154 -0.0189687 255 0 0
-0.0156029 0.0717147 -0.0189691 255 0 0
-0.0133138 0.0717145 -0.0189693 255 0 0
-0.0110229 0.0717141 -0.0189694 255 0 0
-0.0087348 0.0717137 -0.0189696 255 0 0
-0.0064441 0.0717131 -0.0189696 255 0 0
-0.0041581 0.0717124 -0.0189689 255 0 0
-0.0018695 0.0717135 -0.0189690 255 0 0
0.0003982 0.0717116 -0.0189679 255 0 0
0.0026784 0.0717103 -0.0189680 255 0 0
0.0049781 0.0717113 -0.0189622 255 0 0
0.0072814 0.0717087 -0.0189690 255 0 0
0.0095881 0.0717068 -0.0189823 255 0 0
-0.0934287 0.0740005 -0.0189691 255 0 0
-0.0911395 0.0740114 -0.0189613 255 0 0
-0.0888292 0.0740171 -0.0189563 255 0 0
-0.0865234 0.0740179 -0.0189590 255 0 0
-0.0842356 0.0740191 -0.0189591 255 0 0
-0.0819478 0.0740191 -0.0189577 255 0 0
-0.0796601 0.0740195 -0.0189569 255 0 0
-0.0773723 0.0740186 -0.0189561 255 0 0
-0.0750845 0.0740183 -0.0189559 255 0 0
-0.0727967 0.0740181 -0.0189566 255 0 0
-0.0705089 0.0740181 -0.0189566 255 0 0
-0.0682606 0.0740198 -0.0189575 255 0 0
-0.0659334 0.0740212 -0.0189591 255 0 0
-0.0636456 0.0740226 -0.0189605 255 0 0
-0.0613578 0.0740252 -0.0189617 255 0 0
-0.0590700 0.0740272 -0.0189622 255 0 0
-0.0567822 0.0740287 -0.0189620 255 0 0
-0.0544945 0.0740303 -0.0189631 255 0 0
-0.0522067 0.0740322 -0.0189638 255 0 0
-0.0499189 0.0740335 -0.0189632 255 0 0
-0.0476311 0.0740419 -0.0189628 255 0 0
-0.0453492 0.0740374 -0.0189606 255 0 0
-0.0430758 0.0740353 -0.0189584 255 0 0
-0.0407681 0.0740341 -0.0189581 255 0 0
-0.0384800 0.0740330 -0.0189580 255 0 0
-0.0361922 0.0740322 -0.0189582 255 0 0
-0.0339044 0.0740316 -0.0189586 255 0 0
-0.0316107 0.0740308 -0.0189589 255 0 0
-0.0293203 0.0740302 -0.0189590 255 0 0
-0.0270255 0.0740302 -0.0189576 255 0 0
-0.0247667 0.0740255 -0.0189628 255 0 0
-0.0224932 0.0740221 -0.0189687 255 0 0
-0.0201881 0.0740238 -0.0189629 255 0 0
-0.0178908 0.0740250 -0.0189618 255 0 0
-0.0156029 0.0740243 -0.0189624 255 0 0
-0.0133135 0.0740237 -0.0189625 255 0 0
-0.0110228 0.0740231 -0.0189627 255 0 0
-0.0087347 0.0740224 -0.0189631 255 0 0
-0.0064435 0.0740216 -0.0189636 255 0 0
-0.0041572 0.0740213 -0.0189642 255 0 0
-0.0018686 0.0740197 -0.0189646 255 0 0
0.0003992 0.0740183 -0.0189641 255 0 0
0.0026789 0.0740154 -0.0189657 255 0 0
0.0049779 0.0740055 -0.0189598 255 0 0
0.0072784 0.0740012 -0.0189625 255 0 0
0.0095793 0.0739983 -0.0189687 255 0 0
0.0118881 0.0739952 -0.0189853 255 0 0
-0.0934282 0.0762953 -0.0189612 255 0 0
-0.0911396 0.0763039 -0.0189609 255 0 0
-0.0888282 0.0763191 -0.0189598 255 0 0
-0.0865234 0.0763225 -0.0189546 255 0 0
-0.0842356 0.0763237 -0.0189517 255 0 0
-0.0819478 0.0763228 -0.0189512 255 0 0
-0.0796601 0.0763219 -0.0189503 255 0 0
-0.0773723 0.0763219 -0.0189510 255 0 0
-0.0750845 0.0763218 -0.0189522 255 0 0
-0.0727967 0.0763218 -0.0189532 255 0 0
-0.0705089 0.0763225 -0.0189539 255 0 0
-0.0682613 0.0763233 -0.0189550 255 0 0
-0.0659334 0.0763254 -0.0189559 255 0 0
-0.0636456 0.0763273 -0.0189566 255 0 0
-0.0613578 0.0763293 -0.0189578 255 0 0
-0.0590700 0.0763310 -0.0189585 255 0 0
-0.0567822 0.0763324 -0.0189588 255 0 0
-0.0544945 0.0763327 -0.0189590 255 0 0
-0.0522067 0.0763329 -0.0189601 255 0 0
-0.0499189 0.0763336 -0.0189617 255 0 0
-0.0476311 0.0763338 -0.0189617 255 0 0
-0.0453495 0.0763322 -0.0189595 255 0 0
-0.0430761 0.0763377 -0.0189582 255 0 0
-0.0407680 0.0763367 -0.0189576 255 0 0
-0.0384800 0.0763360 -0.0189573 255 0 0
-0.0361922 0.0763355 -0.0189576 255 0 0
-0.0339044 0.0763348 -0.0189579 255 0 0
-0.0316100 0.0763340 -0.0189583 255 0 0
-0.0293202 0.0763333 -0.0189582 255 0 0
-0.0270254 0.0763328 -0.0189568 255 0 0
-0.0247667 0.0763229 -0.0189621 255 0 0
-0.0224938 0.0763178 -0.0189675 255 0 0
-0.0201883 0.0763200 -0.0189621 255 0 0
-0.0178908 0.0763218 -0.0189611 255 0 0
-0.0156029 0.0763217 -0.0189616 255 0 0
-0.0133119 0.0763227 -0.0189621 255 0 0
-0.0110226 0.0763253 -0.0189626 255 0 0
-0.0087334 0.0763252 -0.0189632 255 0 0
-0.0064425 0.0763242 -0.0189641 255 0 0
-0.0041566 0.0763227 -0.0189647 255 0 0
-0.0018679 0.0763161 -0.0189651 255 0 0
0.0004001 0.0763151 -0.0189653 255 0 0
0.0026791 0.0763120 -0.0189652 255 0 0
0.0049777 0.0763095 -0.0189613 255 0 0
0.0072760 0.0763049 -0.0189615 255 0 0
0.0095732 0.0762923 -0.0189633 255 0 0
0.0118788 0.0762876 -0.0189753 255 0 0
0.0141911 0.0762845 -0.0190007 255 0 0
-0.0957168 0.0785854 -0.0189999 255 0 0
-0.0934281 0.0785897 -0.0189639 255 0 0
-0.0911398 0.0786064 -0.0189640 255 0 0
-0.0888283 0.0786279 -0.0189612 255 0 0
-0.0865234 0.0786260 -0.0189547 255 0 0
-0.0842356 0.0786249 -0.0189518 255 0 0
-0.0819478 0.0786247 -0.0189514 255 0 0
-0.0796601 0.0786246 -0.0189508 255 0 0
-0.0773723 0.0786245 -0.0189503 255 0 0
-0.0750845 0.0786248 -0.0189504 255 0 0
-0.0727967 0.0786252 -0.0189507 255 0 0
-0.0705089 0.0786263 -0.0189531 255 0 0
-0.0682619 0.0786282 -0.0189543 255 0 0
-0.0659334 0.0786293 -0.0189543 255 0 0
-0.0636456 0.0786309 -0.0189545 255 0 0
-0.0613578 0.0786327 -0.0189559 255 0 0
-0.0590700 0.0786340 -0.0189565 255 0 0
-0.0567822 0.0786344 -0.0189568 255 0 0
-0.0544945 0.0786348 -0.0189576 255 0 0
-0.0522025 0.0786354 -0.0189587 255 0 0
-0.0499189 0.0786349 -0.0189592 255 0 0
-0.0476311 0.0786346 -0.0189605 255 0 0
-0.0453500 0.0786317 -0.0189586 255 0 0
-0.0430765 0.0786298 -0.0189573 255 0 0
-0.0407684 0.0786288 -0.0189571 255 0 0
-0.0384800 0.0786277 -0.0189570 255 0 0
-0.0361922 0.0786270 -0.0189571 255 0 0
-0.0339044 0.0786262 -0.0189573 255 0 0
-0.0316095 0.0786254 -0.0189577 255 0 0
-0.0293201 0.0786244 -0.0189580 255 0 0
-0.0270252 0.0786240 -0.0189556 255 0 0
-0.0247668 0.0786214 -0.0189612 255 0 0
-0.0224942 0.0786194 -0.0189649 255 0 0
-0.0201884 0.0786197 -0.0189619 255 0 0
-0.0178907 0.0786195 -0.0189611 255 0 0
-0.0156028 0.0786188 -0.0189616 255 0 0
-0.0133115 0.0786181 -0.0189623 255 0 0
-0.0110225 0.0786174 -0.0189630 255 0 0
-0.0087331 0.0786166 -0.0189638 255 0 0
-0.0064422 0.0786157 -0.0189646 255 0 0
-0.0041551 0.0786147 -0.0189653 255 0 0
-0.0018673 0.0786141 -0.0189656 255 0 0
0.0004008 0.0786120 -0.0189659 255 0 0
0.0026794 0.0786107 -0.0189658 255 0 0
0.0049772 0.0786098 -0.0189638 255 0 0
0.0072749 0.0786103 -0.0189598 255 0 0
0.0095679 0.0785969 -0.0189603 255 0 0
0.0118701 0.0785836 -0.0189682 255 0 0
0.0141811 0.0785764 -0.0189887 255 0 0
-0.0957168 0.0808772 -0.0189901 255 0 0
-0.0934064 0.0808908 -0.0189687 255 0 0
-0.0911303 0.0809172 -0.0189660 255 0 0
-0.0888289 0.0809191 -0.0189635 255 0 0
-0.0865234 0.0809181 -0.0189572 255 0 0
-0.0842356 0.0809184 -0.0189544 255 0 0
-0.0819478 0.0809180 -0.0189530 255 0 0
-0.0796601 0.0809178 -0.0189524 255 0 0
-0.0773723 0.0809179 -0.0189515 255 0 0
-0.0750845 0.0809182 -0.0189505 255 0 0
-0.0727967 0.0809182 -0.0189510 255 0 0
-0.0705089 0.0809189 -0.0189511 255 0 0
-0.0682621 0.0809196 -0.0189536 255 0 0
-0.0659334 0.0809212 -0.0189539 255 0 0
-0.0636456 0.0809228 -0.0189556 255 0 0
-0.0613579 0.0809243 -0.0189570 255 0 0
-0.0590701 0.0809258 -0.0189578 255 0 0
-0.0567823 0.0809270 -0.0189572 255 0 0
-0.0544945 0.0809281 -0.0189569 255 0 0
-0.0522024 0.0809284 -0.0189564 255 0 0
-0.0499189 0.0809276 -0.0189562 255 0 0
-0.0476311 0.0809263 -0.0189563 255 0 0
-0.0453499 0.0809214 -0.0189567 255 0 0
-0.0430766 0.0809182 -0.0189557 255 0 0
-0.0407682 0.0809176 -0.0189558 255 0 0
-0.0384800 0.0809171 -0.0189559 255 0 0
-0.0361922 0.0809162 -0.0189563 255 0 0
-0.0339044 0.0809157 -0.0189567 255 0 0
-0.0316092 0.0809149 -0.0189570 255 0 0
-0.0293200 0.0809141 -0.0189568 255 0 0
-0.0270257 0.0809129 -0.0189523 255 0 0
-0.0247652 0.0809101 -0.0189608 255 0 0
-0.0224948 0.0809075 -0.0189636 255 0 0
-0.0201885 0.0809077 -0.0189615 255 0 0
-0.0178907 0.0809074 -0.0189606 255 0 0
-0.0156027 0.0809067 -0.0189616 255 0 0
-0.0133114 0.0809062 -0.0189625 255 0 0
-0.0110224 0.0809055 -0.0189633 255 0 0
-0.0087331 0.0809051 -0.0189641 255 0 0
-0.0064418 0.0809046 -0.0189649 255 0 0
-0.0041547 0.0809042 -0.0189659 255 0 0
-0.0018669 0.0809035 -0.0189665 255 0 0
0.0004013 0.0809019 -0.0189670 255 0 0
0.0026798 0.0809005 -0.0189661 255 0 0
0.0049783 0.0809003 -0.0189645 255 0 0
0.0072741 0.0808996 -0.0189602 255 0 0
0.0095651 0.0809002 -0.0189572 255 0 0
0.0118650 0.0808891 -0.0189652 255 0 0
0.0141733 0.0808721 -0.0189768 255 0 0
0.0164881 0.0808699 -0.0190021 255 0 0
-0.0957172 0.0831687 -0.0189784 255 0 0
-0.0933890 0.0831972 -0.0189634 255 0 0
-0.0911259 0.0832068 -0.0189640 255 0 0
-0.0888318 0.0832086 -0.0189591 255 0 0
-0.0865234 0.0832083 -0.0189556 255 0 0
-0.0842356 0.0832073 -0.0189533 255 0 0
-0.0819478 0.0832076 -0.0189529 255 0 0
-0.0796601 0.0832074 -0.0189529 255 0 0
-0.0773723 0.0832073 -0.0189526 255 0 0
-0.0750845 0.0832071 -0.0189518 255 0 0
-0.0727967 0.0832071 -0.0189497 255 0 0
-0.0705089 0.0832079 -0.0189521 255 0 0
-0.0682629 0.0832083 -0.0189540 255 0 0
-0.0659334 0.0832098 -0.0189559 255 0 0
-0.0636456 0.0832108 -0.0189569 255 0 0
-0.0613579 0.0832122 -0.0189591 255 0 0
-0.0590701 0.0832131 -0.0189601 255 0 0
-0.0567824 0.0832140 -0.0189601 255 0 0
-0.0544946 0.0832151 -0.0189593 255 0 0
-0.0522026 0.0832156 -0.0189581 255 0 0
-0.0499190 0.0832155 -0.0189562 255 0 0
-0.0476312 0.0832151 -0.0189543 255 0 0
-0.0453501 0.0832105 -0.0189507 255 0 0
-0.0430770 0.0832073 -0.0189485 255 0 0
-0.0407684 0.0832064 -0.0189481 255 0 0
-0.0384800 0.0832053 -0.0189482 255 0 0
-0.0361922 0.0832045 -0.0189484 255 0 0
-0.0339044 0.0832038 -0.0189490 255 0 0
-0.0316088 0.0832031 -0.0189497 255 0 0
-0.0293198 0.0832023 -0.0189503 255 0 0
-0.0270257 0.0832017 -0.0189498 255 0 0
-0.0247642 0.0831986 -0.0189569 255 0 0
-0.0224956 0.0831968 -0.0189620 255 0 0
-0.0201885 0.0831970 -0.0189572 255 0 0
-0.0178905 0.0831968 -0.0189559 255 0 0
-0.0156028 0.0831963 -0.0189569 255 0 0
-0.0133113 0.0831957 -0.0189577 255 0 0
-0.0110223 0.0831952 -0.0189585 255 0 0
-0.0087330 0.0831946 -0.0189594 255 0 0
-0.0064417 0.0831940 -0.0189605 255 0 0
-0.0041549 0.0831932 -0.0189631 255 0 0
-0.0018666 0.0831922 -0.0189648 255 0 0
0.0004015 0.0831903 -0.0189664 255 0 0
0.0026799 0.0831889 -0.0189659 255 0 0
0.0049786 0.0831889 -0.0189647 255 0 0
0.0072744 0.0831901 -0.0189612 255 0 0
0.0095628 0.0831894 -0.0189583 255 0 0
0.0118616 0.0831892 -0.0189585 255 0 0
0.0141670 0.0831773 -0.0189678 255 0 0
0.0164798 0.0831655 -0.0189884 255 0 0
-0.0980434 0.0854551 -0.0189851 255 0 0
-0.0957173 0.0854856 -0.0189645 255 0 0
-0.0933875 0.0854926 -0.0189528 255 0 0
-0.0911242 0.0854981 -0.0189526 255 0 0
-0.0888378 0.0854987 -0.0189517 255 0 0
-0.0865234 0.0854974 -0.0189491 255 0 0
-0.0842356 0.0854971 -0.0189487 255 0 0
-0.0819478 0.0854972 -0.0189496 255 0 0
-0.0796601 0.0854971 -0.0189490 255 0 0
-0.0773723 0.0854962 -0.0189480 255 0 0
-0.0750845 0.0854958 -0.0189458 255 0 0
-0.0727967 0.0854955 -0.0189443 255 0 0
-0.0705089 0.0854953 -0.0189482 255 0 0
-0.0682632 0.0854960 -0.0189518 255 0 0
-0.0659334 0.0854976 -0.0189530 255 0 0
-0.0636456 0.0854987 -0.0189551 255 0 0
-0.0613580 0.0855004 -0.0189575 255 0 0
-0.0590702 0.0855014 -0.0189599 255 0 0
-0.0567824 0.0855025 -0.0189597 255 0 0
-0.0544946 0.0855033 -0.0189589 255 0 0
-0.0522052 0.0855043 -0.0189572 255 0 0
-0.0499191 0.0855049 -0.0189550 255 0 0
-0.0476313 0.0855049 -0.0189530 255 0 0
-0.0453506 0.0855014 -0.0189479 255 0 0
-0.0430770 0.0854990 -0.0189444 255 0 0
-0.0407687 0.0854976 -0.0189431 255 0 0
-0.0384800 0.0854960 -0.0189423 255 0 0
-0.0361923 0.0854949 -0.0189420 255 0 0
-0.0339046 0.0854942 -0.0189424 255 0 0
-0.0316109 0.0854936 -0.0189430 255 0 0
-0.0293195 0.0854929 -0.0189436 255 0 0
-0.0270250 0.0854924 -0.0189408 255 0 0
-0.0247645 0.0854892 -0.0189496 255 0 0
-0.0224985 0.0854866 -0.0189544 255 0 0
-0.0201886 0.0854870 -0.0189513 255 0 0
-0.0178905 0.0854870 -0.0189499 255 0 0
-0.0156028 0.0854861 -0.0189514 255 0 0
-0.0133106 0.0854854 -0.0189529 255 0 0
-0.0110223 0.0854850 -0.0189540 255 0 0
-0.0087334 0.0854844 -0.0189553 255 0 0
-0.0064412 0.0854838 -0.0189563 255 0 0
-0.0041547 0.0854830 -0.0189574 255 0 0
-0.0018661 0.0854823 -0.0189583 255 0 0
0.0004017 0.0854800 -0.0189617 255 0 0
0.0026797 0.0854788 -0.0189613 255 0 0
0.0049790 0.0854782 -0.0189591 255 0 0
0.0072748 0.0854794 -0.0189573 255 0 0
0.0095625 0.0854818 -0.0189544 255 0 0
0.0118591 0.0854832 -0.0189535 255 0 0
0.0141614 0.0854799 -0.0189564 255 0 0
0.0164754 0.0854753 -0.0189751 255 0 0
-0.0980188 0.0877342 -0.0189811 255 0 0
-0.0957180 0.0877405 -0.0189704 255 0 0
-0.0933868 0.0877449 -0.0189697 255 0 0
-0.0911140 0.0877466 -0.0189705 255 0 0
-0.0888326 0.0877497 -0.0189715 255 0 0
-0.0865234 0.0877484 -0.0189688 255 0 0
-0.0842356 0.0877466 -0.0189683 255 0 0
-0.0819478 0.0877464 -0.0189685 255 0 0
-0.0796601 0.0877460 -0.0189682 255 0 0
-0.0773723 0.0877452 -0.0189658 255 0 0
-0.0750845 0.0877446 -0.0189643 255 0 0
-0.0727967 0.0877442 -0.0189616 255 0 0
-0.0705089 0.0877449 -0.0189625 255 0 0
-0.0682640 0.0877455 -0.0189645 255 0 0
-0.0659334 0.0877467 -0.0189647 255 0 0
-0.0636456 0.0877489 -0.0189659 255 0 0
-0.0613580 0.0877512 -0.0189670 255 0 0
-0.0590702 0.0877540 -0.0189674 255 0 0
-0.0567824 0.0877582 -0.0189669 255 0 0
-0.0544946 0.0877605 -0.0189661 255 0 0
-0.0521995 0.0877647 -0.0189647 255 0 0
-0.0499190 0.0877658 -0.0189636 255 0 0
-0.0476311 0.0877661 -0.0189632 255 0 0
-0.0453504 0.0877571 -0.0189626 255 0 0
-0.0430774 0.0877499 -0.0189613 255 0 0
-0.0407681 0.0877528 -0.0189611 255 0 0
-0.0384800 0.0877527 -0.0189610 255 0 0
-0.0361922 0.0877517 -0.0189615 255 0 0
-0.0339044 0.0877507 -0.0189622 255 0 0
-0.0316056 0.0877493 -0.0189627 255 0 0
-0.0293195 0.0877458 -0.0189632 255 0 0
-0.0270251 0.0877405 -0.0189599 255 0 0
-0.0247670 0.0877460 -0.0189686 255 0 0
-0.0224961 0.0877453 -0.0189735 255 0 0
-0.0201889 0.0877442 -0.0189684 255 0 0
-0.0178909 0.0877431 -0.0189674 255 0 0
-0.0156028 0.0877418 -0.0189683 255 0 0
-0.0133116 0.0877403 -0.0189690 255 0 0
-0.0110223 0.0877392 -0.0189697 255 0 0
-0.0087336 0.0877387 -0.0189705 255 0 0
-0.0064421 0.0877382 -0.0189713 255 0 0
-0.0041552 0.0877375 -0.0189721 255 0 0
-0.0018672 0.0877368 -0.0189729 255 0 0
0.0004015 0.0877395 -0.0189732 255 0 0
0.0026800 0.0877394 -0.0189731 255 0 0
0.0049801 0.0877415 -0.0189713 255 0 0
0.0072751 0.0877421 -0.0189699 255 0 0
0.0095626 0.0877414 -0.0189680 255 0 0
0.0118549 0.0877369 -0.0189654 255 0 0
0.0141516 0.0877357 -0.0189684 255 0 0
0.0164575 0.0877368 -0.0189824 255 0 0
0.0187697 0.0877464 -0.0190001 255 0 0
-0.0980105 0.0900201 -0.0189734 255 0 0
-0.0957183 0.0900249 -0.0189735 255 0 0
-0.0933868 0.0900277 -0.0189796 255 0 0
-0.0911022 0.0900296 -0.0189785 255 0 0
-0.0888298 0.0900303 -0.0189792 255 0 0
-0.0865234 0.0900297 -0.0189792 255 0 0
-0.0842356 0.0900294 -0.0189788 255 0 0
-0.0819478 0.0900281 -0.0189801 255 0 0
-0.0796601 0.0900268 -0.0189791 255 0 0
-0.0773723 0.0900265 -0.0189780 255 0 0
-0.0750845 0.0900269 -0.0189745 255 0 0
-0.0727967 0.0900266 -0.0189717 255 0 0
-0.0705089 0.0900268 -0.0189709 255 0 0
-0.0682646 0.0900276 -0.0189707 255 0 0
-0.0659334 0.0900285 -0.0189712 255 0 0
-0.0636456 0.0900299 -0.0189718 255 0 0
-0.0613584 0.0900318 -0.0189728 255 0 0
-0.0590704 0.0900334 -0.0189722 255 0 0
-0.0567825 0.0900352 -0.0189721 255 0 0
-0.0544947 0.0900368 -0.0189714 255 0 0
-0.0521961 0.0900376 -0.0189701 255 0 0
-0.0499191 0.0900377 -0.0189693 255 0 0
-0.0476313 0.0900367 -0.0189701 255 0 0
-0.0453469 0.0900284 -0.0189704 255 0 0
-0.0430774 0.0900228 -0.0189716 255 0 0
-0.0407683 0.0900231 -0.0189714 255 0 0
-0.0384802 0.0900221 -0.0189717 255 0 0
-0.0361924 0.0900209 -0.0189722 255 0 0
-0.0339046 0.0900199 -0.0189731 255 0 0
-0.0316054 0.0900189 -0.0189741 255 0 0
-0.0293195 0.0900178 -0.0189743 255 0 0
-0.0270252 0.0900168 -0.0189717 255 0 0
-0.0247689 0.0900159 -0.0189794 255 0 0
-0.0224979 0.0900151 -0.0189825 255 0 0
-0.0201891 0.0900148 -0.0189802 255 0 0
-0.0178910 0.0900142 -0.0189784 255 0 0
-0.0156029 0.0900136 -0.0189792 255 0 0
-0.0133120 0.0900123 -0.0189804 255 0 0
-0.0110223 0.0900118 -0.0189813 255 0 0
-0.0087343 0.0900114 -0.0189824 255 0 0
-0.0064425 0.0900109 -0.0189835 255 0 0
-0.0041563 0.0900102 -0.0189847 255 0 0
-0.0018675 0.0900094 -0.0189857 255 0 0
0.0004014 0.0900104 -0.0189810 255 0 0
0.0026800 0.0900100 -0.0189801 255 0 0
0.0049809 0.0900100 -0.0189791 255 0 0
0.0072752 0.0900118 -0.0189772 255 0 0
0.0095634 0.0900122 -0.0189765 255 0 0
0.0118522 0.0900110 -0.0189764 255 0 0
0.0141442 0.0900127 -0.0189751 255 0 0
0.0164493 0.0900140 -0.0189852 255 0 0
0.0187520 0.0899854 -0.0190234 255 0 0
-0.0980079 0.0923131 -0.0189774 255 0 0
-0.0957183 0.0923188 -0.0189741 255 0 0
-0.0933868 0.0923215 -0.0189738 255 0 0
-0.0911017 0.0923193 -0.0189691 255 0 0
-0.0888284 0.0923192 -0.0189668 255 0 0
-0.0865234 0.0923189 -0.0189683 255 0 0
-0.0842356 0.0923182 -0.0189682 255 0 0
-0.0819478 0.0923171 -0.0189684 255 0 0
-0.0796601 0.0923168 -0.0189673 255 0 0
-0.0773723 0.0923159 -0.0189663 255 0 0
-0.0750845 0.0923150 -0.0189652 255 0 0
-0.0727967 0.0923147 -0.0189629 255 0 0
-0.0705089 0.0923156 -0.0189653 255 0 0
-0.0682646 0.0923194 -0.0189677 255 0 0
-0.0659334 0.0923240 -0.0189673 255 0 0
-0.0636456 0.0923276 -0.0189682 255 0 0
-0.0613580 0.0923297 -0.0189689 255 0 0
-0.0590702 0.0923324 -0.0189687 255 0 0
-0.0567824 0.0923344 -0.0189677 255 0 0
-0.0544945 0.0923363 -0.0189667 255 0 0
-0.0522003 0.0923370 -0.0189659 255 0 0
-0.0499189 0.0923369 -0.0189655 255 0 0
-0.0476311 0.0923360 -0.0189648 255 0 0
-0.0453513 0.0923332 -0.0189664 255 0 0
-0.0430778 0.0923317 -0.0189659 255 0 0
-0.0407683 0.0923314 -0.0189661 255 0 0
-0.0384800 0.0923310 -0.0189666 255 0 0
-0.0361922 0.0923303 -0.0189672 255 0 0
-0.0339044 0.0923296 -0.0189679 255 0 0
-0.0316043 0.0923291 -0.0189685 255 0 0
-0.0293193 0.0923283 -0.0189688 255 0 0
-0.0270250 0.0923276 -0.0189674 255 0 0
-0.0247687 0.0923216 -0.0189743 255 0 0
-0.0224972 0.0923188 -0.0189792 255 0 0
-0.0201891 0.0923192 -0.0189744 255 0 0
-0.0178909 0.0923196 -0.0189725 255 0 0
-0.0156029 0.0923185 -0.0189731 255 0 0
-0.0133120 0.0923179 -0.0189737 255 0 0
-0.0110222 0.0923171 -0.0189740 255 0 0
-0.0087340 0.0923160 -0.0189745 255 0 0
-0.0064421 0.0923149 -0.0189751 255 0 0
-0.0041552 0.0923141 -0.0189759 255 0 0
-0.0018668 0.0923131 -0.0189763 255 0 0
0.0004012 0.0923123 -0.0189771 255 0 0
0.0026797 0.0923121 -0.0189771 255 0 0
0.0049810 0.0923124 -0.0189761 255 0 0
0.0072758 0.0923124 -0.0189753 255 0 0
0.0095643 0.0923139 -0.0189747 255 0 0
0.0118543 0.0923119 -0.0189740 255 0 0
0.0141461 0.0923074 -0.0189728 255 0 0
0.0164472 0.0923076 -0.0189817 255 0 0
0.0187490 0.0922877 -0.0190079 255 0 0
-0.0980079 0.0946050 -0.0189741 255 0 0
-0.0957185 0.0946167 -0.0189718 255 0 0
-0.0933868 0.0946303 -0.0189722 255 0 0
-0.0911013 0.0946369 -0.0189656 255 0 0
-0.0888271 0.0946356 -0.0189604 255 0 0
-0.0865234 0.0946353 -0.0189610 255 0 0
-0.0842356 0.0946350 -0.0189618 255 0 0
-0.0819478 0.0946345 -0.0189617 255 0 0
-0.0796601 0.0946338 -0.0189616 255 0 0
-0.0773723 0.0946335 -0.0189611 255 0 0
-0.0750845 0.0946330 -0.0189602 255 0 0
-0.0727967 0.0946328 -0.0189585 255 0 0
-0.0705089 0.0946313 -0.0189635 255 0 0
-0.0682652 0.0946313 -0.0189656 255 0 0
-0.0659334 0.0946325 -0.0189658 255 0 0
-0.0636456 0.0946339 -0.0189656 255 0 0
-0.0613579 0.0946357 -0.0189661 255 0 0
-0.0590701 0.0946368 -0.0189666 255 0 0
-0.0567823 0.0946383 -0.0189670 255 0 0
-0.0544945 0.0946393 -0.0189668 255 0 0
-0.0522009 0.0946399 -0.0189657 255 0 0
-0.0499189 0.0946403 -0.0189650 255 0 0
-0.0476311 0.0946400 -0.0189641 255 0 0
-0.0453515 0.0946387 -0.0189633 255 0 0
-0.0430780 0.0946366 -0.0189623 255 0 0
-0.0407683 0.0946362 -0.0189623 255 0 0
-0.0384800 0.0946359 -0.0189629 255 0 0
-0.0361922 0.0946353 -0.0189635 255 0 0
-0.0339044 0.0946343 -0.0189644 255 0 0
-0.0316041 0.0946335 -0.0189651 255 0 0
-0.0293192 0.0946325 -0.0189649 255 0 0
-0.0270248 0.0946321 -0.0189623 255 0 0
-0.0247686 0.0946291 -0.0189713 255 0 0
-0.0224965 0.0946271 -0.0189770 255 0 0
-0.0201891 0.0946273 -0.0189718 255 0 0
-0.0178908 0.0946274 -0.0189692 255 0 0
-0.0156029 0.0946263 -0.0189695 255 0 0
-0.0133120 0.0946256 -0.0189701 255 0 0
-0.0110222 0.0946252 -0.0189707 255 0 0
-0.0087336 0.0946248 -0.0189712 255 0 0
-0.0064420 0.0946242 -0.0189721 255 0 0
-0.0041551 0.0946234 -0.0189729 255 0 0
-0.0018664 0.0946227 -0.0189737 255 0 0
0.0004013 0.0946213 -0.0189749 255 0 0
0.0026798 0.0946201 -0.0189754 255 0 0
0.0049810 0.0946197 -0.0189744 255 0 0
0.0072765 0.0946187 -0.0189735 255 0 0
0.0095656 0.0946151 -0.0189712 255 0 0
0.0118552 0.0946118 -0.0189704 255 0 0
0.0141466 0.0946091 -0.0189728 255 0 0
0.0164435 0.0946043 -0.0189789 255 0 0
0.0187512 0.0945944 -0.0190054 255 0 0
0.0210618 0.0945969 -0.0189958 255 0 0
-0.0980084 0.0968929 -0.0189633 255 0 0
-0.0957114 0.0969079 -0.0189694 255 0 0
-0.0933868 0.0969209 -0.0189749 255 0 0
-0.0911012 0.0969280 -0.0189676 255 0 0
-0.0888266 0.0969266 -0.0189619 255 0 0
-0.0865234 0.0969256 -0.0189614 255 0 0
-0.0842356 0.0969247 -0.0189616 255 0 0
-0.0819478 0.0969239 -0.0189615 255 0 0
-0.0796601 0.0969235 -0.0189616 255 0 0
-0.0773723 0.0969230 -0.0189612 255 0 0
-0.0750845 0.0969227 -0.0189621 255 0 0
-0.0727967 0.0969226 -0.0189622 255 0 0
-0.0705089 0.0969219 -0.0189660 255 0 0
-0.0682654 0.0969224 -0.0189681 255 0 0
-0.0659334 0.0969238 -0.0189685 255 0 0
-0.0636456 0.0969251 -0.0189692 255 0 0
-0.0613578 0.0969266 -0.0189692 255 0 0
-0.0590700 0.0969282 -0.0189691 255 0 0
-0.0567822 0.0969302 -0.0189691 255 0 0
-0.0544945 0.0969314 -0.0189689 255 0 0
-0.0522007 0.0969324 -0.0189688 255 0 0
-0.0499189 0.0969325 -0.0189701 255 0 0
-0.0476311 0.0969321 -0.0189694 255 0 0
-0.0453506 0.0969310 -0.0189676 255 0 0
-0.0430782 0.0969293 -0.0189664 255 0 0
-0.0407680 0.0969281 -0.0189657 255 0 0
-0.0384800 0.0969266 -0.0189649 255 0 0
-0.0361922 0.0969244 -0.0189646 255 0 0
-0.0339044 0.0969238 -0.0189648 255 0 0
-0.0316050 0.0969231 -0.0189650 255 0 0
-0.0293191 0.0969223 -0.0189651 255 0 0
-0.0270249 0.0969215 -0.0189618 255 0 0
-0.0247685 0.0969186 -0.0189703 255 0 0
-0.0224970 0.0969164 -0.0189756 255 0 0
