ply
format ascii 1.0
element vertex 1199
property float x
property float y
property float z
property uchar red
property uchar green
property uchar blue
end_header
-0.0956745 0.0855201 -0.0165786 255 0 0
-0.0933868 0.0855221 -0.0165805 255 0 0
-0.0910990 0.0855244 -0.0165882 255 0 0
-0.0888112 0.0855247 -0.0165931 255 0 0
-0.0865234 0.0855247 -0.0165935 255 0 0
-0.0842356 0.0855250 -0.0165938 255 0 0
-0.0819478 0.0855248 -0.0165944 255 0 0
-0.0796601 0.0855243 -0.0165949 255 0 0
-0.0773723 0.0855241 -0.0165949 255 0 0
-0.0750845 0.0855241 -0.0165938 255 0 0
-0.0727967 0.0855242 -0.0165925 255 0 0
-0.0705089 0.0855245 -0.0165920 255 0 0
-0.0682212 0.0855245 -0.0165926 255 0 0
-0.0659334 0.0855253 -0.0165940 255 0 0
-0.0636456 0.0855270 -0.0165954 255 0 0
-0.0613578 0.0855277 -0.0165960 255 0 0
-0.0590700 0.0855286 -0.0165962 255 0 0
-0.0567822 0.0855295 -0.0165956 255 0 0
-0.0544945 0.0855304 -0.0165941 255 0 0
-0.0522067 0.0855311 -0.0165916 255 0 0
-0.0499189 0.0855300 -0.0165882 255 0 0
-0.0476311 0.0855293 -0.0165851 255 0 0
-0.0453433 0.0855231 -0.0165800 255 0 0
-0.0430556 0.0855192 -0.0165767 255 0 0
-0.0407678 0.0855176 -0.0165763 255 0 0
-0.0384800 0.0855164 -0.0165758 255 0 0
-0.0361922 0.0855155 -0.0165757 255 0 0
-0.0339044 0.0855151 -0.0165757 255 0 0
-0.0316167 0.0855146 -0.0165759 255 0 0
-0.0293289 0.0855141 -0.0165761 255 0 0
-0.0270412 0.0855138 -0.0165763 255 0 0
-0.0247533 0.0855125 -0.0165769 255 0 0
-0.0224656 0.0855117 -0.0165775 255 0 0
-0.0201777 0.0855117 -0.0165776 255 0 0
-0.0178899 0.0855115 -0.0165777 255 0 0
-0.0156023 0.0855109 -0.0165781 255 0 0
-0.0133145 0.0855103 -0.0165785 255 0 0
-0.0110267 0.0855101 -0.0165788 255 0 0
-0.0087388 0.0855099 -0.0165791 255 0 0
-0.0064504 0.0855097 -0.0165795 255 0 0
-0.0041626 0.0855095 -0.0165798 255 0 0
-0.0018752 0.0855093 -0.0165800 255 0 0
0.0004115 0.0855088 -0.0165802 255 0 0
0.0026986 0.0855084 -0.0165799 255 0 0
0.0049868 0.0855093 -0.0165794 255 0 0
0.0072749 0.0855099 -0.0165786 255 0 0
0.0095632 0.0855101 -0.0165764 255 0 0
0.0118511 0.0855124 -0.0165760 255 0 0
0.0141397 0.0855113 -0.0165763 255 0 0
0.0164301 0.0855136 -0.0165777 255 0 0
0.0187180 0.0855144 -0.0165806 255 0 0
-0.0979623 0.0878073 -0.0165750 255 0 0
-0.0956745 0.0878092 -0.0165767 255 0 0
-0.0933868 0.0878126 -0.0165807 255 0 0
-0.0910990 0.0878145 -0.0165876 255 0 0
-0.0888112 0.0878163 -0.0165914 255 0 0
-0.0865234 0.0878163 -0.0165916 255 0 0
-0.0842356 0.0878156 -0.0165919 255 0 0
-0.0819478 0.0878152 -0.0165923 255 0 0
-0.0796601 0.0878151 -0.0165928 255 0 0
-0.0773723 0.0878140 -0.0165928 255 0 0
-0.0750845 0.0878141 -0.0165919 255 0 0
-0.0727967 0.0878145 -0.0165907 255 0 0
-0.0705089 0.0878150 -0.0165887 255 0 0
-0.0682212 0.0878154 -0.0165876 255 0 0
-0.0659334 0.0878162 -0.0165894 255 0 0
-0.0636456 0.0878166 -0.0165903 255 0 0
-0.0613578 0.0878170 -0.0165911 255 0 0
-0.0590700 0.0878176 -0.0165918 255 0 0
-0.0567822 0.0878184 -0.0165914 255 0 0
-0.0544945 0.0878192 -0.0165903 255 0 0
-0.0522067 0.0878192 -0.0165879 255 0 0
-0.0499189 0.0878180 -0.0165848 255 0 0
-0.0476311 0.0878169 -0.0165815 255 0 0
-0.0453433 0.0878092 -0.0165760 255 0 0
-0.0430556 0.0878039 -0.0165725 255 0 0
-0.0407678 0.0878030 -0.0165725 255 0 0
-0.0384800 0.0878020 -0.0165724 255 0 0
-0.0361922 0.0878014 -0.0165723 255 0 0
-0.0339044 0.0878009 -0.0165724 255 0 0
-0.0316167 0.0878004 -0.0165727 255 0 0
-0.0293288 0.0877998 -0.0165731 255 0 0
-0.0270411 0.0877995 -0.0165734 255 0 0
-0.0247533 0.0877984 -0.0165741 255 0 0
-0.0224655 0.0877976 -0.0165746 255 0 0
-0.0201777 0.0877975 -0.0165748 255 0 0
-0.0178899 0.0877974 -0.0165750 255 0 0
-0.0156023 0.0877970 -0.0165754 255 0 0
-0.0133145 0.0877969 -0.0165757 255 0 0
-0.0110267 0.0877966 -0.0165760 255 0 0
-0.0087389 0.0877963 -0.0165768 255 0 0
-0.0064504 0.0877961 -0.0165775 255 0 0
-0.0041630 0.0877956 -0.0165781 255 0 0
-0.0018752 0.0877953 -0.0165783 255 0 0
0.0004117 0.0877945 -0.0165785 255 0 0
0.0026990 0.0877952 -0.0165777 255 0 0
0.0049874 0.0877958 -0.0165770 255 0 0
0.0072751 0.0877961 -0.0165765 255 0 0
0.0095632 0.0877969 -0.0165758 255 0 0
0.0118510 0.0877969 -0.0165744 255 0 0
0.0141390 0.0877985 -0.0165746 255 0 0
0.0164280 0.0878005 -0.0165763 255 0 0
0.0187178 0.0878023 -0.0165794 255 0 0
-0.0979623 0.0900962 -0.0165721 255 0 0
-0.0956745 0.0901004 -0.0165759 255 0 0
-0.0933868 0.0901008 -0.0165805 255 0 0
-0.0910990 0.0901044 -0.0165865 255 0 0
-0.0888112 0.0901062 -0.0165900 255 0 0
-0.0865234 0.0901056 -0.0165901 255 0 0
-0.0842356 0.0901053 -0.0165903 255 0 0
-0.0819478 0.0901054 -0.0165905 255 0 0
-0.0796601 0.0901055 -0.0165908 255 0 0
-0.0773723 0.0901054 -0.0165908 255 0 0
-0.0750845 0.0901052 -0.0165900 255 0 0
-0.0727967 0.0901050 -0.0165893 255 0 0
-0.0705089 0.0901047 -0.0165860 255 0 0
-0.0682212 0.0901046 -0.0165847 255 0 0
-0.0659334 0.0901053 -0.0165859 255 0 0
-0.0636456 0.0901062 -0.0165873 255 0 0
-0.0613578 0.0901071 -0.0165880 255 0 0
-0.0590700 0.0901081 -0.0165888 255 0 0
-0.0567822 0.0901089 -0.0165886 255 0 0
-0.0544945 0.0901097 -0.0165877 255 0 0
-0.0522067 0.0901100 -0.0165861 255 0 0
-0.0499189 0.0901081 -0.0165828 255 0 0
-0.0476311 0.0901057 -0.0165796 255 0 0
-0.0453433 0.0900974 -0.0165745 255 0 0
-0.0430556 0.0900921 -0.0165713 255 0 0
-0.0407678 0.0900917 -0.0165712 255 0 0
-0.0384800 0.0900906 -0.0165712 255 0 0
-0.0361922 0.0900898 -0.0165713 255 0 0
-0.0339044 0.0900893 -0.0165717 255 0 0
-0.0316167 0.0900888 -0.0165722 255 0 0
-0.0293289 0.0900883 -0.0165726 255 0 0
-0.0270412 0.0900881 -0.0165729 255 0 0
-0.0247533 0.0900871 -0.0165736 255 0 0
-0.0224656 0.0900865 -0.0165742 255 0 0
-0.0201777 0.0900864 -0.0165744 255 0 0
-0.0178899 0.0900863 -0.0165746 255 0 0
-0.0156023 0.0900860 -0.0165750 255 0 0
-0.0133146 0.0900858 -0.0165753 255 0 0
-0.0110268 0.0900856 -0.0165756 255 0 0
-0.0087390 0.0900852 -0.0165759 255 0 0
-0.0064508 0.0900850 -0.0165762 255 0 0
-0.0041631 0.0900847 -0.0165765 255 0 0
-0.0018753 0.0900844 -0.0165766 255 0 0
0.0004118 0.0900837 -0.0165769 255 0 0
0.0026993 0.0900833 -0.0165770 255 0 0
0.0049878 0.0900839 -0.0165769 255 0 0
0.0072756 0.0900853 -0.0165766 255 0 0
0.0095632 0.0900847 -0.0165750 255 0 0
0.0118510 0.0900836 -0.0165744 255 0 0
0.0141388 0.0900857 -0.0165736 255 0 0
0.0164271 0.0900878 -0.0165755 255 0 0
0.0187177 0.0900892 -0.0165783 255 0 0
-0.0979623 0.0923843 -0.0165746 255 0 0
-0.0956745 0.0923859 -0.0165776 255 0 0
-0.0933868 0.0923868 -0.0165794 255 0 0
-0.0910990 0.0923868 -0.0165840 255 0 0
-0.0888112 0.0923879 -0.0165866 255 0 0
-0.0865234 0.0923873 -0.0165867 255 0 0
-0.0842356 0.0923862 -0.0165868 255 0 0
-0.0819478 0.0923861 -0.0165870 255 0 0
-0.0796601 0.0923860 -0.0165871 255 0 0
-0.0773723 0.0923860 -0.0165869 255 0 0
-0.0750845 0.0923857 -0.0165863 255 0 0
-0.0727967 0.0923858 -0.0165852 255 0 0
-0.0705089 0.0923860 -0.0165845 255 0 0
-0.0682212 0.0923863 -0.0165839 255 0 0
-0.0659334 0.0923868 -0.0165850 255 0 0
-0.0636456 0.0923873 -0.0165855 255 0 0
-0.0613578 0.0923879 -0.0165862 255 0 0
-0.0590700 0.0923892 -0.0165864 255 0 0
-0.0567822 0.0923895 -0.0165862 255 0 0
-0.0544945 0.0923901 -0.0165856 255 0 0
-0.0522067 0.0923900 -0.0165839 255 0 0
-0.0499189 0.0923888 -0.0165813 255 0 0
-0.0476311 0.0923875 -0.0165790 255 0 0
-0.0453433 0.0923816 -0.0165754 255 0 0
-0.0430556 0.0923789 -0.0165730 255 0 0
-0.0407678 0.0923788 -0.0165731 255 0 0
-0.0384800 0.0923783 -0.0165732 255 0 0
-0.0361922 0.0923776 -0.0165732 255 0 0
-0.0339044 0.0923772 -0.0165733 255 0 0
-0.0316167 0.0923768 -0.0165736 255 0 0
-0.0293289 0.0923764 -0.0165738 255 0 0
-0.0270411 0.0923761 -0.0165740 255 0 0
-0.0247533 0.0923745 -0.0165746 255 0 0
-0.0224655 0.0923735 -0.0165750 255 0 0
-0.0201777 0.0923731 -0.0165750 255 0 0
-0.0178899 0.0923730 -0.0165752 255 0 0
-0.0156023 0.0923719 -0.0165755 255 0 0
-0.0133145 0.0923717 -0.0165757 255 0 0
-0.0110268 0.0923713 -0.0165759 255 0 0
-0.0087389 0.0923710 -0.0165762 255 0 0
-0.0064505 0.0923705 -0.0165765 255 0 0
-0.0041630 0.0923702 -0.0165767 255 0 0
-0.0018753 0.0923698 -0.0165772 255 0 0
0.0004119 0.0923693 -0.0165777 255 0 0
0.0026993 0.0923705 -0.0165775 255 0 0
0.0049878 0.0923706 -0.0165773 255 0 0
0.0072756 0.0923711 -0.0165771 255 0 0
0.0095633 0.0923718 -0.0165767 255 0 0
0.0118510 0.0923711 -0.0165756 255 0 0
0.0141388 0.0923731 -0.0165749 255 0 0
0.0164269 0.0923754 -0.0165759 255 0 0
0.0187163 0.0923769 -0.0165782 255 0 0
0.0210053 0.0923789 -0.0165812 255 0 0
-0.0979623 0.0946742 -0.0165757 255 0 0
-0.0956745 0.0946749 -0.0165782 255 0 0
-0.0933868 0.0946763 -0.0165801 255 0 0
-0.0910990 0.0946734 -0.0165843 255 0 0
-0.0888112 0.0946723 -0.0165854 255 0 0
-0.0865234 0.0946719 -0.0165854 255 0 0
-0.0842356 0.0946717 -0.0165855 255 0 0
-0.0819478 0.0946708 -0.0165855 255 0 0
-0.0796601 0.0946707 -0.0165857 255 0 0
-0.0773723 0.0946704 -0.0165858 255 0 0
-0.0750845 0.0946702 -0.0165852 255 0 0
-0.0727967 0.0946705 -0.0165848 255 0 0
-0.0705089 0.0946702 -0.0165848 255 0 0
-0.0682212 0.0946704 -0.0165849 255 0 0
-0.0659334 0.0946711 -0.0165852 255 0 0
-0.0636456 0.0946716 -0.0165857 255 0 0
-0.0613578 0.0946726 -0.0165861 255 0 0
-0.0590700 0.0946742 -0.0165861 255 0 0
-0.0567822 0.0946752 -0.0165860 255 0 0
-0.0544945 0.0946758 -0.0165855 255 0 0
-0.0522067 0.0946755 -0.0165842 255 0 0
-0.0499189 0.0946745 -0.0165825 255 0 0
-0.0476311 0.0946733 -0.0165805 255 0 0
-0.0453433 0.0946694 -0.0165776 255 0 0
-0.0430556 0.0946675 -0.0165759 255 0 0
-0.0407678 0.0946670 -0.0165753 255 0 0
-0.0384800 0.0946659 -0.0165751 255 0 0
-0.0361922 0.0946650 -0.0165749 255 0 0
-0.0339044 0.0946639 -0.0165749 255 0 0
-0.0316167 0.0946635 -0.0165750 255 0 0
-0.0293289 0.0946632 -0.0165752 255 0 0
-0.0270411 0.0946620 -0.0165753 255 0 0
-0.0247533 0.0946599 -0.0165758 255 0 0
-0.0224655 0.0946587 -0.0165762 255 0 0
-0.0201777 0.0946587 -0.0165763 255 0 0
-0.0178899 0.0946584 -0.0165764 255 0 0
-0.0156023 0.0946580 -0.0165767 255 0 0
-0.0133145 0.0946576 -0.0165769 255 0 0
-0.0110267 0.0946573 -0.0165771 255 0 0
-0.0087389 0.0946571 -0.0165774 255 0 0
-0.0064505 0.0946569 -0.0165776 255 0 0
-0.0041627 0.0946564 -0.0165778 255 0 0
-0.0018753 0.0946561 -0.0165781 255 0 0
0.0004120 0.0946555 -0.0165785 255 0 0
0.0026994 0.0946550 -0.0165787 255 0 0
0.0049878 0.0946552 -0.0165786 255 0 0
0.0072756 0.0946568 -0.0165781 255 0 0
0.0095633 0.0946593 -0.0165777 255 0 0
0.0118510 0.0946613 -0.0165773 255 0 0
0.0141388 0.0946617 -0.0165755 255 0 0
0.0164269 0.0946625 -0.0165765 255 0 0
0.0187160 0.0946644 -0.0165786 255 0 0
0.0210052 0.0946663 -0.0165813 255 0 0
-0.0979623 0.0969616 -0.0165740 255 0 0
-0.0956745 0.0969630 -0.0165785 255 0 0
-0.0933868 0.0969650 -0.0165849 255 0 0
-0.0910990 0.0969652 -0.0165882 255 0 0
-0.0888112 0.0969639 -0.0165896 255 0 0
-0.0865234 0.0969637 -0.0165896 255 0 0
-0.0842356 0.0969635 -0.0165896 255 0 0
-0.0819478 0.0969631 -0.0165896 255 0 0
-0.0796601 0.0969621 -0.0165895 255 0 0
-0.0773723 0.0969620 -0.0165894 255 0 0
-0.0750845 0.0969620 -0.0165889 255 0 0
-0.0727967 0.0969628 -0.0165886 255 0 0
-0.0705089 0.0969628 -0.0165877 255 0 0
-0.0682212 0.0969628 -0.0165873 255 0 0
-0.0659334 0.0969635 -0.0165879 255 0 0
-0.0636456 0.0969641 -0.0165884 255 0 0
-0.0613578 0.0969657 -0.0165888 255 0 0
-0.0590700 0.0969667 -0.0165892 255 0 0
-0.0567822 0.0969673 -0.0165895 255 0 0
-0.0544945 0.0969680 -0.0165894 255 0 0
-0.0522067 0.0969683 -0.0165885 255 0 0
-0.0499189 0.0969673 -0.0165874 255 0 0
-0.0476311 0.0969661 -0.0165858 255 0 0
-0.0453433 0.0969625 -0.0165822 255 0 0
-0.0430556 0.0969594 -0.0165795 255 0 0
-0.0407678 0.0969566 -0.0165779 255 0 0
-0.0384800 0.0969558 -0.0165765 255 0 0
-0.0361922 0.0969522 -0.0165755 255 0 0
-0.0339044 0.0969514 -0.0165752 255 0 0
-0.0316167 0.0969504 -0.0165753 255 0 0
-0.0293289 0.0969492 -0.0165754 255 0 0
-0.0270410 0.0969489 -0.0165755 255 0 0
-0.0247533 0.0969475 -0.0165760 255 0 0
-0.0224655 0.0969464 -0.0165764 255 0 0
-0.0201777 0.0969463 -0.0165764 255 0 0
-0.0178899 0.0969462 -0.0165765 255 0 0
-0.0156023 0.0969457 -0.0165768 255 0 0
-0.0133145 0.0969453 -0.0165770 255 0 0
-0.0110267 0.0969450 -0.0165773 255 0 0
-0.0087389 0.0969446 -0.0165775 255 0 0
-0.0064505 0.0969444 -0.0165778 255 0 0
-0.0041627 0.0969440 -0.0165781 255 0 0
-0.0018753 0.0969436 -0.0165783 255 0 0
0.0004120 0.0969432 -0.0165787 255 0 0
0.0026994 0.0969431 -0.0165790 255 0 0
0.0049878 0.0969433 -0.0165789 255 0 0
0.0072756 0.0969456 -0.0165786 255 0 0
0.0095633 0.0969484 -0.0165782 255 0 0
0.0118510 0.0969487 -0.0165780 255 0 0
0.0141376 0.0969500 -0.0165773 255 0 0
0.0164268 0.0969512 -0.0165766 255 0 0
0.0187158 0.0969539 -0.0165787 255 0 0
0.0210051 0.0969540 -0.0165812 255 0 0
-0.0979623 0.0992512 -0.0165731 255 0 0
-0.0956745 0.0992528 -0.0165777 255 0 0
-0.0933868 0.0992567 -0.0165858 255 0 0
-0.0910990 0.0992565 -0.0165888 255 0 0
-0.0888112 0.0992546 -0.0165908 255 0 0
-0.0865234 0.0992542 -0.0165905 255 0 0
-0.0842356 0.0992533 -0.0165903 255 0 0
-0.0819478 0.0992530 -0.0165903 255 0 0
-0.0796601 0.0992530 -0.0165902 255 0 0
-0.0773723 0.0992528 -0.0165900 255 0 0
-0.0750845 0.0992529 -0.0165900 255 0 0
-0.0727967 0.0992530 -0.0165899 255 0 0
-0.0705089 0.0992525 -0.0165887 255 0 0
-0.0682212 0.0992528 -0.0165882 255 0 0
-0.0659334 0.0992533 -0.0165888 255 0 0
-0.0636456 0.0992541 -0.0165893 255 0 0
-0.0613578 0.0992549 -0.0165898 255 0 0
-0.0590700 0.0992558 -0.0165906 255 0 0
-0.0567822 0.0992569 -0.0165910 255 0 0
-0.0544945 0.0992575 -0.0165911 255 0 0
-0.0522067 0.0992579 -0.0165907 255 0 0
-0.0499189 0.0992572 -0.0165893 255 0 0
-0.0476311 0.0992562 -0.0165876 255 0 0
-0.0453433 0.0992522 -0.0165839 255 0 0
-0.0430556 0.0992491 -0.0165807 255 0 0
-0.0407678 0.0992461 -0.0165785 255 0 0
-0.0384800 0.0992429 -0.0165769 255 0 0
-0.0361922 0.0992412 -0.0165757 255 0 0
-0.0339044 0.0992399 -0.0165753 255 0 0
-0.0316167 0.0992396 -0.0165752 255 0 0
-0.0293289 0.0992392 -0.0165754 255 0 0
-0.0270410 0.0992389 -0.0165754 255 0 0
-0.0247533 0.0992370 -0.0165760 255 0 0
-0.0224655 0.0992363 -0.0165764 255 0 0
-0.0201777 0.0992352 -0.0165764 255 0 0
-0.0178899 0.0992344 -0.0165766 255 0 0
-0.0156023 0.0992341 -0.0165768 255 0 0
-0.0133145 0.0992337 -0.0165771 255 0 0
-0.0110267 0.0992334 -0.0165774 255 0 0
-0.0087389 0.0992331 -0.0165776 255 0 0
-0.0064505 0.0992328 -0.0165779 255 0 0
-0.0041627 0.0992325 -0.0165783 255 0 0
-0.0018753 0.0992323 -0.0165786 255 0 0
0.0004120 0.0992317 -0.0165792 255 0 0
0.0026994 0.0992323 -0.0165794 255 0 0
0.0049878 0.0992339 -0.0165793 255 0 0
0.0072756 0.0992350 -0.0165791 255 0 0
0.0095632 0.0992358 -0.0165788 255 0 0
0.0118509 0.0992380 -0.0165784 255 0 0
0.0141374 0.0992366 -0.0165782 255 0 0
0.0164268 0.0992403 -0.0165775 255 0 0
0.0187158 0.0992411 -0.0165792 255 0 0
0.0210051 0.0992427 -0.0165820 255 0 0
-0.0979623 0.1015383 -0.0165728 255 0 0
-0.0956745 0.1015422 -0.0165790 255 0 0
-0.0933868 0.1015451 -0.0165846 255 0 0
-0.0910990 0.1015436 -0.0165876 255 0 0
-0.0888112 0.1015424 -0.0165893 255 0 0
-0.0865234 0.1015424 -0.0165888 255 0 0
-0.0842356 0.1015420 -0.0165887 255 0 0
-0.0819478 0.1015415 -0.0165885 255 0 0
-0.0796601 0.1015412 -0.0165884 255 0 0
-0.0773723 0.1015411 -0.0165881 255 0 0
-0.0750845 0.1015411 -0.0165884 255 0 0
-0.0727967 0.1015413 -0.0165887 255 0 0
-0.0705089 0.1015416 -0.0165882 255 0 0
-0.0682212 0.1015424 -0.0165880 255 0 0
-0.0659334 0.1015433 -0.0165882 255 0 0
-0.0636456 0.1015444 -0.0165889 255 0 0
-0.0613578 0.1015455 -0.0165894 255 0 0
-0.0590700 0.1015467 -0.0165901 255 0 0
-0.0567822 0.1015476 -0.0165907 255 0 0
-0.0544945 0.1015477 -0.0165908 255 0 0
-0.0522067 0.1015471 -0.0165902 255 0 0
-0.0499189 0.1015461 -0.0165885 255 0 0
-0.0476311 0.1015439 -0.0165865 255 0 0
-0.0453433 0.1015409 -0.0165827 255 0 0
-0.0430556 0.1015372 -0.0165796 255 0 0
-0.0407678 0.1015343 -0.0165776 255 0 0
-0.0384800 0.1015334 -0.0165761 255 0 0
-0.0361922 0.1015305 -0.0165753 255 0 0
-0.0339044 0.1015300 -0.0165751 255 0 0
-0.0316167 0.1015295 -0.0165752 255 0 0
-0.0293288 0.1015286 -0.0165753 255 0 0
-0.0270410 0.1015282 -0.0165753 255 0 0
-0.0247533 0.1015272 -0.0165760 255 0 0
-0.0224655 0.1015263 -0.0165765 255 0 0
-0.0201777 0.1015262 -0.0165765 255 0 0
-0.0178899 0.1015260 -0.0165767 255 0 0
-0.0156023 0.1015256 -0.0165770 255 0 0
-0.0133145 0.1015252 -0.0165774 255 0 0
-0.0110267 0.1015248 -0.0165777 255 0 0
-0.0087389 0.1015245 -0.0165780 255 0 0
-0.0064505 0.1015241 -0.0165783 255 0 0
-0.0041627 0.1015239 -0.0165786 255 0 0
-0.0018753 0.1015236 -0.0165789 255 0 0
0.0004120 0.1015232 -0.0165795 255 0 0
0.0026995 0.1015236 -0.0165798 255 0 0
0.0049878 0.1015237 -0.0165796 255 0 0
0.0072756 0.1015236 -0.0165795 255 0 0
0.0095632 0.1015244 -0.0165792 255 0 0
0.0118509 0.1015268 -0.0165788 255 0 0
0.0141373 0.1015270 -0.0165790 255 0 0
0.0164268 0.1015281 -0.0165799 255 0 0
0.0187161 0.1015311 -0.0165825 255 0 0
0.0210050 0.1015303 -0.0165853 255 0 0
-0.0979623 0.1038280 -0.0165764 255 0 0
-0.0956745 0.1038304 -0.0165794 255 0 0
-0.0933868 0.1038343 -0.0165827 255 0 0
-0.0910990 0.1038337 -0.0165864 255 0 0
-0.0888112 0.1038324 -0.0165879 255 0 0
-0.0865234 0.1038320 -0.0165875 255 0 0
-0.0842356 0.1038319 -0.0165875 255 0 0
-0.0819478 0.1038315 -0.0165875 255 0 0
-0.0796601 0.1038312 -0.0165872 255 0 0
-0.0773723 0.1038312 -0.0165874 255 0 0
-0.0750845 0.1038312 -0.0165877 255 0 0
-0.0727967 0.1038314 -0.0165884 255 0 0
-0.0705089 0.1038320 -0.0165882 255 0 0
-0.0682212 0.1038324 -0.0165882 255 0 0
-0.0659334 0.1038334 -0.0165886 255 0 0
-0.0636456 0.1038344 -0.0165892 255 0 0
-0.0613578 0.1038357 -0.0165895 255 0 0
-0.0590700 0.1038363 -0.0165901 255 0 0
-0.0567822 0.1038372 -0.0165908 255 0 0
-0.0544945 0.1038373 -0.0165908 255 0 0
-0.0522067 0.1038374 -0.0165901 255 0 0
-0.0499189 0.1038360 -0.0165887 255 0 0
-0.0476311 0.1038335 -0.0165870 255 0 0
-0.0453433 0.1038299 -0.0165828 255 0 0
-0.0430556 0.1038273 -0.0165797 255 0 0
-0.0407678 0.1038231 -0.0165772 255 0 0
-0.0384800 0.1038212 -0.0165755 255 0 0
-0.0361922 0.1038200 -0.0165752 255 0 0
-0.0339044 0.1038190 -0.0165749 255 0 0
-0.0316167 0.1038185 -0.0165750 255 0 0
-0.0293288 0.1038179 -0.0165752 255 0 0
-0.0270410 0.1038175 -0.0165753 255 0 0
-0.0247533 0.1038165 -0.0165760 255 0 0
-0.0224655 0.1038155 -0.0165766 255 0 0
-0.0201777 0.1038152 -0.0165766 255 0 0
-0.0178899 0.1038143 -0.0165768 255 0 0
-0.0156023 0.1038140 -0.0165771 255 0 0
-0.0133145 0.1038136 -0.0165775 255 0 0
-0.0110267 0.1038133 -0.0165778 255 0 0
-0.0087389 0.1038131 -0.0165782 255 0 0
-0.0064506 0.1038128 -0.0165785 255 0 0
-0.0041628 0.1038125 -0.0165790 255 0 0
-0.0018753 0.1038124 -0.0165793 255 0 0
0.0004121 0.1038120 -0.0165798 255 0 0
0.0026995 0.1038130 -0.0165801 255 0 0
0.0049878 0.1038131 -0.0165800 255 0 0
0.0072755 0.1038138 -0.0165798 255 0 0
0.0095632 0.1038148 -0.0165793 255 0 0
0.0118499 0.1038154 -0.0165792 255 0 0
0.0141372 0.1038142 -0.0165794 255 0 0
0.0164268 0.1038173 -0.0165810 255 0 0
0.0187170 0.1038191 -0.0165839 255 0 0
-0.0979623 0.1061164 -0.0165782 255 0 0
-0.0956745 0.1061182 -0.0165795 255 0 0
-0.0933868 0.1061226 -0.0165816 255 0 0
-0.0910990 0.1061228 -0.0165845 255 0 0
-0.0888112 0.1061214 -0.0165870 255 0 0
-0.0865234 0.1061207 -0.0165870 255 0 0
-0.0842356 0.1061204 -0.0165867 255 0 0
-0.0819478 0.1061205 -0.0165868 255 0 0
-0.0796601 0.1061203 -0.0165869 255 0 0
-0.0773723 0.1061201 -0.0165872 255 0 0
-0.0750845 0.1061204 -0.0165876 255 0 0
-0.0727967 0.1061212 -0.0165883 255 0 0
-0.0705089 0.1061215 -0.0165885 255 0 0
-0.0682212 0.1061220 -0.0165888 255 0 0
-0.0659334 0.1061228 -0.0165890 255 0 0
-0.0636456 0.1061237 -0.0165896 255 0 0
-0.0613578 0.1061246 -0.0165898 255 0 0
-0.0590700 0.1061255 -0.0165900 255 0 0
-0.0567822 0.1061261 -0.0165902 255 0 0
-0.0544945 0.1061260 -0.0165904 255 0 0
-0.0522067 0.1061258 -0.0165899 255 0 0
-0.0499189 0.1061248 -0.0165886 255 0 0
-0.0476311 0.1061229 -0.0165870 255 0 0
-0.0453433 0.1061193 -0.0165831 255 0 0
-0.0430556 0.1061160 -0.0165799 255 0 0
-0.0407678 0.1061114 -0.0165770 255 0 0
-0.0384800 0.1061090 -0.0165751 255 0 0
-0.0361922 0.1061073 -0.0165748 255 0 0
-0.0339044 0.1061067 -0.0165747 255 0 0
-0.0316167 0.1061063 -0.0165747 255 0 0
-0.0293288 0.1061059 -0.0165749 255 0 0
-0.0270410 0.1061056 -0.0165751 255 0 0
-0.0247533 0.1061045 -0.0165759 255 0 0
-0.0224655 0.1061035 -0.0165766 255 0 0
-0.0201777 0.1061035 -0.0165767 255 0 0
-0.0178899 0.1061034 -0.0165769 255 0 0
-0.0156022 0.1061030 -0.0165772 255 0 0
-0.0133144 0.1061027 -0.0165777 255 0 0
-0.0110267 0.1061023 -0.0165781 255 0 0
-0.0087389 0.1061020 -0.0165784 255 0 0
-0.0064506 0.1061017 -0.0165787 255 0 0
-0.0041628 0.1061015 -0.0165791 255 0 0
-0.0018754 0.1061012 -0.0165793 255 0 0
0.0004120 0.1061010 -0.0165798 255 0 0
0.0026995 0.1061010 -0.0165800 255 0 0
0.0049877 0.1061013 -0.0165800 255 0 0
0.0072755 0.1061019 -0.0165798 255 0 0
0.0095632 0.1061043 -0.0165794 255 0 0
0.0118495 0.1061040 -0.0165795 255 0 0
0.0141372 0.1061046 -0.0165799 255 0 0
0.0164268 0.1061057 -0.0165819 255 0 0
0.0187169 0.1061059 -0.0165848 255 0 0
-0.0979623 0.1084045 -0.0165785 255 0 0
-0.0956745 0.1084077 -0.0165786 255 0 0
-0.0933868 0.1084094 -0.0165802 255 0 0
-0.0910990 0.1084103 -0.0165833 255 0 0
-0.0888112 0.1084098 -0.0165856 255 0 0
-0.0865234 0.1084092 -0.0165858 255 0 0
-0.0842356 0.1084088 -0.0165860 255 0 0
-0.0819478 0.1084081 -0.0165862 255 0 0
-0.0796601 0.1084076 -0.0165865 255 0 0
-0.0773723 0.1084076 -0.0165868 255 0 0
-0.0750845 0.1084075 -0.0165874 255 0 0
-0.0727967 0.1084076 -0.0165878 255 0 0
-0.0705089 0.1084082 -0.0165882 255 0 0
-0.0682212 0.1084090 -0.0165884 255 0 0
-0.0659334 0.1084099 -0.0165887 255 0 0
-0.0636456 0.1084105 -0.0165890 255 0 0
-0.0613578 0.1084113 -0.0165890 255 0 0
-0.0590700 0.1084121 -0.0165891 255 0 0
-0.0567822 0.1084130 -0.0165893 255 0 0
-0.0544945 0.1084135 -0.0165893 255 0 0
-0.0522067 0.1084134 -0.0165886 255 0 0
-0.0499189 0.1084116 -0.0165867 255 0 0
-0.0476311 0.1084094 -0.0165846 255 0 0
-0.0453433 0.1084048 -0.0165805 255 0 0
-0.0430556 0.1084015 -0.0165775 255 0 0
-0.0407678 0.1083983 -0.0165756 255 0 0
-0.0384800 0.1083962 -0.0165745 255 0 0
-0.0361922 0.1083954 -0.0165743 255 0 0
-0.0339044 0.1083943 -0.0165742 255 0 0
-0.0316167 0.1083937 -0.0165743 255 0 0
-0.0293288 0.1083931 -0.0165746 255 0 0
-0.0270411 0.1083928 -0.0165748 255 0 0
-0.0247533 0.1083918 -0.0165758 255 0 0
-0.0224657 0.1083908 -0.0165764 255 0 0
-0.0201777 0.1083909 -0.0165765 255 0 0
-0.0178899 0.1083908 -0.0165767 255 0 0
-0.0156022 0.1083904 -0.0165770 255 0 0
-0.0133144 0.1083902 -0.0165774 255 0 0
-0.0110266 0.1083899 -0.0165777 255 0 0
-0.0087388 0.1083896 -0.0165780 255 0 0
-0.0064506 0.1083893 -0.0165784 255 0 0
-0.0041628 0.1083892 -0.0165787 255 0 0
-0.0018754 0.1083891 -0.0165790 255 0 0
0.0004120 0.1083893 -0.0165795 255 0 0
0.0026995 0.1083890 -0.0165797 255 0 0
0.0049878 0.1083891 -0.0165797 255 0 0
0.0072755 0.1083914 -0.0165795 255 0 0
0.0095632 0.1083924 -0.0165792 255 0 0
0.0118498 0.1083905 -0.0165796 255 0 0
0.0141377 0.1083942 -0.0165805 255 0 0
0.0164276 0.1083962 -0.0165830 255 0 0
0.0187168 0.1083962 -0.0165859 255 0 0
-0.0956745 0.1106941 -0.0165776 255 0 0
-0.0933868 0.1106961 -0.0165795 255 0 0
-0.0910990 0.1106959 -0.0165826 255 0 0
-0.0888112 0.1106958 -0.0165843 255 0 0
-0.0865234 0.1106957 -0.0165846 255 0 0
-0.0842356 0.1106952 -0.0165853 255 0 0
-0.0819478 0.1106954 -0.0165857 255 0 0
-0.0796601 0.1106954 -0.0165860 255 0 0
-0.0773723 0.1106953 -0.0165863 255 0 0
-0.0750845 0.1106947 -0.0165869 255 0 0
-0.0727967 0.1106951 -0.0165874 255 0 0
-0.0705089 0.1106960 -0.0165881 255 0 0
-0.0682212 0.1106968 -0.0165888 255 0 0
-0.0659334 0.1106976 -0.0165887 255 0 0
-0.0636456 0.1106983 -0.0165887 255 0 0
-0.0613578 0.1106989 -0.0165887 255 0 0
-0.0590700 0.1106998 -0.0165887 255 0 0
-0.0567822 0.1107003 -0.0165888 255 0 0
-0.0544945 0.1107006 -0.0165883 255 0 0
-0.0522067 0.1106999 -0.0165871 255 0 0
-0.0499189 0.1106969 -0.0165845 255 0 0
-0.0476311 0.1106943 -0.0165818 255 0 0
-0.0453433 0.1106901 -0.0165779 255 0 0
-0.0430556 0.1106873 -0.0165752 255 0 0
-0.0407678 0.1106860 -0.0165743 255 0 0
-0.0384800 0.1106850 -0.0165739 255 0 0
-0.0361922 0.1106841 -0.0165738 255 0 0
-0.0339044 0.1106836 -0.0165739 255 0 0
-0.0316167 0.1106834 -0.0165740 255 0 0
-0.0293289 0.1106830 -0.0165743 255 0 0
-0.0270411 0.1106827 -0.0165745 255 0 0
-0.0247533 0.1106816 -0.0165755 255 0 0
-0.0224660 0.1106809 -0.0165762 255 0 0
-0.0201777 0.1106810 -0.0165762 255 0 0
-0.0178899 0.1106808 -0.0165764 255 0 0
-0.0156023 0.1106805 -0.0165767 255 0 0
-0.0133144 0.1106801 -0.0165771 255 0 0
-0.0110267 0.1106799 -0.0165774 255 0 0
-0.0087388 0.1106796 -0.0165777 255 0 0
-0.0064506 0.1106787 -0.0165780 255 0 0
-0.0041628 0.1106784 -0.0165784 255 0 0
-0.0018753 0.1106785 -0.0165787 255 0 0
0.0004119 0.1106784 -0.0165792 255 0 0
0.0026994 0.1106780 -0.0165795 255 0 0
0.0049877 0.1106784 -0.0165795 255 0 0
0.0072755 0.1106778 -0.0165796 255 0 0
0.0095633 0.1106806 -0.0165796 255 0 0
0.0118510 0.1106811 -0.0165803 255 0 0
0.0141380 0.1106815 -0.0165819 255 0 0
0.0164281 0.1106829 -0.0165845 255 0 0
-0.0956745 0.1129798 -0.0165786 255 0 0
-0.0933868 0.1129835 -0.0165760 255 0 0
-0.0910990 0.1129866 -0.0165785 255 0 0
-0.0888112 0.1129881 -0.0165802 255 0 0
-0.0865234 0.1129873 -0.0165805 255 0 0
-0.0842356 0.1129864 -0.0165812 255 0 0
-0.0819478 0.1129856 -0.0165818 255 0 0
-0.0796601 0.1129846 -0.0165823 255 0 0
-0.0773723 0.1129840 -0.0165823 255 0 0
-0.0750845 0.1129828 -0.0165814 255 0 0
-0.0727967 0.1129824 -0.0165803 255 0 0
-0.0705089 0.1129789 -0.0165774 255 0 0
-0.0682212 0.1129773 -0.0165760 255 0 0
-0.0659334 0.1129794 -0.0165763 255 0 0
-0.0636456 0.1129806 -0.0165764 255 0 0
-0.0613578 0.1129815 -0.0165761 255 0 0
-0.0590700 0.1129822 -0.0165759 255 0 0
-0.0567822 0.1129825 -0.0165755 255 0 0
-0.0544945 0.1129818 -0.0165747 255 0 0
-0.0522067 0.1129811 -0.0165734 255 0 0
-0.0499189 0.1129787 -0.0165716 255 0 0
-0.0476311 0.1129767 -0.0165697 255 0 0
-0.0453433 0.1129741 -0.0165678 255 0 0
-0.0430556 0.1129722 -0.0165671 255 0 0
-0.0407678 0.1129716 -0.0165668 255 0 0
-0.0384800 0.1129711 -0.0165669 255 0 0
-0.0361922 0.1129707 -0.0165670 255 0 0
-0.0339044 0.1129704 -0.0165673 255 0 0
-0.0316167 0.1129700 -0.0165676 255 0 0
-0.0293288 0.1129697 -0.0165682 255 0 0
-0.0270410 0.1129696 -0.0165686 255 0 0
-0.0247533 0.1129684 -0.0165689 255 0 0
-0.0224665 0.1129677 -0.0165694 255 0 0
-0.0201777 0.1129678 -0.0165693 255 0 0
-0.0178899 0.1129677 -0.0165694 255 0 0
-0.0156023 0.1129673 -0.0165697 255 0 0
-0.0133145 0.1129671 -0.0165700 255 0 0
-0.0110267 0.1129668 -0.0165702 255 0 0
-0.0087388 0.1129666 -0.0165704 255 0 0
-0.0064506 0.1129660 -0.0165706 255 0 0
-0.0041628 0.1129659 -0.0165708 255 0 0
-0.0018751 0.1129659 -0.0165710 255 0 0
0.0004119 0.1129667 -0.0165714 255 0 0
0.0026993 0.1129676 -0.0165717 255 0 0
0.0049877 0.1129681 -0.0165717 255 0 0
0.0072757 0.1129673 -0.0165720 255 0 0
0.0095636 0.1129673 -0.0165724 255 0 0
0.0118522 0.1129706 -0.0165736 255 0 0
0.0141406 0.1129713 -0.0165756 255 0 0
0.0164290 0.1129713 -0.0165785 255 0 0
-0.0956745 0.1152659 -0.0165774 255 0 0
-0.0933868 0.1152705 -0.0165726 255 0 0
-0.0910990 0.1152758 -0.0165730 255 0 0
-0.0888112 0.1152783 -0.0165736 255 0 0
-0.0865234 0.1152772 -0.0165739 255 0 0
-0.0842356 0.1152757 -0.0165744 255 0 0
-0.0819478 0.1152756 -0.0165749 255 0 0
-0.0796601 0.1152760 -0.0165752 255 0 0
-0.0773723 0.1152748 -0.0165754 255 0 0
-0.0750845 0.1152729 -0.0165738 255 0 0
-0.0727967 0.1152713 -0.0165719 255 0 0
-0.0705089 0.1152655 -0.0165687 255 0 0
-0.0682212 0.1152623 -0.0165667 255 0 0
-0.0659334 0.1152644 -0.0165675 255 0 0
-0.0636456 0.1152660 -0.0165678 255 0 0
-0.0613578 0.1152662 -0.0165677 255 0 0
-0.0590700 0.1152666 -0.0165675 255 0 0
-0.0567822 0.1152666 -0.0165671 255 0 0
-0.0544945 0.1152663 -0.0165664 255 0 0
-0.0522067 0.1152660 -0.0165653 255 0 0
-0.0499189 0.1152643 -0.0165643 255 0 0
-0.0476311 0.1152624 -0.0165633 255 0 0
-0.0453433 0.1152617 -0.0165635 255 0 0
-0.0430556 0.1152608 -0.0165637 255 0 0
-0.0407678 0.1152606 -0.0165640 255 0 0
-0.0384800 0.1152603 -0.0165643 255 0 0
-0.0361922 0.1152599 -0.0165645 255 0 0
-0.0339044 0.1152597 -0.0165648 255 0 0
-0.0316167 0.1152596 -0.0165651 255 0 0
-0.0293288 0.1152595 -0.0165654 255 0 0
-0.0270410 0.1152594 -0.0165656 255 0 0
-0.0247533 0.1152587 -0.0165663 255 0 0
-0.0224669 0.1152581 -0.0165668 255 0 0
-0.0201777 0.1152582 -0.0165667 255 0 0
-0.0178899 0.1152582 -0.0165668 255 0 0
-0.0156023 0.1152580 -0.0165670 255 0 0
-0.0133145 0.1152578 -0.0165672 255 0 0
-0.0110266 0.1152578 -0.0165674 255 0 0
-0.0087388 0.1152578 -0.0165675 255 0 0
-0.0064506 0.1152578 -0.0165677 255 0 0
-0.0041628 0.1152579 -0.0165680 255 0 0
-0.0018750 0.1152574 -0.0165681 255 0 0
0.0004118 0.1152561 -0.0165685 255 0 0
0.0026993 0.1152564 -0.0165690 255 0 0
0.0049878 0.1152563 -0.0165691 255 0 0
0.0072761 0.1152564 -0.0165698 255 0 0
0.0095644 0.1152597 -0.0165708 255 0 0
0.0118523 0.1152590 -0.0165726 255 0 0
0.0141413 0.1152613 -0.0165747 255 0 0
-0.0933868 0.1175568 -0.0165791 255 0 0
-0.0910990 0.1175587 -0.0165761 255 0 0
-0.0888112 0.1175593 -0.0165723 255 0 0
-0.0865234 0.1175616 -0.0165731 255 0 0
-0.0842356 0.1175632 -0.0165733 255 0 0
-0.0819478 0.1175632 -0.0165735 255 0 0
-0.0796601 0.1175631 -0.0165734 255 0 0
-0.0773723 0.1175617 -0.0165726 255 0 0
-0.0750845 0.1175591 -0.0165711 255 0 0
-0.0727967 0.1175568 -0.0165691 255 0 0
-0.0705089 0.1175543 -0.0165673 255 0 0
-0.0682212 0.1175532 -0.0165665 255 0 0
-0.0659334 0.1175546 -0.0165670 255 0 0
-0.0636456 0.1175562 -0.0165673 255 0 0
-0.0613578 0.1175566 -0.0165673 255 0 0
-0.0590700 0.1175566 -0.0165668 255 0 0
-0.0567822 0.1175559 -0.0165659 255 0 0
-0.0544945 0.1175550 -0.0165647 255 0 0
-0.0522067 0.1175538 -0.0165636 255 0 0
-0.0499189 0.1175525 -0.0165629 255 0 0
-0.0476311 0.1175520 -0.0165625 255 0 0
-0.0453433 0.1175513 -0.0165627 255 0 0
-0.0430556 0.1175512 -0.0165629 255 0 0
-0.0407678 0.1175511 -0.0165631 255 0 0
-0.0384800 0.1175509 -0.0165633 255 0 0
-0.0361922 0.1175507 -0.0165636 255 0 0
-0.0339044 0.1175504 -0.0165638 255 0 0
-0.0316167 0.1175501 -0.0165641 255 0 0
-0.0293288 0.1175499 -0.0165644 255 0 0
-0.0270409 0.1175497 -0.0165646 255 0 0
-0.0247533 0.1175489 -0.0165650 255 0 0
-0.0224669 0.1175484 -0.0165653 255 0 0
-0.0201777 0.1175483 -0.0165653 255 0 0
-0.0178899 0.1175482 -0.0165653 255 0 0
-0.0156022 0.1175480 -0.0165655 255 0 0
-0.0133144 0.1175478 -0.0165657 255 0 0
-0.0110265 0.1175476 -0.0165658 255 0 0
-0.0087387 0.1175473 -0.0165660 255 0 0
-0.0064505 0.1175470 -0.0165662 255 0 0
-0.0041628 0.1175465 -0.0165665 255 0 0
-0.0018749 0.1175471 -0.0165668 255 0 0
0.0004117 0.1175462 -0.0165674 255 0 0
0.0026989 0.1175460 -0.0165682 255 0 0
0.0049878 0.1175447 -0.0165689 255 0 0
0.0072761 0.1175466 -0.0165707 255 0 0
0.0095645 0.1175472 -0.0165733 255 0 0
0.0118528 0.1175484 -0.0165797 255 0 0
0.0141410 0.1175502 -0.0165831 255 0 0
-0.0933868 0.1198434 -0.0165814 255 0 0
-0.0910990 0.1198440 -0.0165768 255 0 0
-0.0888112 0.1198444 -0.0165741 255 0 0
-0.0865234 0.1198491 -0.0165737 255 0 0
-0.0842356 0.1198500 -0.0165717 255 0 0
-0.0819478 0.1198496 -0.0165710 255 0 0
-0.0796601 0.1198493 -0.0165702 255 0 0
-0.0773723 0.1198492 -0.0165693 255 0 0
-0.0750845 0.1198466 -0.0165676 255 0 0
-0.0727967 0.1198442 -0.0165656 255 0 0
-0.0705089 0.1198424 -0.0165649 255 0 0
-0.0682212 0.1198422 -0.0165647 255 0 0
-0.0659334 0.1198432 -0.0165651 255 0 0
-0.0636456 0.1198441 -0.0165652 255 0 0
-0.0613578 0.1198449 -0.0165654 255 0 0
-0.0590700 0.1198445 -0.0165649 255 0 0
-0.0567822 0.1198438 -0.0165637 255 0 0
-0.0544945 0.1198423 -0.0165627 255 0 0
-0.0522067 0.1198418 -0.0165619 255 0 0
-0.0499189 0.1198406 -0.0165613 255 0 0
-0.0476312 0.1198404 -0.0165613 255 0 0
-0.0453434 0.1198400 -0.0165615 255 0 0
-0.0430556 0.1198405 -0.0165616 255 0 0
-0.0407678 0.1198405 -0.0165618 255 0 0
-0.0384800 0.1198404 -0.0165621 255 0 0
-0.0361922 0.1198401 -0.0165625 255 0 0
-0.0339044 0.1198400 -0.0165628 255 0 0
-0.0316167 0.1198399 -0.0165631 255 0 0
-0.0293288 0.1198397 -0.0165633 255 0 0
-0.0270408 0.1198395 -0.0165636 255 0 0
-0.0247533 0.1198381 -0.0165639 255 0 0
-0.0224668 0.1198375 -0.0165641 255 0 0
-0.0201777 0.1198376 -0.0165641 255 0 0
-0.0178898 0.1198375 -0.0165642 255 0 0
-0.0156021 0.1198372 -0.0165643 255 0 0
-0.0133142 0.1198369 -0.0165644 255 0 0
-0.0110264 0.1198368 -0.0165646 255 0 0
-0.0087384 0.1198364 -0.0165648 255 0 0
-0.0064504 0.1198364 -0.0165651 255 0 0
-0.0041626 0.1198361 -0.0165656 255 0 0
-0.0018747 0.1198365 -0.0165662 255 0 0
0.0004117 0.1198358 -0.0165670 255 0 0
0.0026989 0.1198359 -0.0165683 255 0 0
0.0049881 0.1198365 -0.0165696 255 0 0
0.0072765 0.1198364 -0.0165719 255 0 0
0.0095645 0.1198375 -0.0165791 255 0 0
0.0118530 0.1198371 -0.0165823 255 0 0
-0.0910990 0.1221340 -0.0165783 255 0 0
-0.0888112 0.1221335 -0.0165752 255 0 0
-0.0865235 0.1221360 -0.0165736 255 0 0
-0.0842358 0.1221374 -0.0165685 255 0 0
-0.0819480 0.1221369 -0.0165675 255 0 0
-0.0796602 0.1221378 -0.0165663 255 0 0
-0.0773724 0.1221368 -0.0165650 255 0 0
-0.0750845 0.1221357 -0.0165632 255 0 0
-0.0727967 0.1221340 -0.0165615 255 0 0
-0.0705090 0.1221327 -0.0165611 255 0 0
-0.0682212 0.1221318 -0.0165609 255 0 0
-0.0659334 0.1221330 -0.0165611 255 0 0
-0.0636456 0.1221338 -0.0165612 255 0 0
-0.0613578 0.1221348 -0.0165613 255 0 0
-0.0590700 0.1221348 -0.0165613 255 0 0
-0.0567822 0.1221344 -0.0165608 255 0 0
-0.0544945 0.1221341 -0.0165604 255 0 0
-0.0522067 0.1221336 -0.0165597 255 0 0
-0.0499190 0.1221327 -0.0165595 255 0 0
-0.0476312 0.1221323 -0.0165594 255 0 0
-0.0453435 0.1221319 -0.0165595 255 0 0
-0.0430557 0.1221316 -0.0165598 255 0 0
-0.0407679 0.1221316 -0.0165602 255 0 0
-0.0384801 0.1221314 -0.0165605 255 0 0
-0.0361922 0.1221314 -0.0165610 255 0 0
-0.0339044 0.1221311 -0.0165614 255 0 0
-0.0316167 0.1221309 -0.0165619 255 0 0
-0.0293288 0.1221309 -0.0165623 255 0 0
-0.0270408 0.1221309 -0.0165627 255 0 0
-0.0247533 0.1221306 -0.0165629 255 0 0
-0.0224667 0.1221300 -0.0165631 255 0 0
-0.0201776 0.1221296 -0.0165632 255 0 0
-0.0178897 0.1221296 -0.0165633 255 0 0
-0.0156019 0.1221294 -0.0165634 255 0 0
-0.0133140 0.1221295 -0.0165638 255 0 0
-0.0110261 0.1221297 -0.0165640 255 0 0
-0.0087380 0.1221298 -0.0165644 255 0 0
-0.0064501 0.1221300 -0.0165648 255 0 0
-0.0041624 0.1221302 -0.0165654 255 0 0
-0.0018745 0.1221297 -0.0165663 255 0 0
0.0004118 0.1221276 -0.0165675 255 0 0
0.0026989 0.1221271 -0.0165692 255 0 0
0.0049883 0.1221279 -0.0165740 255 0 0
0.0072767 0.1221275 -0.0165776 255 0 0
0.0095652 0.1221284 -0.0165809 255 0 0
-0.0888113 0.1244216 -0.0165769 255 0 0
-0.0865237 0.1244225 -0.0165743 255 0 0
-0.0842359 0.1244234 -0.0165704 255 0 0
-0.0819482 0.1244257 -0.0165659 255 0 0
-0.0796604 0.1244247 -0.0165645 255 0 0
-0.0773726 0.1244250 -0.0165634 255 0 0
-0.0750847 0.1244247 -0.0165617 255 0 0
-0.0727965 0.1244256 -0.0165596 255 0 0
-0.0705090 0.1244241 -0.0165597 255 0 0
-0.0682213 0.1244241 -0.0165598 255 0 0
-0.0659334 0.1244254 -0.0165596 255 0 0
-0.0636456 0.1244255 -0.0165598 255 0 0
-0.0613578 0.1244266 -0.0165600 255 0 0
-0.0590700 0.1244270 -0.0165602 255 0 0
-0.0567823 0.1244278 -0.0165602 255 0 0
-0.0544945 0.1244275 -0.0165598 255 0 0
-0.0522068 0.1244267 -0.0165593 255 0 0
-0.0499190 0.1244247 -0.0165585 255 0 0
-0.0476313 0.1244232 -0.0165576 255 0 0
-0.0453436 0.1244228 -0.0165577 255 0 0
-0.0430559 0.1244221 -0.0165581 255 0 0
-0.0407680 0.1244219 -0.0165586 255 0 0
-0.0384802 0.1244218 -0.0165593 255 0 0
-0.0361924 0.1244218 -0.0165602 255 0 0
-0.0339045 0.1244217 -0.0165611 255 0 0
-0.0316167 0.1244219 -0.0165616 255 0 0
-0.0293287 0.1244218 -0.0165622 255 0 0
-0.0270407 0.1244222 -0.0165627 255 0 0
-0.0247533 0.1244210 -0.0165630 255 0 0
-0.0224666 0.1244202 -0.0165633 255 0 0
-0.0201775 0.1244200 -0.0165631 255 0 0
-0.0178895 0.1244197 -0.0165631 255 0 0
-0.0156016 0.1244186 -0.0165633 255 0 0
-0.0133137 0.1244186 -0.0165638 255 0 0
-0.0110256 0.1244191 -0.0165644 255 0 0
-0.0087375 0.1244197 -0.0165650 255 0 0
-0.0064495 0.1244205 -0.0165656 255 0 0
-0.0041619 0.1244211 -0.0165666 255 0 0
-0.0018734 0.1244202 -0.0165676 255 0 0
0.0004120 0.1244179 -0.0165731 255 0 0
0.0026990 0.1244154 -0.0165756 255 0 0
0.0049887 0.1244168 -0.0165775 255 0 0
0.0072773 0.1244161 -0.0165795 255 0 0
-0.0865238 0.1267112 -0.0165769 255 0 0
-0.0842362 0.1267117 -0.0165741 255 0 0
-0.0819485 0.1267157 -0.0165700 255 0 0
-0.0796609 0.1267130 -0.0165659 255 0 0
-0.0773733 0.1267164 -0.0165657 255 0 0
-0.0750850 0.1267180 -0.0165631 255 0 0
-0.0727963 0.1267225 -0.0165591 255 0 0
-0.0705091 0.1267237 -0.0165606 255 0 0
-0.0682215 0.1267225 -0.0165616 255 0 0
-0.0659334 0.1267244 -0.0165608 255 0 0
-0.0636455 0.1267256 -0.0165606 255 0 0
-0.0613578 0.1267263 -0.0165612 255 0 0
-0.0590701 0.1267264 -0.0165616 255 0 0
-0.0567823 0.1267268 -0.0165616 255 0 0
-0.0544946 0.1267260 -0.0165611 255 0 0
-0.0522069 0.1267236 -0.0165597 255 0 0
-0.0499193 0.1267208 -0.0165571 255 0 0
-0.0476316 0.1267176 -0.0165545 255 0 0
-0.0453440 0.1267160 -0.0165548 255 0 0
-0.0430562 0.1267163 -0.0165554 255 0 0
-0.0407683 0.1267166 -0.0165561 255 0 0
-0.0384804 0.1267166 -0.0165575 255 0 0
-0.0361925 0.1267161 -0.0165596 255 0 0
-0.0339046 0.1267160 -0.0165613 255 0 0
-0.0316167 0.1267158 -0.0165625 255 0 0
-0.0293287 0.1267170 -0.0165633 255 0 0
-0.0270406 0.1267174 -0.0165638 255 0 0
-0.0247533 0.1267162 -0.0165642 255 0 0
-0.0224665 0.1267153 -0.0165645 255 0 0
-0.0201773 0.1267158 -0.0165641 255 0 0
-0.0178891 0.1267155 -0.0165640 255 0 0
-0.0156012 0.1267107 -0.0165641 255 0 0
-0.0133130 0.1267114 -0.0165645 255 0 0
-0.0110247 0.1267125 -0.0165656 255 0 0
-0.0087362 0.1267139 -0.0165663 255 0 0
-0.0064480 0.1267148 -0.0165696 255 0 0
-0.0041606 0.1267146 -0.0165729 255 0 0
-0.0018725 0.1267134 -0.0165744 255 0 0
0.0004122 0.1267098 -0.0165771 255 0 0
0.0026989 0.1267042 -0.0165790 255 0 0
0.0049888 0.1267076 -0.0165801 255 0 0
-0.0842365 0.1290030 -0.0165773 255 0 0
-0.0819492 0.1290035 -0.0165754 255 0 0
-0.0796623 0.1290067 -0.0165774 255 0 0
-0.0773753 0.1290096 -0.0165802 255 0 0
-0.0750863 0.1290120 -0.0165715 255 0 0
-0.0727960 0.1290176 -0.0165576 255 0 0
-0.0705092 0.1290154 -0.0165612 255 0 0
-0.0682217 0.1290123 -0.0165637 255 0 0
-0.0659334 0.1290141 -0.0165615 255 0 0
-0.0636454 0.1290145 -0.0165608 255 0 0
-0.0613577 0.1290143 -0.0165622 255 0 0
-0.0590700 0.1290147 -0.0165627 255 0 0
-0.0567823 0.1290143 -0.0165624 255 0 0
-0.0544947 0.1290142 -0.0165609 255 0 0
-0.0522071 0.1290116 -0.0165575 255 0 0
-0.0499198 0.1290091 -0.0165509 255 0 0
-0.0476325 0.1290041 -0.0165439 255 0 0
-0.0453449 0.1290029 -0.0165454 255 0 0
-0.0430574 0.1290031 -0.0165472 255 0 0
-0.0407692 0.1290037 -0.0165486 255 0 0
-0.0384812 0.1290036 -0.0165519 255 0 0
-0.0361929 0.1290025 -0.0165575 255 0 0
-0.0339048 0.1290037 -0.0165614 255 0 0
-0.0316168 0.1290033 -0.0165636 255 0 0
-0.0293288 0.1290041 -0.0165651 255 0 0
-0.0270405 0.1290049 -0.0165659 255 0 0
-0.0247534 0.1290039 -0.0165664 255 0 0
-0.0224664 0.1290028 -0.0165666 255 0 0
-0.0201769 0.1290034 -0.0165672 255 0 0
-0.0178883 0.1290022 -0.0165686 255 0 0
-0.0156001 0.1289998 -0.0165685 255 0 0
-0.0133112 0.1290003 -0.0165701 255 0 0
-0.0110219 0.1290037 -0.0165714 255 0 0
-0.0087324 0.1290067 -0.0165722 255 0 0
-0.0064407 0.1290099 -0.0165734 255 0 0
-0.0041545 0.1290075 -0.0165755 255 0 0
-0.0018696 0.1290050 -0.0165773 255 0 0
0.0004127 0.1290005 -0.0165809 255 0 0
-0.0796687 0.1313050 -0.0166026 255 0 0
-0.0773861 0.1313192 -0.0166205 255 0 0
-0.0751416 0.1313019 -0.0168646 255 0 0
-0.0728289 0.1313847 -0.0166529 255 0 0
-0.0705217 0.1313468 -0.0165824 255 0 0
-0.0682259 0.1313106 -0.0165822 255 0 0
-0.0659354 0.1313089 -0.0165731 255 0 0
-0.0636461 0.1313075 -0.0165673 255 0 0
-0.0613583 0.1313058 -0.0165673 255 0 0
-0.0590708 0.1313045 -0.0165636 255 0 0
-0.0567833 0.1313024 -0.0165558 255 0 0
-0.0544964 0.1313001 -0.0165390 255 0 0
-0.0522119 0.1313005 -0.0164874 255 0 0
-0.0499288 0.1312786 -0.0164231 255 0 0
-0.0476470 0.1312501 -0.0163610 255 0 0
-0.0453569 0.1312857 -0.0164241 255 0 0
-0.0430660 0.1312973 -0.0165049 255 0 0
-0.0407815 0.1312992 -0.0164132 255 0 0
-0.0384980 0.1312974 -0.0163969 255 0 0
-0.0362023 0.1312992 -0.0164826 255 0 0
-0.0339089 0.1312982 -0.0165312 255 0 0
-0.0316185 0.1312968 -0.0165514 255 0 0
-0.0293287 0.1312959 -0.0165639 255 0 0
-0.0270387 0.1312980 -0.0165702 255 0 0
-0.0247471 0.1312969 -0.0165782 255 0 0
-0.0224545 0.1313096 -0.0165826 255 0 0
-0.0201607 0.1313213 -0.0165781 255 0 0
-0.0178575 0.1313480 -0.0165711 255 0 0
-0.0155623 0.1313562 -0.0165694 255 0 0
-0.0132235 0.1314090 -0.0165531 255 0 0
-0.0111154 0.1311380 -0.0165995 255 0 0
-0.0088133 0.1311630 -0.0165965 255 0 0
-0.0063900 0.1313745 -0.0165625 255 0 0
-0.0041427 0.1313129 -0.0165759 255 0 0
-0.0704946 0.1335452 -0.0164991 255 0 0
-0.0682199 0.1335758 -0.0165583 255 0 0
-0.0659314 0.1335908 -0.0165633 255 0 0
-0.0636444 0.1335984 -0.0165691 255 0 0
-0.0613568 0.1335984 -0.0165752 255 0 0
-0.0590687 0.1335953 -0.0165844 255 0 0
-0.0567805 0.1335210 -0.0165963 255 0 0
-0.0544912 0.1335208 -0.0166214 255 0 0
-0.0521991 0.1335267 -0.0166915 255 0 0
-0.0499052 0.1335610 -0.0167810 255 0 0
-0.0476073 0.1335856 -0.0168836 255 0 0
-0.0430686 0.1336001 -0.0166033 255 0 0
-0.0407469 0.1335600 -0.0168239 255 0 0
-0.0384494 0.1335350 -0.0168623 255 0 0
-0.0361759 0.1335834 -0.0167288 255 0 0
-0.0338965 0.1335897 -0.0166441 255 0 0
-0.0316131 0.1335882 -0.0166117 255 0 0
-0.0293285 0.1335891 -0.0165921 255 0 0
-0.0270434 0.1335853 -0.0165840 255 0 0
-0.0247676 0.1335728 -0.0165682 255 0 0
-0.0224915 0.1335072 -0.0165600 255 0 0
-0.0202114 0.1334896 -0.0165661 255 0 0
-0.0179584 0.1334364 -0.0165800 255 0 0
-0.0156820 0.1334296 -0.0165833 255 0 0
-0.0134869 0.1333624 -0.0166096 255 0 0
-0.0476311 0.0328985 -0.0143081 255 0 0
-0.0247533 0.0329004 -0.0143089 255 0 0
-0.0224655 0.0329012 -0.0143089 255 0 0
-0.0613578 0.0351878 -0.0143085 255 0 0
-0.0590700 0.0351870 -0.0143083 255 0 0
-0.0567822 0.0351867 -0.0143082 255 0 0
-0.0544945 0.0351863 -0.0143082 255 0 0
-0.0522067 0.0351859 -0.0143082 255 0 0
-0.0499189 0.0351857 -0.0143083 255 0 0
-0.0476311 0.0351855 -0.0143083 255 0 0
-0.0453433 0.0351850 -0.0143085 255 0 0
-0.0430556 0.0351853 -0.0143087 255 0 0
-0.0407678 0.0351853 -0.0143086 255 0 0
-0.0384800 0.0351853 -0.0143086 255 0 0
-0.0361922 0.0351853 -0.0143086 255 0 0
-0.0339044 0.0351853 -0.0143087 255 0 0
-0.0316167 0.0351856 -0.0143087 255 0 0
-0.0293289 0.0351862 -0.0143088 255 0 0
-0.0270411 0.0351866 -0.0143089 255 0 0
-0.0247533 0.0351870 -0.0143087 255 0 0
-0.0224655 0.0351872 -0.0143087 255 0 0
-0.0201778 0.0351870 -0.0143087 255 0 0
-0.0178900 0.0351872 -0.0143087 255 0 0
-0.0156022 0.0351877 -0.0143087 255 0 0
-0.0133144 0.0351881 -0.0143088 255 0 0
-0.0659334 0.0374755 -0.0143089 255 0 0
-0.0636456 0.0374753 -0.0143086 255 0 0
-0.0613578 0.0374749 -0.0143084 255 0 0
-0.0590700 0.0374747 -0.0143083 255 0 0
-0.0567822 0.0374742 -0.0143082 255 0 0
-0.0544945 0.0374739 -0.0143083 255 0 0
-0.0522067 0.0374738 -0.0143098 255 0 0
-0.0499189 0.0374736 -0.0143104 255 0 0
-0.0476311 0.0374733 -0.0143105 255 0 0
-0.0453433 0.0374733 -0.0143107 255 0 0
-0.0430556 0.0374733 -0.0143108 255 0 0
-0.0407678 0.0374734 -0.0143107 255 0 0
-0.0384800 0.0374735 -0.0143107 255 0 0
-0.0361922 0.0374735 -0.0143107 255 0 0
-0.0339044 0.0374735 -0.0143107 255 0 0
-0.0316167 0.0374735 -0.0143107 255 0 0
-0.0293289 0.0374736 -0.0143107 255 0 0
-0.0270411 0.0374739 -0.0143107 255 0 0
-0.0247533 0.0374741 -0.0143086 255 0 0
-0.0224655 0.0374744 -0.0143085 255 0 0
-0.0201778 0.0374745 -0.0143085 255 0 0
-0.0178900 0.0374746 -0.0143085 255 0 0
-0.0156022 0.0374749 -0.0143086 255 0 0
-0.0133144 0.0374748 -0.0143087 255 0 0
-0.0110266 0.0374751 -0.0143087 255 0 0
-0.0682212 0.0397628 -0.0143110 255 0 0
-0.0659334 0.0397627 -0.0143105 255 0 0
-0.0636456 0.0397624 -0.0143086 255 0 0
-0.0613578 0.0397619 -0.0143085 255 0 0
-0.0590700 0.0397617 -0.0143084 255 0 0
-0.0567822 0.0397612 -0.0143101 255 0 0
-0.0544945 0.0397612 -0.0143102 255 0 0
-0.0522067 0.0397609 -0.0143104 255 0 0
-0.0499189 0.0397604 -0.0143107 255 0 0
-0.0476311 0.0397602 -0.0143108 255 0 0
-0.0453433 0.0397601 -0.0143111 255 0 0
-0.0430556 0.0397600 -0.0143112 255 0 0
-0.0407678 0.0397601 -0.0143111 255 0 0
-0.0384800 0.0397603 -0.0143110 255 0 0
-0.0361922 0.0397605 -0.0143110 255 0 0
-0.0339044 0.0397605 -0.0143110 255 0 0
-0.0316167 0.0397605 -0.0143110 255 0 0
-0.0293289 0.0397605 -0.0143109 255 0 0
-0.0270411 0.0397605 -0.0143109 255 0 0
-0.0247533 0.0397606 -0.0143104 255 0 0
-0.0224655 0.0397608 -0.0143089 255 0 0
-0.0201778 0.0397609 -0.0143084 255 0 0
-0.0178900 0.0397611 -0.0143085 255 0 0
-0.0156022 0.0397613 -0.0143085 255 0 0
-0.0133144 0.0397617 -0.0143086 255 0 0
-0.0110267 0.0397617 -0.0143093 255 0 0
-0.0087389 0.0397616 -0.0143104 255 0 0
-0.0727967 0.0420505 -0.0143092 255 0 0
-0.0705089 0.0420495 -0.0143109 255 0 0
-0.0682212 0.0420483 -0.0143109 255 0 0
-0.0659334 0.0420480 -0.0143110 255 0 0
-0.0636456 0.0420478 -0.0143111 255 0 0
-0.0613578 0.0420476 -0.0143112 255 0 0
-0.0590700 0.0420474 -0.0143114 255 0 0
-0.0567822 0.0420474 -0.0143116 255 0 0
-0.0544945 0.0420473 -0.0143117 255 0 0
-0.0522067 0.0420471 -0.0143119 255 0 0
-0.0499189 0.0420469 -0.0143120 255 0 0
-0.0476311 0.0420467 -0.0143120 255 0 0
-0.0453433 0.0420466 -0.0143121 255 0 0
-0.0430556 0.0420465 -0.0143121 255 0 0
-0.0407678 0.0420465 -0.0143120 255 0 0
-0.0384800 0.0420465 -0.0143120 255 0 0
-0.0361922 0.0420464 -0.0143119 255 0 0
-0.0339044 0.0420463 -0.0143119 255 0 0
-0.0316167 0.0420462 -0.0143119 255 0 0
-0.0293289 0.0420463 -0.0143118 255 0 0
-0.0270411 0.0420464 -0.0143118 255 0 0
-0.0247533 0.0420466 -0.0143115 255 0 0
-0.0224655 0.0420463 -0.0143113 255 0 0
-0.0201778 0.0420464 -0.0143112 255 0 0
-0.0178900 0.0420467 -0.0143110 255 0 0
-0.0156022 0.0420471 -0.0143107 255 0 0
-0.0133144 0.0420469 -0.0143104 255 0 0
-0.0110267 0.0420468 -0.0143102 255 0 0
-0.0087391 0.0420458 -0.0143092 255 0 0
-0.0064583 0.0420411 -0.0143104 255 0 0
-0.0750845 0.0443381 -0.0143090 255 0 0
-0.0727967 0.0443376 -0.0143090 255 0 0
-0.0705089 0.0443361 -0.0143107 255 0 0
-0.0682212 0.0443352 -0.0143111 255 0 0
-0.0659334 0.0443349 -0.0143114 255 0 0
-0.0636456 0.0443348 -0.0143116 255 0 0
-0.0613578 0.0443346 -0.0143119 255 0 0
-0.0590700 0.0443347 -0.0143122 255 0 0
-0.0567822 0.0443345 -0.0143123 255 0 0
-0.0544945 0.0443345 -0.0143125 255 0 0
-0.0522067 0.0443346 -0.0143126 255 0 0
-0.0499189 0.0443345 -0.0143127 255 0 0
-0.0476311 0.0443345 -0.0143132 255 0 0
-0.0453433 0.0443342 -0.0143130 255 0 0
-0.0430556 0.0443340 -0.0143127 255 0 0
-0.0407678 0.0443340 -0.0143127 255 0 0
-0.0384800 0.0443339 -0.0143126 255 0 0
-0.0361922 0.0443338 -0.0143126 255 0 0
-0.0339044 0.0443338 -0.0143125 255 0 0
-0.0316167 0.0443337 -0.0143125 255 0 0
-0.0293289 0.0443337 -0.0143124 255 0 0
-0.0270411 0.0443336 -0.0143124 255 0 0
-0.0247533 0.0443335 -0.0143121 255 0 0
-0.0224655 0.0443334 -0.0143119 255 0 0
-0.0201778 0.0443335 -0.0143118 255 0 0
-0.0178900 0.0443338 -0.0143115 255 0 0
-0.0156022 0.0443338 -0.0143111 255 0 0
-0.0133145 0.0443338 -0.0143107 255 0 0
-0.0110268 0.0443329 -0.0143103 255 0 0
-0.0087394 0.0443320 -0.0143101 255 0 0
-0.0064605 0.0443188 -0.0143103 255 0 0
-0.0041928 0.0442710 -0.0143109 255 0 0
-0.0773723 0.0466247 -0.0143085 255 0 0
-0.0750845 0.0466241 -0.0143086 255 0 0
-0.0727967 0.0466237 -0.0143086 255 0 0
-0.0705089 0.0466223 -0.0143109 255 0 0
-0.0682212 0.0466217 -0.0143114 255 0 0
-0.0659334 0.0466217 -0.0143115 255 0 0
-0.0636456 0.0466216 -0.0143116 255 0 0
-0.0613578 0.0466216 -0.0143119 255 0 0
-0.0590700 0.0466217 -0.0143121 255 0 0
-0.0567822 0.0466217 -0.0143122 255 0 0
-0.0544945 0.0466218 -0.0143123 255 0 0
-0.0522067 0.0466217 -0.0143124 255 0 0
-0.0499189 0.0466217 -0.0143130 255 0 0
-0.0476311 0.0466216 -0.0143134 255 0 0
