ply
format ascii 1.0
element vertex 1229
property float x
property float y
property float z
property uchar red
property uchar green
property uchar blue
end_header
-0.0316167 0.0466320 0.0268668 255 0 0
-0.0293289 0.0466320 0.0268667 255 0 0
-0.0270411 0.0466319 0.0268667 255 0 0
-0.0247533 0.0466318 0.0268666 255 0 0
-0.0224655 0.0466317 0.0268665 255 0 0
-0.0201777 0.0466314 0.0268665 255 0 0
-0.0178900 0.0466312 0.0268664 255 0 0
-0.0156022 0.0466309 0.0268662 255 0 0
-0.0133144 0.0466310 0.0268661 255 0 0
-0.0110266 0.0466314 0.0268660 255 0 0
-0.0087389 0.0466320 0.0268657 255 0 0
-0.0064487 0.0466327 0.0268654 255 0 0
-0.0727967 0.0489188 0.0268659 255 0 0
-0.0705089 0.0489198 0.0268662 255 0 0
-0.0682212 0.0489198 0.0268665 255 0 0
-0.0659334 0.0489198 0.0268665 255 0 0
-0.0636456 0.0489198 0.0268665 255 0 0
-0.0613578 0.0489198 0.0268666 255 0 0
-0.0590700 0.0489198 0.0268666 255 0 0
-0.0567822 0.0489198 0.0268666 255 0 0
-0.0544945 0.0489198 0.0268667 255 0 0
-0.0522067 0.0489198 0.0268667 255 0 0
-0.0499189 0.0489198 0.0268667 255 0 0
-0.0476311 0.0489198 0.0268668 255 0 0
-0.0453433 0.0489198 0.0268668 255 0 0
-0.0430556 0.0489198 0.0268668 255 0 0
-0.0407678 0.0489198 0.0268668 255 0 0
-0.0384800 0.0489198 0.0268668 255 0 0
-0.0361922 0.0489198 0.0268668 255 0 0
-0.0339044 0.0489198 0.0268667 255 0 0
-0.0316167 0.0489198 0.0268667 255 0 0
-0.0293289 0.0489198 0.0268667 255 0 0
-0.0270411 0.0489197 0.0268667 255 0 0
-0.0247533 0.0489197 0.0268666 255 0 0
-0.0224655 0.0489196 0.0268666 255 0 0
-0.0201777 0.0489195 0.0268666 255 0 0
-0.0178900 0.0489194 0.0268665 255 0 0
-0.0156022 0.0489192 0.0268664 255 0 0
-0.0133144 0.0489194 0.0268663 255 0 0
-0.0110267 0.0489198 0.0268660 255 0 0
-0.0087389 0.0489206 0.0268657 255 0 0
-0.0064483 0.0489221 0.0268652 255 0 0
-0.0041578 0.0489205 0.0268657 255 0 0
-0.0750845 0.0512065 0.0268659 255 0 0
-0.0727967 0.0512074 0.0268661 255 0 0
-0.0705089 0.0512076 0.0268664 255 0 0
-0.0682212 0.0512076 0.0268665 255 0 0
-0.0659334 0.0512076 0.0268666 255 0 0
-0.0636456 0.0512076 0.0268666 255 0 0
-0.0613578 0.0512076 0.0268667 255 0 0
-0.0590700 0.0512076 0.0268668 255 0 0
-0.0567822 0.0512076 0.0268668 255 0 0
-0.0544945 0.0512076 0.0268668 255 0 0
-0.0522067 0.0512076 0.0268668 255 0 0
-0.0499189 0.0512076 0.0268668 255 0 0
-0.0476311 0.0512076 0.0268668 255 0 0
-0.0453433 0.0512076 0.0268668 255 0 0
-0.0430556 0.0512076 0.0268668 255 0 0
-0.0407678 0.0512076 0.0268668 255 0 0
-0.0384800 0.0512076 0.0268668 255 0 0
-0.0361922 0.0512076 0.0268668 255 0 0
-0.0339044 0.0512076 0.0268668 255 0 0
-0.0316167 0.0512076 0.0268668 255 0 0
-0.0293289 0.0512075 0.0268668 255 0 0
-0.0270411 0.0512075 0.0268668 255 0 0
-0.0247533 0.0512075 0.0268667 255 0 0
-0.0224655 0.0512075 0.0268667 255 0 0
-0.0201778 0.0512074 0.0268667 255 0 0
-0.0178900 0.0512074 0.0268666 255 0 0
-0.0156022 0.0512073 0.0268665 255 0 0
-0.0133145 0.0512076 0.0268663 255 0 0
-0.0110268 0.0512081 0.0268661 255 0 0
-0.0087382 0.0512094 0.0268657 255 0 0
-0.0064468 0.0512065 0.0268650 255 0 0
-0.0041520 0.0511990 0.0268706 255 0 0
-0.0773723 0.0534943 0.0268659 255 0 0
-0.0750845 0.0534952 0.0268660 255 0 0
-0.0727967 0.0534954 0.0268662 255 0 0
-0.0705089 0.0534954 0.0268665 255 0 0
-0.0682212 0.0534954 0.0268667 255 0 0
-0.0659334 0.0534954 0.0268667 255 0 0
-0.0636456 0.0534954 0.0268667 255 0 0
-0.0613578 0.0534954 0.0268667 255 0 0
-0.0590700 0.0534954 0.0268667 255 0 0
-0.0567822 0.0534954 0.0268668 255 0 0
-0.0544945 0.0534954 0.0268668 255 0 0
-0.0522067 0.0534954 0.0268668 255 0 0
-0.0499189 0.0534954 0.0268668 255 0 0
-0.0476311 0.0534954 0.0268668 255 0 0
-0.0453433 0.0534954 0.0268668 255 0 0
-0.0430556 0.0534954 0.0268668 255 0 0
-0.0407678 0.0534954 0.0268668 255 0 0
-0.0384800 0.0534954 0.0268668 255 0 0
-0.0361922 0.0534954 0.0268668 255 0 0
-0.0339044 0.0534954 0.0268668 255 0 0
-0.0316167 0.0534954 0.0268668 255 0 0
-0.0293289 0.0534953 0.0268668 255 0 0
-0.0270411 0.0534953 0.0268669 255 0 0
-0.0247533 0.0534953 0.0268667 255 0 0
-0.0224655 0.0534953 0.0268667 255 0 0
-0.0201778 0.0534953 0.0268667 255 0 0
-0.0178900 0.0534953 0.0268667 255 0 0
-0.0156022 0.0534953 0.0268666 255 0 0
-0.0133145 0.0534956 0.0268665 255 0 0
-0.0110268 0.0534963 0.0268662 255 0 0
-0.0087385 0.0534978 0.0268657 255 0 0
-0.0064471 0.0534913 0.0268648 255 0 0
-0.0041513 0.0534854 0.0268697 255 0 0
-0.0018380 0.0534838 0.0268787 255 0 0
-0.0773723 0.0557828 0.0268660 255 0 0
-0.0750845 0.0557831 0.0268661 255 0 0
-0.0727967 0.0557831 0.0268664 255 0 0
-0.0705089 0.0557831 0.0268665 255 0 0
-0.0682212 0.0557831 0.0268668 255 0 0
-0.0659334 0.0557831 0.0268668 255 0 0
-0.0636456 0.0557831 0.0268668 255 0 0
-0.0613578 0.0557831 0.0268668 255 0 0
-0.0590700 0.0557831 0.0268668 255 0 0
-0.0567822 0.0557831 0.0268668 255 0 0
-0.0544945 0.0557831 0.0268668 255 0 0
-0.0522067 0.0557831 0.0268668 255 0 0
-0.0499189 0.0557831 0.0268668 255 0 0
-0.0476311 0.0557831 0.0268668 255 0 0
-0.0453433 0.0557831 0.0268668 255 0 0
-0.0430556 0.0557831 0.0268668 255 0 0
-0.0407678 0.0557831 0.0268668 255 0 0
-0.0384800 0.0557831 0.0268668 255 0 0
-0.0361922 0.0557831 0.0268668 255 0 0
-0.0339044 0.0557831 0.0268668 255 0 0
-0.0316167 0.0557831 0.0268668 255 0 0
-0.0293289 0.0557831 0.0268669 255 0 0
-0.0270411 0.0557831 0.0268669 255 0 0
-0.0247533 0.0557831 0.0268668 255 0 0
-0.0224655 0.0557831 0.0268668 255 0 0
-0.0201778 0.0557831 0.0268668 255 0 0
-0.0178900 0.0557832 0.0268668 255 0 0
-0.0156022 0.0557833 0.0268667 255 0 0
-0.0133145 0.0557836 0.0268666 255 0 0
-0.0110269 0.0557842 0.0268663 255 0 0
-0.0087393 0.0557858 0.0268659 255 0 0
-0.0064487 0.0557819 0.0268648 255 0 0
-0.0041541 0.0557577 0.0268641 255 0 0
-0.0018436 0.0557673 0.0268665 255 0 0
0.0004069 0.0557204 0.0268485 255 0 0
-0.0796601 0.0580700 0.0268659 255 0 0
-0.0773723 0.0580709 0.0268662 255 0 0
-0.0750845 0.0580709 0.0268662 255 0 0
-0.0727967 0.0580709 0.0268665 255 0 0
-0.0705089 0.0580709 0.0268666 255 0 0
-0.0682212 0.0580709 0.0268667 255 0 0
-0.0659334 0.0580709 0.0268667 255 0 0
-0.0636456 0.0580709 0.0268667 255 0 0
-0.0613578 0.0580709 0.0268667 255 0 0
-0.0590700 0.0580709 0.0268668 255 0 0
-0.0567822 0.0580709 0.0268668 255 0 0
-0.0544945 0.0580709 0.0268668 255 0 0
-0.0522067 0.0580709 0.0268668 255 0 0
-0.0499189 0.0580709 0.0268668 255 0 0
-0.0476311 0.0580709 0.0268668 255 0 0
-0.0453433 0.0580709 0.0268668 255 0 0
-0.0430556 0.0580709 0.0268668 255 0 0
-0.0407678 0.0580709 0.0268668 255 0 0
-0.0384800 0.0580709 0.0268668 255 0 0
-0.0361922 0.0580709 0.0268668 255 0 0
-0.0339044 0.0580709 0.0268668 255 0 0
-0.0316167 0.0580709 0.0268668 255 0 0
-0.0293289 0.0580709 0.0268669 255 0 0
-0.0270411 0.0580709 0.0268669 255 0 0
-0.0247533 0.0580709 0.0268668 255 0 0
-0.0224655 0.0580709 0.0268668 255 0 0
-0.0201778 0.0580709 0.0268668 255 0 0
-0.0178900 0.0580710 0.0268667 255 0 0
-0.0156022 0.0580711 0.0268667 255 0 0
-0.0133145 0.0580714 0.0268666 255 0 0
-0.0110269 0.0580720 0.0268664 255 0 0
-0.0087394 0.0580733 0.0268660 255 0 0
-0.0064502 0.0580742 0.0268652 255 0 0
-0.0041576 0.0580612 0.0268635 255 0 0
-0.0018521 0.0580649 0.0268602 255 0 0
0.0004070 0.0580197 0.0268656 255 0 0
0.0026813 0.0580257 0.0268635 255 0 0
-0.0796601 0.0603586 0.0268661 255 0 0
-0.0773723 0.0603587 0.0268663 255 0 0
-0.0750845 0.0603587 0.0268664 255 0 0
-0.0727967 0.0603587 0.0268665 255 0 0
-0.0705089 0.0603587 0.0268666 255 0 0
-0.0682212 0.0603587 0.0268668 255 0 0
-0.0659334 0.0603587 0.0268668 255 0 0
-0.0636456 0.0603587 0.0268668 255 0 0
-0.0613578 0.0603587 0.0268668 255 0 0
-0.0590700 0.0603587 0.0268668 255 0 0
-0.0567822 0.0603587 0.0268668 255 0 0
-0.0544945 0.0603587 0.0268668 255 0 0
-0.0522067 0.0603587 0.0268668 255 0 0
-0.0499189 0.0603587 0.0268668 255 0 0
-0.0476311 0.0603587 0.0268668 255 0 0
-0.0453433 0.0603587 0.0268668 255 0 0
-0.0430556 0.0603587 0.0268668 255 0 0
-0.0407678 0.0603587 0.0268668 255 0 0
-0.0384800 0.0603587 0.0268668 255 0 0
-0.0361922 0.0603587 0.0268668 255 0 0
-0.0339044 0.0603587 0.0268668 255 0 0
-0.0316167 0.0603587 0.0268668 255 0 0
-0.0293289 0.0603587 0.0268668 255 0 0
-0.0270411 0.0603587 0.0268668 255 0 0
-0.0247533 0.0603587 0.0268668 255 0 0
-0.0224655 0.0603587 0.0268668 255 0 0
-0.0201777 0.0603587 0.0268668 255 0 0
-0.0178900 0.0603587 0.0268668 255 0 0
-0.0156022 0.0603588 0.0268667 255 0 0
-0.0133145 0.0603591 0.0268666 255 0 0
-0.0110268 0.0603596 0.0268664 255 0 0
-0.0087393 0.0603606 0.0268661 255 0 0
-0.0064505 0.0603625 0.0268657 255 0 0
-0.0041606 0.0603647 0.0268646 255 0 0
-0.0018612 0.0603583 0.0268591 255 0 0
0.0004022 0.0603426 0.0268714 255 0 0
0.0026795 0.0603325 0.0268746 255 0 0
0.0050077 0.0603256 0.0268702 255 0 0
-0.0819478 0.0626465 0.0268661 255 0 0
-0.0796601 0.0626465 0.0268662 255 0 0
-0.0773723 0.0626465 0.0268663 255 0 0
-0.0750845 0.0626465 0.0268665 255 0 0
-0.0727967 0.0626465 0.0268666 255 0 0
-0.0705089 0.0626465 0.0268667 255 0 0
-0.0682212 0.0626465 0.0268668 255 0 0
-0.0659334 0.0626465 0.0268668 255 0 0
-0.0636456 0.0626465 0.0268668 255 0 0
-0.0613578 0.0626465 0.0268668 255 0 0
-0.0590700 0.0626465 0.0268668 255 0 0
-0.0567822 0.0626465 0.0268668 255 0 0
-0.0544945 0.0626465 0.0268668 255 0 0
-0.0522067 0.0626465 0.0268668 255 0 0
-0.0499189 0.0626465 0.0268668 255 0 0
-0.0476311 0.0626465 0.0268668 255 0 0
-0.0453433 0.0626465 0.0268668 255 0 0
-0.0430556 0.0626465 0.0268668 255 0 0
-0.0407678 0.0626465 0.0268668 255 0 0
-0.0384800 0.0626465 0.0268668 255 0 0
-0.0361922 0.0626465 0.0268668 255 0 0
-0.0339044 0.0626465 0.0268668 255 0 0
-0.0316167 0.0626465 0.0268668 255 0 0
-0.0293289 0.0626465 0.0268668 255 0 0
-0.0270411 0.0626465 0.0268669 255 0 0
-0.0247533 0.0626465 0.0268668 255 0 0
-0.0224655 0.0626465 0.0268668 255 0 0
-0.0201777 0.0626465 0.0268668 255 0 0
-0.0178900 0.0626466 0.0268668 255 0 0
-0.0156022 0.0626467 0.0268667 255 0 0
-0.0133145 0.0626468 0.0268667 255 0 0
-0.0110268 0.0626471 0.0268666 255 0 0
-0.0087391 0.0626477 0.0268664 255 0 0
-0.0064507 0.0626486 0.0268660 255 0 0
-0.0041605 0.0626501 0.0268656 255 0 0
-0.0018674 0.0626584 0.0268631 255 0 0
0.0004068 0.0626248 0.0268697 255 0 0
0.0026881 0.0626156 0.0268732 255 0 0
0.0049962 0.0626278 0.0268685 255 0 0
-0.0819478 0.0649343 0.0268662 255 0 0
-0.0796601 0.0649343 0.0268664 255 0 0
-0.0773723 0.0649343 0.0268665 255 0 0
-0.0750845 0.0649343 0.0268665 255 0 0
-0.0727967 0.0649343 0.0268666 255 0 0
-0.0705089 0.0649343 0.0268667 255 0 0
-0.0682212 0.0649343 0.0268668 255 0 0
-0.0659334 0.0649343 0.0268668 255 0 0
-0.0636456 0.0649343 0.0268668 255 0 0
-0.0613578 0.0649343 0.0268668 255 0 0
-0.0590700 0.0649343 0.0268668 255 0 0
-0.0567822 0.0649343 0.0268668 255 0 0
-0.0544945 0.0649343 0.0268668 255 0 0
-0.0522067 0.0649343 0.0268668 255 0 0
-0.0499189 0.0649343 0.0268668 255 0 0
-0.0476311 0.0649343 0.0268668 255 0 0
-0.0453433 0.0649343 0.0268668 255 0 0
-0.0430556 0.0649343 0.0268668 255 0 0
-0.0407678 0.0649343 0.0268668 255 0 0
-0.0384800 0.0649343 0.0268668 255 0 0
-0.0361922 0.0649343 0.0268668 255 0 0
-0.0339044 0.0649343 0.0268668 255 0 0
-0.0316167 0.0649343 0.0268668 255 0 0
-0.0293289 0.0649343 0.0268668 255 0 0
-0.0270411 0.0649343 0.0268668 255 0 0
-0.0247533 0.0649343 0.0268668 255 0 0
-0.0224655 0.0649343 0.0268667 255 0 0
-0.0201778 0.0649343 0.0268668 255 0 0
-0.0178900 0.0649343 0.0268668 255 0 0
-0.0156022 0.0649344 0.0268667 255 0 0
-0.0133145 0.0649345 0.0268666 255 0 0
-0.0110267 0.0649346 0.0268666 255 0 0
-0.0087390 0.0649348 0.0268665 255 0 0
-0.0064513 0.0649349 0.0268664 255 0 0
-0.0041618 0.0649345 0.0268664 255 0 0
-0.0018714 0.0649360 0.0268659 255 0 0
0.0004105 0.0649243 0.0268683 255 0 0
0.0026954 0.0649185 0.0268694 255 0 0
0.0049893 0.0649253 0.0268676 255 0 0
0.0072777 0.0649286 0.0268671 255 0 0
-0.0842356 0.0672220 0.0268661 255 0 0
-0.0819478 0.0672220 0.0268664 255 0 0
-0.0796601 0.0672220 0.0268665 255 0 0
-0.0773723 0.0672220 0.0268665 255 0 0
-0.0750845 0.0672220 0.0268667 255 0 0
-0.0727967 0.0672220 0.0268668 255 0 0
-0.0705089 0.0672220 0.0268669 255 0 0
-0.0682212 0.0672220 0.0268669 255 0 0
-0.0659334 0.0672220 0.0268669 255 0 0
-0.0636456 0.0672220 0.0268669 255 0 0
-0.0613578 0.0672220 0.0268669 255 0 0
-0.0590700 0.0672220 0.0268669 255 0 0
-0.0567822 0.0672220 0.0268669 255 0 0
-0.0544945 0.0672220 0.0268669 255 0 0
-0.0522067 0.0672220 0.0268669 255 0 0
-0.0499189 0.0672220 0.0268669 255 0 0
-0.0476311 0.0672220 0.0268669 255 0 0
-0.0453433 0.0672220 0.0268668 255 0 0
-0.0430556 0.0672220 0.0268668 255 0 0
-0.0407678 0.0672220 0.0268668 255 0 0
-0.0384800 0.0672220 0.0268668 255 0 0
-0.0361922 0.0672220 0.0268669 255 0 0
-0.0339044 0.0672220 0.0268669 255 0 0
-0.0316167 0.0672220 0.0268669 255 0 0
-0.0293289 0.0672220 0.0268669 255 0 0
-0.0270411 0.0672220 0.0268669 255 0 0
-0.0247533 0.0672220 0.0268669 255 0 0
-0.0224655 0.0672220 0.0268668 255 0 0
-0.0201778 0.0672220 0.0268669 255 0 0
-0.0178900 0.0672220 0.0268669 255 0 0
-0.0156022 0.0672220 0.0268669 255 0 0
-0.0133144 0.0672221 0.0268668 255 0 0
-0.0110267 0.0672223 0.0268668 255 0 0
-0.0087389 0.0672222 0.0268667 255 0 0
-0.0064512 0.0672223 0.0268666 255 0 0
-0.0041634 0.0672222 0.0268666 255 0 0
-0.0018742 0.0672230 0.0268663 255 0 0
0.0004113 0.0672178 0.0268674 255 0 0
0.0026976 0.0672151 0.0268679 255 0 0
0.0049871 0.0672180 0.0268670 255 0 0
0.0072753 0.0672194 0.0268666 255 0 0
-0.0865234 0.0695098 0.0268660 255 0 0
-0.0842356 0.0695098 0.0268663 255 0 0
-0.0819478 0.0695098 0.0268664 255 0 0
-0.0796601 0.0695098 0.0268666 255 0 0
-0.0773723 0.0695098 0.0268667 255 0 0
-0.0750845 0.0695098 0.0268667 255 0 0
-0.0727967 0.0695098 0.0268668 255 0 0
-0.0705089 0.0695098 0.0268668 255 0 0
-0.0682212 0.0695098 0.0268668 255 0 0
-0.0659334 0.0695098 0.0268668 255 0 0
-0.0636456 0.0695098 0.0268668 255 0 0
-0.0613578 0.0695098 0.0268668 255 0 0
-0.0590700 0.0695098 0.0268668 255 0 0
-0.0567822 0.0695098 0.0268668 255 0 0
-0.0544945 0.0695098 0.0268668 255 0 0
-0.0522067 0.0695098 0.0268668 255 0 0
-0.0499189 0.0695098 0.0268668 255 0 0
-0.0476311 0.0695098 0.0268668 255 0 0
-0.0453433 0.0695098 0.0268668 255 0 0
-0.0430556 0.0695098 0.0268668 255 0 0
-0.0407678 0.0695098 0.0268668 255 0 0
-0.0384800 0.0695098 0.0268668 255 0 0
-0.0361922 0.0695098 0.0268668 255 0 0
-0.0339044 0.0695098 0.0268668 255 0 0
-0.0316167 0.0695098 0.0268668 255 0 0
-0.0293289 0.0695098 0.0268668 255 0 0
-0.0270411 0.0695098 0.0268668 255 0 0
-0.0247533 0.0695098 0.0268668 255 0 0
-0.0224655 0.0695098 0.0268668 255 0 0
-0.0201778 0.0695098 0.0268668 255 0 0
-0.0178900 0.0695098 0.0268668 255 0 0
-0.0156022 0.0695098 0.0268668 255 0 0
-0.0133144 0.0695098 0.0268668 255 0 0
-0.0110267 0.0695098 0.0268668 255 0 0
-0.0087389 0.0695098 0.0268668 255 0 0
-0.0064511 0.0695100 0.0268668 255 0 0
-0.0041633 0.0695100 0.0268667 255 0 0
-0.0018758 0.0695103 0.0268666 255 0 0
0.0004119 0.0695090 0.0268669 255 0 0
0.0026995 0.0695083 0.0268668 255 0 0
0.0049881 0.0695088 0.0268666 255 0 0
0.0072758 0.0695091 0.0268664 255 0 0
-0.0865234 0.0717976 0.0268661 255 0 0
-0.0842356 0.0717976 0.0268664 255 0 0
-0.0819478 0.0717976 0.0268665 255 0 0
-0.0796601 0.0717976 0.0268666 255 0 0
-0.0773723 0.0717976 0.0268666 255 0 0
-0.0750845 0.0717976 0.0268667 255 0 0
-0.0727967 0.0717976 0.0268667 255 0 0
-0.0705089 0.0717976 0.0268667 255 0 0
-0.0682212 0.0717976 0.0268667 255 0 0
-0.0659334 0.0717976 0.0268667 255 0 0
-0.0636456 0.0717976 0.0268667 255 0 0
-0.0613578 0.0717976 0.0268667 255 0 0
-0.0590700 0.0717976 0.0268667 255 0 0
-0.0567822 0.0717976 0.0268667 255 0 0
-0.0544945 0.0717976 0.0268667 255 0 0
-0.0522067 0.0717976 0.0268667 255 0 0
-0.0499189 0.0717976 0.0268667 255 0 0
-0.0476311 0.0717976 0.0268667 255 0 0
-0.0453433 0.0717976 0.0268667 255 0 0
-0.0430556 0.0717976 0.0268667 255 0 0
-0.0407678 0.0717976 0.0268667 255 0 0
-0.0384800 0.0717976 0.0268667 255 0 0
-0.0361922 0.0717976 0.0268667 255 0 0
-0.0339044 0.0717976 0.0268668 255 0 0
-0.0316167 0.0717976 0.0268668 255 0 0
-0.0293289 0.0717976 0.0268668 255 0 0
-0.0270411 0.0717976 0.0268668 255 0 0
-0.0247533 0.0717976 0.0268668 255 0 0
-0.0224655 0.0717976 0.0268667 255 0 0
-0.0201778 0.0717976 0.0268668 255 0 0
-0.0178900 0.0717976 0.0268668 255 0 0
-0.0156022 0.0717976 0.0268668 255 0 0
-0.0133144 0.0717976 0.0268668 255 0 0
-0.0110266 0.0717976 0.0268668 255 0 0
-0.0087389 0.0717976 0.0268667 255 0 0
-0.0064511 0.0717976 0.0268667 255 0 0
-0.0041633 0.0717976 0.0268667 255 0 0
-0.0018755 0.0717978 0.0268666 255 0 0
0.0004120 0.0717969 0.0268668 255 0 0
0.0026996 0.0717964 0.0268667 255 0 0
0.0049880 0.0717969 0.0268666 255 0 0
0.0072757 0.0717971 0.0268663 255 0 0
0.0095635 0.0717971 0.0268662 255 0 0
-0.0888112 0.0740854 0.0268660 255 0 0
-0.0865234 0.0740854 0.0268662 255 0 0
-0.0842356 0.0740854 0.0268664 255 0 0
-0.0819478 0.0740854 0.0268666 255 0 0
-0.0796601 0.0740854 0.0268666 255 0 0
-0.0773723 0.0740854 0.0268667 255 0 0
-0.0750845 0.0740854 0.0268667 255 0 0
-0.0727967 0.0740854 0.0268667 255 0 0
-0.0705089 0.0740854 0.0268667 255 0 0
-0.0682212 0.0740854 0.0268667 255 0 0
-0.0659334 0.0740854 0.0268667 255 0 0
-0.0636456 0.0740854 0.0268667 255 0 0
-0.0613578 0.0740854 0.0268667 255 0 0
-0.0590700 0.0740854 0.0268667 255 0 0
-0.0567822 0.0740854 0.0268667 255 0 0
-0.0544945 0.0740854 0.0268667 255 0 0
-0.0522067 0.0740854 0.0268667 255 0 0
-0.0499189 0.0740854 0.0268667 255 0 0
-0.0476311 0.0740854 0.0268667 255 0 0
-0.0453433 0.0740854 0.0268667 255 0 0
-0.0430556 0.0740854 0.0268667 255 0 0
-0.0407678 0.0740854 0.0268667 255 0 0
-0.0384800 0.0740854 0.0268667 255 0 0
-0.0361922 0.0740854 0.0268667 255 0 0
-0.0339044 0.0740854 0.0268667 255 0 0
-0.0316167 0.0740854 0.0268667 255 0 0
-0.0293289 0.0740854 0.0268667 255 0 0
-0.0270411 0.0740854 0.0268668 255 0 0
-0.0247533 0.0740854 0.0268667 255 0 0
-0.0224655 0.0740854 0.0268667 255 0 0
-0.0201778 0.0740854 0.0268667 255 0 0
-0.0178900 0.0740854 0.0268667 255 0 0
-0.0156022 0.0740854 0.0268667 255 0 0
-0.0133144 0.0740854 0.0268667 255 0 0
-0.0110266 0.0740854 0.0268667 255 0 0
-0.0087388 0.0740854 0.0268667 255 0 0
-0.0064511 0.0740854 0.0268667 255 0 0
-0.0041633 0.0740854 0.0268667 255 0 0
-0.0018755 0.0740854 0.0268667 255 0 0
0.0004121 0.0740849 0.0268667 255 0 0
0.0026999 0.0740846 0.0268667 255 0 0
0.0049880 0.0740849 0.0268665 255 0 0
0.0072757 0.0740850 0.0268664 255 0 0
0.0095635 0.0740851 0.0268661 255 0 0
-0.0888112 0.0763732 0.0268661 255 0 0
-0.0865234 0.0763732 0.0268664 255 0 0
-0.0842356 0.0763732 0.0268664 255 0 0
-0.0819478 0.0763732 0.0268665 255 0 0
-0.0796601 0.0763732 0.0268666 255 0 0
-0.0773723 0.0763732 0.0268667 255 0 0
-0.0750845 0.0763732 0.0268667 255 0 0
-0.0727967 0.0763732 0.0268667 255 0 0
-0.0705089 0.0763732 0.0268667 255 0 0
-0.0682212 0.0763732 0.0268667 255 0 0
-0.0659334 0.0763732 0.0268667 255 0 0
-0.0636456 0.0763732 0.0268667 255 0 0
-0.0613578 0.0763732 0.0268667 255 0 0
-0.0590700 0.0763732 0.0268667 255 0 0
-0.0567822 0.0763732 0.0268668 255 0 0
-0.0544945 0.0763732 0.0268668 255 0 0
-0.0522067 0.0763732 0.0268668 255 0 0
-0.0499189 0.0763732 0.0268668 255 0 0
-0.0476311 0.0763732 0.0268668 255 0 0
-0.0453433 0.0763732 0.0268668 255 0 0
-0.0430556 0.0763732 0.0268668 255 0 0
-0.0407678 0.0763732 0.0268668 255 0 0
-0.0384800 0.0763732 0.0268668 255 0 0
-0.0361922 0.0763732 0.0268668 255 0 0
-0.0339044 0.0763732 0.0268668 255 0 0
-0.0316167 0.0763732 0.0268668 255 0 0
-0.0293289 0.0763732 0.0268668 255 0 0
-0.0270411 0.0763732 0.0268668 255 0 0
-0.0247533 0.0763732 0.0268668 255 0 0
-0.0224655 0.0763732 0.0268667 255 0 0
-0.0201778 0.0763732 0.0268668 255 0 0
-0.0178900 0.0763732 0.0268668 255 0 0
-0.0156022 0.0763732 0.0268668 255 0 0
-0.0133144 0.0763732 0.0268668 255 0 0
-0.0110266 0.0763732 0.0268667 255 0 0
-0.0087388 0.0763732 0.0268667 255 0 0
-0.0064511 0.0763732 0.0268667 255 0 0
-0.0041633 0.0763732 0.0268667 255 0 0
-0.0018755 0.0763732 0.0268667 255 0 0
0.0004122 0.0763729 0.0268667 255 0 0
0.0027001 0.0763727 0.0268666 255 0 0
0.0049879 0.0763729 0.0268665 255 0 0
0.0072757 0.0763729 0.0268664 255 0 0
0.0095634 0.0763729 0.0268661 255 0 0
-0.0910990 0.0786610 0.0268660 255 0 0
-0.0888112 0.0786610 0.0268662 255 0 0
-0.0865234 0.0786610 0.0268663 255 0 0
-0.0842356 0.0786610 0.0268666 255 0 0
-0.0819478 0.0786610 0.0268666 255 0 0
-0.0796601 0.0786610 0.0268666 255 0 0
-0.0773723 0.0786610 0.0268666 255 0 0
-0.0750845 0.0786610 0.0268667 255 0 0
-0.0727967 0.0786610 0.0268667 255 0 0
-0.0705089 0.0786610 0.0268667 255 0 0
-0.0682212 0.0786610 0.0268667 255 0 0
-0.0659334 0.0786610 0.0268667 255 0 0
-0.0636456 0.0786610 0.0268667 255 0 0
-0.0613578 0.0786610 0.0268667 255 0 0
-0.0590700 0.0786610 0.0268667 255 0 0
-0.0567822 0.0786610 0.0268667 255 0 0
-0.0544945 0.0786610 0.0268667 255 0 0
-0.0522067 0.0786610 0.0268667 255 0 0
-0.0499189 0.0786610 0.0268667 255 0 0
-0.0476311 0.0786610 0.0268667 255 0 0
-0.0453433 0.0786610 0.0268667 255 0 0
-0.0430556 0.0786610 0.0268667 255 0 0
-0.0407678 0.0786610 0.0268667 255 0 0
-0.0384800 0.0786610 0.0268667 255 0 0
-0.0361922 0.0786610 0.0268667 255 0 0
-0.0339044 0.0786610 0.0268667 255 0 0
-0.0316167 0.0786610 0.0268667 255 0 0
-0.0293289 0.0786610 0.0268667 255 0 0
-0.0270411 0.0786610 0.0268667 255 0 0
-0.0247533 0.0786610 0.0268667 255 0 0
-0.0224655 0.0786610 0.0268667 255 0 0
-0.0201778 0.0786610 0.0268667 255 0 0
-0.0178900 0.0786610 0.0268667 255 0 0
-0.0156022 0.0786610 0.0268667 255 0 0
-0.0133144 0.0786610 0.0268667 255 0 0
-0.0110266 0.0786610 0.0268667 255 0 0
-0.0087388 0.0786610 0.0268667 255 0 0
-0.0064511 0.0786610 0.0268667 255 0 0
-0.0041633 0.0786610 0.0268667 255 0 0
-0.0018755 0.0786610 0.0268667 255 0 0
0.0004123 0.0786609 0.0268667 255 0 0
0.0027001 0.0786607 0.0268666 255 0 0
0.0049879 0.0786608 0.0268665 255 0 0
0.0072756 0.0786610 0.0268663 255 0 0
0.0095634 0.0786610 0.0268663 255 0 0
0.0118512 0.0786610 0.0268660 255 0 0
-0.0910990 0.0809487 0.0268661 255 0 0
-0.0888112 0.0809487 0.0268664 255 0 0
-0.0865234 0.0809487 0.0268664 255 0 0
-0.0842356 0.0809487 0.0268665 255 0 0
-0.0819478 0.0809487 0.0268666 255 0 0
-0.0796601 0.0809487 0.0268667 255 0 0
-0.0773723 0.0809487 0.0268667 255 0 0
-0.0750845 0.0809487 0.0268667 255 0 0
-0.0727967 0.0809487 0.0268668 255 0 0
-0.0705089 0.0809487 0.0268668 255 0 0
-0.0682212 0.0809487 0.0268668 255 0 0
-0.0659334 0.0809487 0.0268668 255 0 0
-0.0636456 0.0809487 0.0268668 255 0 0
-0.0613578 0.0809487 0.0268668 255 0 0
-0.0590700 0.0809487 0.0268668 255 0 0
-0.0567822 0.0809487 0.0268668 255 0 0
-0.0544945 0.0809487 0.0268668 255 0 0
-0.0522067 0.0809487 0.0268668 255 0 0
-0.0499189 0.0809487 0.0268668 255 0 0
-0.0476311 0.0809487 0.0268668 255 0 0
-0.0453433 0.0809487 0.0268668 255 0 0
-0.0430556 0.0809487 0.0268668 255 0 0
-0.0407678 0.0809487 0.0268668 255 0 0
-0.0384800 0.0809487 0.0268668 255 0 0
-0.0361922 0.0809487 0.0268668 255 0 0
-0.0339044 0.0809487 0.0268668 255 0 0
-0.0316167 0.0809487 0.0268668 255 0 0
-0.0293289 0.0809487 0.0268668 255 0 0
-0.0270411 0.0809487 0.0268668 255 0 0
-0.0247533 0.0809487 0.0268668 255 0 0
-0.0224655 0.0809487 0.0268667 255 0 0
-0.0201778 0.0809487 0.0268668 255 0 0
-0.0178900 0.0809487 0.0268668 255 0 0
-0.0156022 0.0809487 0.0268668 255 0 0
-0.0133144 0.0809487 0.0268668 255 0 0
-0.0110266 0.0809487 0.0268668 255 0 0
-0.0087388 0.0809487 0.0268668 255 0 0
-0.0064511 0.0809487 0.0268668 255 0 0
-0.0041633 0.0809487 0.0268667 255 0 0
-0.0018755 0.0809487 0.0268667 255 0 0
0.0004123 0.0809487 0.0268667 255 0 0
0.0027001 0.0809487 0.0268665 255 0 0
0.0049879 0.0809487 0.0268665 255 0 0
0.0072756 0.0809487 0.0268664 255 0 0
0.0095634 0.0809487 0.0268663 255 0 0
0.0118512 0.0809487 0.0268661 255 0 0
-0.0933868 0.0832365 0.0268661 255 0 0
-0.0910990 0.0832365 0.0268662 255 0 0
-0.0888112 0.0832365 0.0268665 255 0 0
-0.0865234 0.0832365 0.0268666 255 0 0
-0.0842356 0.0832365 0.0268666 255 0 0
-0.0819478 0.0832365 0.0268666 255 0 0
-0.0796601 0.0832365 0.0268667 255 0 0
-0.0773723 0.0832365 0.0268667 255 0 0
-0.0750845 0.0832365 0.0268667 255 0 0
-0.0727967 0.0832365 0.0268667 255 0 0
-0.0705089 0.0832365 0.0268667 255 0 0
-0.0682212 0.0832365 0.0268667 255 0 0
-0.0659334 0.0832365 0.0268667 255 0 0
-0.0636456 0.0832365 0.0268667 255 0 0
-0.0613578 0.0832365 0.0268667 255 0 0
-0.0590700 0.0832365 0.0268667 255 0 0
-0.0567822 0.0832365 0.0268667 255 0 0
-0.0544945 0.0832365 0.0268667 255 0 0
-0.0522067 0.0832365 0.0268667 255 0 0
-0.0499189 0.0832365 0.0268667 255 0 0
-0.0476311 0.0832365 0.0268667 255 0 0
-0.0453433 0.0832365 0.0268667 255 0 0
-0.0430556 0.0832365 0.0268667 255 0 0
-0.0407678 0.0832365 0.0268667 255 0 0
-0.0384800 0.0832365 0.0268667 255 0 0
-0.0361922 0.0832365 0.0268667 255 0 0
-0.0339044 0.0832365 0.0268667 255 0 0
-0.0316167 0.0832365 0.0268667 255 0 0
-0.0293289 0.0832365 0.0268667 255 0 0
-0.0270411 0.0832365 0.0268668 255 0 0
-0.0247533 0.0832365 0.0268667 255 0 0
-0.0224655 0.0832365 0.0268667 255 0 0
-0.0201778 0.0832365 0.0268667 255 0 0
-0.0178900 0.0832365 0.0268667 255 0 0
-0.0156022 0.0832365 0.0268667 255 0 0
-0.0133144 0.0832365 0.0268667 255 0 0
-0.0110266 0.0832365 0.0268667 255 0 0
-0.0087388 0.0832365 0.0268667 255 0 0
-0.0064511 0.0832365 0.0268667 255 0 0
-0.0041633 0.0832365 0.0268667 255 0 0
-0.0018755 0.0832365 0.0268667 255 0 0
0.0004123 0.0832365 0.0268667 255 0 0
0.0027001 0.0832365 0.0268667 255 0 0
0.0049878 0.0832365 0.0268666 255 0 0
0.0072756 0.0832365 0.0268665 255 0 0
0.0095634 0.0832365 0.0268663 255 0 0
0.0118512 0.0832365 0.0268662 255 0 0
-0.0933868 0.0855243 0.0268662 255 0 0
-0.0910990 0.0855243 0.0268664 255 0 0
-0.0888112 0.0855243 0.0268665 255 0 0
-0.0865234 0.0855243 0.0268665 255 0 0
-0.0842356 0.0855243 0.0268667 255 0 0
-0.0819478 0.0855243 0.0268667 255 0 0
-0.0796601 0.0855243 0.0268667 255 0 0
-0.0773723 0.0855243 0.0268668 255 0 0
-0.0750845 0.0855243 0.0268668 255 0 0
-0.0727967 0.0855243 0.0268668 255 0 0
-0.0705089 0.0855243 0.0268668 255 0 0
-0.0682212 0.0855243 0.0268668 255 0 0
-0.0659334 0.0855243 0.0268668 255 0 0
-0.0636456 0.0855243 0.0268668 255 0 0
-0.0613578 0.0855243 0.0268668 255 0 0
-0.0590700 0.0855243 0.0268668 255 0 0
-0.0567822 0.0855243 0.0268668 255 0 0
-0.0544945 0.0855243 0.0268668 255 0 0
-0.0522067 0.0855243 0.0268668 255 0 0
-0.0499189 0.0855243 0.0268668 255 0 0
-0.0476311 0.0855243 0.0268668 255 0 0
-0.0453433 0.0855243 0.0268668 255 0 0
-0.0430556 0.0855243 0.0268668 255 0 0
-0.0407678 0.0855243 0.0268668 255 0 0
-0.0384800 0.0855243 0.0268668 255 0 0
-0.0361922 0.0855243 0.0268668 255 0 0
-0.0339044 0.0855243 0.0268668 255 0 0
-0.0316167 0.0855243 0.0268668 255 0 0
-0.0293289 0.0855243 0.0268668 255 0 0
-0.0270411 0.0855243 0.0268668 255 0 0
-0.0247533 0.0855243 0.0268668 255 0 0
-0.0224655 0.0855243 0.0268668 255 0 0
-0.0201778 0.0855243 0.0268668 255 0 0
-0.0178900 0.0855243 0.0268668 255 0 0
-0.0156022 0.0855243 0.0268668 255 0 0
-0.0133144 0.0855243 0.0268668 255 0 0
-0.0110266 0.0855243 0.0268668 255 0 0
-0.0087388 0.0855243 0.0268668 255 0 0
-0.0064511 0.0855243 0.0268668 255 0 0
-0.0041633 0.0855243 0.0268668 255 0 0
-0.0018755 0.0855243 0.0268668 255 0 0
0.0004123 0.0855243 0.0268668 255 0 0
0.0027001 0.0855243 0.0268667 255 0 0
0.0049878 0.0855243 0.0268666 255 0 0
0.0072756 0.0855243 0.0268665 255 0 0
0.0095634 0.0855243 0.0268664 255 0 0
0.0118512 0.0855243 0.0268663 255 0 0
0.0141390 0.0855243 0.0268661 255 0 0
-0.0933868 0.0878121 0.0268661 255 0 0
-0.0910990 0.0878121 0.0268664 255 0 0
-0.0888112 0.0878121 0.0268666 255 0 0
-0.0865234 0.0878121 0.0268666 255 0 0
-0.0842356 0.0878121 0.0268667 255 0 0
-0.0819478 0.0878121 0.0268667 255 0 0
-0.0796601 0.0878121 0.0268667 255 0 0
-0.0773723 0.0878121 0.0268667 255 0 0
-0.0750845 0.0878121 0.0268667 255 0 0
-0.0727967 0.0878121 0.0268667 255 0 0
-0.0705089 0.0878121 0.0268667 255 0 0
-0.0682212 0.0878121 0.0268667 255 0 0
-0.0659334 0.0878121 0.0268667 255 0 0
-0.0636456 0.0878121 0.0268667 255 0 0
-0.0613578 0.0878121 0.0268667 255 0 0
-0.0590700 0.0878121 0.0268667 255 0 0
-0.0567822 0.0878121 0.0268667 255 0 0
-0.0544945 0.0878121 0.0268667 255 0 0
-0.0522067 0.0878121 0.0268667 255 0 0
-0.0499189 0.0878121 0.0268667 255 0 0
-0.0476311 0.0878121 0.0268667 255 0 0
-0.0453433 0.0878121 0.0268667 255 0 0
-0.0430556 0.0878121 0.0268667 255 0 0
-0.0407678 0.0878121 0.0268667 255 0 0
-0.0384800 0.0878121 0.0268667 255 0 0
-0.0361922 0.0878121 0.0268667 255 0 0
-0.0339044 0.0878121 0.0268667 255 0 0
-0.0316167 0.0878121 0.0268667 255 0 0
-0.0293289 0.0878121 0.0268667 255 0 0
-0.0270411 0.0878121 0.0268667 255 0 0
-0.0247533 0.0878121 0.0268667 255 0 0
-0.0224655 0.0878121 0.0268667 255 0 0
-0.0201778 0.0878121 0.0268667 255 0 0
-0.0178900 0.0878121 0.0268667 255 0 0
-0.0156022 0.0878121 0.0268667 255 0 0
-0.0133144 0.0878121 0.0268667 255 0 0
-0.0110266 0.0878121 0.0268667 255 0 0
-0.0087388 0.0878121 0.0268667 255 0 0
-0.0064511 0.0878121 0.0268667 255 0 0
-0.0041633 0.0878121 0.0268667 255 0 0
-0.0018755 0.0878121 0.0268667 255 0 0
0.0004123 0.0878121 0.0268667 255 0 0
0.0027001 0.0878121 0.0268666 255 0 0
0.0049878 0.0878121 0.0268666 255 0 0
0.0072756 0.0878121 0.0268665 255 0 0
0.0095634 0.0878121 0.0268665 255 0 0
0.0118512 0.0878121 0.0268663 255 0 0
0.0141390 0.0878121 0.0268661 255 0 0
-0.0956745 0.0900999 0.0268660 255 0 0
-0.0933868 0.0900999 0.0268663 255 0 0
-0.0910990 0.0900999 0.0268665 255 0 0
-0.0888112 0.0900999 0.0268666 255 0 0
-0.0865234 0.0900999 0.0268666 255 0 0
-0.0842356 0.0900999 0.0268666 255 0 0
-0.0819478 0.0900999 0.0268667 255 0 0
-0.0796601 0.0900999 0.0268667 255 0 0
-0.0773723 0.0900999 0.0268667 255 0 0
-0.0750845 0.0900999 0.0268667 255 0 0
-0.0727967 0.0900999 0.0268667 255 0 0
-0.0705089 0.0900999 0.0268667 255 0 0
-0.0682212 0.0900999 0.0268666 255 0 0
-0.0659334 0.0900999 0.0268666 255 0 0
-0.0636456 0.0900999 0.0268666 255 0 0
-0.0613578 0.0900999 0.0268666 255 0 0
-0.0590700 0.0900999 0.0268666 255 0 0
-0.0567822 0.0900999 0.0268666 255 0 0
-0.0544945 0.0900999 0.0268666 255 0 0
-0.0522067 0.0900999 0.0268666 255 0 0
-0.0499189 0.0900999 0.0268666 255 0 0
-0.0476311 0.0900999 0.0268666 255 0 0
-0.0453433 0.0900999 0.0268666 255 0 0
-0.0430556 0.0900999 0.0268667 255 0 0
-0.0407678 0.0900999 0.0268667 255 0 0
-0.0384800 0.0900999 0.0268667 255 0 0
-0.0361922 0.0900999 0.0268667 255 0 0
-0.0339044 0.0900999 0.0268667 255 0 0
-0.0316167 0.0900999 0.0268667 255 0 0
-0.0293289 0.0900999 0.0268667 255 0 0
-0.0270411 0.0900999 0.0268667 255 0 0
-0.0247533 0.0900999 0.0268667 255 0 0
-0.0224655 0.0900999 0.0268666 255 0 0
-0.0201778 0.0900999 0.0268667 255 0 0
-0.0178900 0.0900999 0.0268667 255 0 0
-0.0156022 0.0900999 0.0268667 255 0 0
-0.0133144 0.0900999 0.0268667 255 0 0
-0.0110266 0.0900999 0.0268667 255 0 0
-0.0087388 0.0900999 0.0268667 255 0 0
-0.0064511 0.0900999 0.0268667 255 0 0
-0.0041633 0.0900999 0.0268666 255 0 0
-0.0018755 0.0900999 0.0268666 255 0 0
0.0004123 0.0900999 0.0268666 255 0 0
0.0027001 0.0900999 0.0268666 255 0 0
0.0049878 0.0900999 0.0268666 255 0 0
0.0072756 0.0900999 0.0268665 255 0 0
0.0095634 0.0900999 0.0268664 255 0 0
0.0118512 0.0900999 0.0268663 255 0 0
0.0141390 0.0900999 0.0268661 255 0 0
-0.0956745 0.0923876 0.0268661 255 0 0
-0.0933868 0.0923876 0.0268663 255 0 0
-0.0910990 0.0923876 0.0268665 255 0 0
-0.0888112 0.0923876 0.0268666 255 0 0
-0.0865234 0.0923876 0.0268666 255 0 0
-0.0842356 0.0923876 0.0268667 255 0 0
-0.0819478 0.0923876 0.0268667 255 0 0
-0.0796601 0.0923876 0.0268667 255 0 0
-0.0773723 0.0923876 0.0268667 255 0 0
-0.0750845 0.0923876 0.0268667 255 0 0
-0.0727967 0.0923876 0.0268667 255 0 0
-0.0705089 0.0923876 0.0268667 255 0 0
-0.0682212 0.0923876 0.0268667 255 0 0
-0.0659334 0.0923876 0.0268667 255 0 0
-0.0636456 0.0923876 0.0268667 255 0 0
-0.0613578 0.0923876 0.0268667 255 0 0
-0.0590700 0.0923876 0.0268667 255 0 0
-0.0567822 0.0923876 0.0268667 255 0 0
-0.0544945 0.0923876 0.0268667 255 0 0
-0.0522067 0.0923876 0.0268667 255 0 0
-0.0499189 0.0923876 0.0268667 255 0 0
-0.0476311 0.0923876 0.0268667 255 0 0
-0.0453433 0.0923876 0.0268667 255 0 0
-0.0430556 0.0923876 0.0268667 255 0 0
-0.0407678 0.0923876 0.0268667 255 0 0
-0.0384800 0.0923876 0.0268667 255 0 0
-0.0361922 0.0923876 0.0268667 255 0 0
-0.0339044 0.0923876 0.0268667 255 0 0
-0.0316167 0.0923876 0.0268667 255 0 0
-0.0293289 0.0923876 0.0268667 255 0 0
-0.0270411 0.0923876 0.0268667 255 0 0
-0.0247533 0.0923876 0.0268667 255 0 0
-0.0224655 0.0923876 0.0268667 255 0 0
-0.0201778 0.0923876 0.0268667 255 0 0
-0.0178900 0.0923876 0.0268667 255 0 0
-0.0156022 0.0923876 0.0268667 255 0 0
-0.0133144 0.0923876 0.0268667 255 0 0
-0.0110266 0.0923876 0.0268667 255 0 0
-0.0087388 0.0923876 0.0268667 255 0 0
-0.0064511 0.0923876 0.0268667 255 0 0
-0.0041633 0.0923876 0.0268667 255 0 0
-0.0018755 0.0923876 0.0268667 255 0 0
0.0004123 0.0923876 0.0268667 255 0 0
0.0027001 0.0923876 0.0268666 255 0 0
0.0049878 0.0923876 0.0268666 255 0 0
0.0072756 0.0923876 0.0268665 255 0 0
0.0095634 0.0923876 0.0268665 255 0 0
0.0118512 0.0923876 0.0268663 255 0 0
0.0141390 0.0923876 0.0268661 255 0 0
0.0164268 0.0923876 0.0268660 255 0 0
-0.0956745 0.0946754 0.0268661 255 0 0
-0.0933868 0.0946754 0.0268663 255 0 0
-0.0910990 0.0946754 0.0268666 255 0 0
-0.0888112 0.0946754 0.0268667 255 0 0
-0.0865234 0.0946754 0.0268667 255 0 0
-0.0842356 0.0946754 0.0268667 255 0 0
-0.0819478 0.0946754 0.0268667 255 0 0
-0.0796601 0.0946754 0.0268667 255 0 0
-0.0773723 0.0946754 0.0268667 255 0 0
-0.0750845 0.0946754 0.0268667 255 0 0
-0.0727967 0.0946754 0.0268667 255 0 0
-0.0705089 0.0946754 0.0268667 255 0 0
-0.0682212 0.0946754 0.0268667 255 0 0
-0.0659334 0.0946754 0.0268667 255 0 0
-0.0636456 0.0946754 0.0268667 255 0 0
-0.0613578 0.0946754 0.0268667 255 0 0
-0.0590700 0.0946754 0.0268667 255 0 0
-0.0567822 0.0946754 0.0268667 255 0 0
-0.0544945 0.0946754 0.0268667 255 0 0
-0.0522067 0.0946754 0.0268667 255 0 0
-0.0499189 0.0946754 0.0268667 255 0 0
-0.0476311 0.0946754 0.0268667 255 0 0
-0.0453433 0.0946754 0.0268667 255 0 0
-0.0430556 0.0946754 0.0268667 255 0 0
-0.0407678 0.0946754 0.0268667 255 0 0
-0.0384800 0.0946754 0.0268667 255 0 0
-0.0361922 0.0946754 0.0268667 255 0 0
-0.0339044 0.0946754 0.0268667 255 0 0
-0.0316167 0.0946754 0.0268667 255 0 0
-0.0293289 0.0946754 0.0268667 255 0 0
-0.0270411 0.0946754 0.0268667 255 0 0
-0.0247533 0.0946754 0.0268667 255 0 0
-0.0224655 0.0946754 0.0268667 255 0 0
-0.0201778 0.0946754 0.0268667 255 0 0
-0.0178900 0.0946754 0.0268667 255 0 0
-0.0156022 0.0946754 0.0268667 255 0 0
-0.0133144 0.0946754 0.0268667 255 0 0
-0.0110266 0.0946754 0.0268667 255 0 0
-0.0087388 0.0946754 0.0268667 255 0 0
-0.0064511 0.0946754 0.0268667 255 0 0
-0.0041633 0.0946754 0.0268667 255 0 0
-0.0018755 0.0946754 0.0268667 255 0 0
0.0004123 0.0946754 0.0268667 255 0 0
0.0027001 0.0946754 0.0268667 255 0 0
0.0049878 0.0946754 0.0268667 255 0 0
0.0072756 0.0946754 0.0268666 255 0 0
0.0095634 0.0946754 0.0268665 255 0 0
0.0118512 0.0946754 0.0268663 255 0 0
0.0141390 0.0946754 0.0268662 255 0 0
0.0164268 0.0946754 0.0268659 255 0 0
-0.0956745 0.0969632 0.0268661 255 0 0
-0.0933868 0.0969632 0.0268664 255 0 0
-0.0910990 0.0969632 0.0268665 255 0 0
-0.0888112 0.0969632 0.0268667 255 0 0
-0.0865234 0.0969632 0.0268667 255 0 0
-0.0842356 0.0969632 0.0268667 255 0 0
-0.0819478 0.0969632 0.0268667 255 0 0
-0.0796601 0.0969632 0.0268667 255 0 0
-0.0773723 0.0969632 0.0268667 255 0 0
-0.0750845 0.0969632 0.0268667 255 0 0
-0.0727967 0.0969632 0.0268667 255 0 0
-0.0705089 0.0969632 0.0268667 255 0 0
-0.0682212 0.0969632 0.0268667 255 0 0
-0.0659334 0.0969632 0.0268667 255 0 0
-0.0636456 0.0969632 0.0268667 255 0 0
-0.0613578 0.0969632 0.0268667 255 0 0
-0.0590700 0.0969632 0.0268667 255 0 0
-0.0567822 0.0969632 0.0268667 255 0 0
-0.0544945 0.0969632 0.0268667 255 0 0
-0.0522067 0.0969632 0.0268667 255 0 0
-0.0499189 0.0969632 0.0268667 255 0 0
-0.0476311 0.0969632 0.0268667 255 0 0
-0.0453433 0.0969632 0.0268668 255 0 0
-0.0430556 0.0969632 0.0268668 255 0 0
-0.0407678 0.0969632 0.0268668 255 0 0
-0.0384800 0.0969632 0.0268668 255 0 0
-0.0361922 0.0969632 0.0268668 255 0 0
-0.0339044 0.0969632 0.0268668 255 0 0
-0.0316167 0.0969632 0.0268668 255 0 0
-0.0293289 0.0969632 0.0268668 255 0 0
-0.0270411 0.0969632 0.0268668 255 0 0
-0.0247533 0.0969632 0.0268667 255 0 0
-0.0224655 0.0969632 0.0268667 255 0 0
-0.0201778 0.0969632 0.0268667 255 0 0
-0.0178900 0.0969632 0.0268667 255 0 0
-0.0156022 0.0969632 0.0268667 255 0 0
-0.0133144 0.0969632 0.0268667 255 0 0
-0.0110266 0.0969632 0.0268667 255 0 0
-0.0087388 0.0969632 0.0268667 255 0 0
-0.0064511 0.0969632 0.0268667 255 0 0
-0.0041633 0.0969632 0.0268667 255 0 0
-0.0018755 0.0969632 0.0268667 255 0 0
0.0004123 0.0969632 0.0268667 255 0 0
0.0027001 0.0969632 0.0268667 255 0 0
0.0049878 0.0969632 0.0268666 255 0 0
0.0072756 0.0969632 0.0268665 255 0 0
0.0095634 0.0969632 0.0268665 255 0 0
0.0118512 0.0969632 0.0268663 255 0 0
0.0141390 0.0969632 0.0268661 255 0 0
-0.0956745 0.0992510 0.0268662 255 0 0
-0.0933868 0.0992510 0.0268663 255 0 0
-0.0910990 0.0992509 0.0268665 255 0 0
-0.0888112 0.0992509 0.0268666 255 0 0
-0.0865234 0.0992509 0.0268666 255 0 0
-0.0842356 0.0992509 0.0268666 255 0 0
-0.0819478 0.0992510 0.0268667 255 0 0
-0.0796601 0.0992510 0.0268667 255 0 0
-0.0773723 0.0992510 0.0268667 255 0 0
-0.0750845 0.0992510 0.0268667 255 0 0
-0.0727967 0.0992510 0.0268667 255 0 0
-0.0705089 0.0992510 0.0268667 255 0 0
-0.0682212 0.0992510 0.0268667 255 0 0
-0.0659334 0.0992510 0.0268667 255 0 0
-0.0636456 0.0992510 0.0268667 255 0 0
-0.0613578 0.0992510 0.0268667 255 0 0
-0.0590700 0.0992510 0.0268667 255 0 0
-0.0567822 0.0992510 0.0268667 255 0 0
-0.0544945 0.0992510 0.0268667 255 0 0
-0.0522067 0.0992510 0.0268667 255 0 0
-0.0499189 0.0992510 0.0268667 255 0 0
-0.0476311 0.0992510 0.0268667 255 0 0
-0.0453433 0.0992510 0.0268667 255 0 0
-0.0430556 0.0992510 0.0268667 255 0 0
-0.0407678 0.0992510 0.0268667 255 0 0
-0.0384800 0.0992510 0.0268667 255 0 0
-0.0361922 0.0992510 0.0268667 255 0 0
-0.0339044 0.0992510 0.0268667 255 0 0
-0.0316167 0.0992510 0.0268667 255 0 0
-0.0293289 0.0992510 0.0268667 255 0 0
-0.0270411 0.0992510 0.0268667 255 0 0
-0.0247533 0.0992510 0.0268667 255 0 0
-0.0224655 0.0992510 0.0268667 255 0 0
-0.0201778 0.0992510 0.0268667 255 0 0
-0.0178900 0.0992510 0.0268667 255 0 0
-0.0156022 0.0992510 0.0268667 255 0 0
-0.0133144 0.0992510 0.0268667 255 0 0
-0.0110266 0.0992510 0.0268667 255 0 0
-0.0087388 0.0992510 0.0268667 255 0 0
-0.0064511 0.0992510 0.0268667 255 0 0
-0.0041633 0.0992510 0.0268667 255 0 0
-0.0018755 0.0992510 0.0268667 255 0 0
0.0004123 0.0992510 0.0268667 255 0 0
0.0027001 0.0992510 0.0268667 255 0 0
0.0049878 0.0992510 0.0268667 255 0 0
0.0072756 0.0992510 0.0268665 255 0 0
0.0095634 0.0992510 0.0268664 255 0 0
0.0118512 0.0992510 0.0268663 255 0 0
0.0141390 0.0992510 0.0268662 255 0 0
-0.0956745 0.1015387 0.0268661 255 0 0
-0.0933868 0.1015387 0.0268663 255 0 0
-0.0910990 0.1015387 0.0268665 255 0 0
-0.0888112 0.1015387 0.0268666 255 0 0
-0.0865234 0.1015387 0.0268666 255 0 0
-0.0842356 0.1015387 0.0268666 255 0 0
-0.0819478 0.1015387 0.0268667 255 0 0
-0.0796601 0.1015387 0.0268667 255 0 0
-0.0773723 0.1015388 0.0268667 255 0 0
-0.0750845 0.1015388 0.0268667 255 0 0
-0.0727967 0.1015388 0.0268667 255 0 0
-0.0705089 0.1015388 0.0268667 255 0 0
-0.0682212 0.1015388 0.0268667 255 0 0
-0.0659334 0.1015388 0.0268667 255 0 0
-0.0636456 0.1015388 0.0268667 255 0 0
-0.0613578 0.1015388 0.0268667 255 0 0
-0.0590700 0.1015388 0.0268667 255 0 0
-0.0567822 0.1015388 0.0268667 255 0 0
-0.0544945 0.1015388 0.0268667 255 0 0
-0.0522067 0.1015388 0.0268667 255 0 0
-0.0499189 0.1015388 0.0268667 255 0 0
-0.0476311 0.1015388 0.0268667 255 0 0
-0.0453433 0.1015388 0.0268667 255 0 0
-0.0430556 0.1015388 0.0268667 255 0 0
-0.0407678 0.1015388 0.0268667 255 0 0
-0.0384800 0.1015388 0.0268667 255 0 0
-0.0361922 0.1015388 0.0268667 255 0 0
-0.0339044 0.1015388 0.0268667 255 0 0
-0.0316167 0.1015388 0.0268667 255 0 0
-0.0293289 0.1015388 0.0268667 255 0 0
-0.0270411 0.1015388 0.0268667 255 0 0
-0.0247533 0.1015388 0.0268667 255 0 0
-0.0224655 0.1015388 0.0268667 255 0 0
-0.0201778 0.1015388 0.0268667 255 0 0
-0.0178900 0.1015388 0.0268667 255 0 0
-0.0156022 0.1015388 0.0268667 255 0 0
-0.0133144 0.1015388 0.0268667 255 0 0
-0.0110266 0.1015388 0.0268667 255 0 0
-0.0087388 0.1015388 0.0268667 255 0 0
-0.0064511 0.1015388 0.0268667 255 0 0
-0.0041633 0.1015388 0.0268667 255 0 0
-0.0018755 0.1015388 0.0268667 255 0 0
0.0004123 0.1015388 0.0268666 255 0 0
0.0027001 0.1015388 0.0268666 255 0 0
0.0049878 0.1015388 0.0268665 255 0 0
0.0072756 0.1015388 0.0268665 255 0 0
0.0095634 0.1015388 0.0268665 255 0 0
0.0118512 0.1015388 0.0268662 255 0 0
0.0141390 0.1015388 0.0268661 255 0 0
-0.0956746 0.1038265 0.0268661 255 0 0
-0.0933868 0.1038264 0.0268663 255 0 0
-0.0910990 0.1038264 0.0268664 255 0 0
-0.0888112 0.1038264 0.0268667 255 0 0
-0.0865235 0.1038264 0.0268667 255 0 0
-0.0842357 0.1038265 0.0268667 255 0 0
-0.0819479 0.1038265 0.0268667 255 0 0
-0.0796601 0.1038265 0.0268667 255 0 0
-0.0773723 0.1038265 0.0268667 255 0 0
-0.0750845 0.1038265 0.0268667 255 0 0
-0.0727967 0.1038265 0.0268667 255 0 0
-0.0705089 0.1038265 0.0268667 255 0 0
-0.0682212 0.1038265 0.0268667 255 0 0
-0.0659334 0.1038265 0.0268667 255 0 0
-0.0636456 0.1038265 0.0268667 255 0 0
-0.0613578 0.1038265 0.0268667 255 0 0
-0.0590700 0.1038265 0.0268667 255 0 0
-0.0567822 0.1038265 0.0268667 255 0 0
-0.0544945 0.1038265 0.0268667 255 0 0
-0.0522067 0.1038265 0.0268667 255 0 0
-0.0499189 0.1038265 0.0268667 255 0 0
-0.0476311 0.1038265 0.0268667 255 0 0
-0.0453433 0.1038265 0.0268667 255 0 0
-0.0430556 0.1038265 0.0268667 255 0 0
-0.0407678 0.1038265 0.0268667 255 0 0
-0.0384800 0.1038265 0.0268667 255 0 0
-0.0361922 0.1038265 0.0268667 255 0 0
-0.0339044 0.1038265 0.0268667 255 0 0
-0.0316167 0.1038265 0.0268667 255 0 0
-0.0293289 0.1038265 0.0268667 255 0 0
-0.0270411 0.1038265 0.0268667 255 0 0
-0.0247533 0.1038265 0.0268667 255 0 0
-0.0224655 0.1038265 0.0268667 255 0 0
-0.0201778 0.1038265 0.0268667 255 0 0
-0.0178900 0.1038265 0.0268667 255 0 0
-0.0156022 0.1038265 0.0268667 255 0 0
-0.0133144 0.1038265 0.0268667 255 0 0
-0.0110266 0.1038265 0.0268667 255 0 0
-0.0087388 0.1038265 0.0268667 255 0 0
-0.0064511 0.1038265 0.0268667 255 0 0
-0.0041633 0.1038265 0.0268667 255 0 0
-0.0018755 0.1038265 0.0268667 255 0 0
0.0004123 0.1038265 0.0268667 255 0 0
0.0027001 0.1038265 0.0268666 255 0 0
0.0049878 0.1038265 0.0268666 255 0 0
0.0072756 0.1038265 0.0268665 255 0 0
0.0095634 0.1038265 0.0268663 255 0 0
0.0118512 0.1038265 0.0268663 255 0 0
0.0141390 0.1038265 0.0268661 255 0 0
-0.0956746 0.1061142 0.0268660 255 0 0
-0.0933869 0.1061141 0.0268663 255 0 0
-0.0910991 0.1061140 0.0268665 255 0 0
-0.0888114 0.1061140 0.0268667 255 0 0
-0.0865235 0.1061141 0.0268667 255 0 0
-0.0842357 0.1061142 0.0268667 255 0 0
-0.0819479 0.1061142 0.0268667 255 0 0
-0.0796601 0.1061143 0.0268667 255 0 0
-0.0773723 0.1061143 0.0268667 255 0 0
-0.0750845 0.1061143 0.0268667 255 0 0
-0.0727967 0.1061143 0.0268667 255 0 0
-0.0705089 0.1061143 0.0268667 255 0 0
-0.0682212 0.1061143 0.0268667 255 0 0
-0.0659334 0.1061143 0.0268667 255 0 0
-0.0636456 0.1061143 0.0268667 255 0 0
-0.0613578 0.1061143 0.0268667 255 0 0
-0.0590700 0.1061143 0.0268667 255 0 0
-0.0567822 0.1061143 0.0268667 255 0 0
-0.0544945 0.1061143 0.0268667 255 0 0
-0.0522067 0.1061143 0.0268667 255 0 0
-0.0499189 0.1061143 0.0268667 255 0 0
-0.0476311 0.1061143 0.0268667 255 0 0
-0.0453433 0.1061143 0.0268666 255 0 0
-0.0430556 0.1061143 0.0268666 255 0 0
-0.0407678 0.1061143 0.0268666 255 0 0
-0.0384800 0.1061143 0.0268666 255 0 0
-0.0361922 0.1061143 0.0268666 255 0 0
-0.0339044 0.1061143 0.0268666 255 0 0
-0.0316167 0.1061143 0.0268666 255 0 0
-0.0293289 0.1061143 0.0268666 255 0 0
-0.0270411 0.1061143 0.0268666 255 0 0
-0.0247533 0.1061143 0.0268666 255 0 0
-0.0224655 0.1061143 0.0268666 255 0 0
-0.0201778 0.1061143 0.0268666 255 0 0
-0.0178900 0.1061143 0.0268666 255 0 0
-0.0156022 0.1061143 0.0268667 255 0 0
-0.0133144 0.1061143 0.0268667 255 0 0
-0.0110266 0.1061143 0.0268667 255 0 0
-0.0087388 0.1061143 0.0268667 255 0 0
-0.0064511 0.1061143 0.0268667 255 0 0
-0.0041633 0.1061143 0.0268667 255 0 0
-0.0018755 0.1061143 0.0268667 255 0 0
0.0004123 0.1061143 0.0268666 255 0 0
0.0027001 0.1061143 0.0268666 255 0 0
0.0049878 0.1061143 0.0268665 255 0 0
0.0072756 0.1061143 0.0268665 255 0 0
0.0095634 0.1061143 0.0268665 255 0 0
0.0118512 0.1061143 0.0268662 255 0 0
0.0141390 0.1061143 0.0268661 255 0 0
-0.0933870 0.1084016 0.0268663 255 0 0
-0.0910993 0.1084014 0.0268666 255 0 0
-0.0888115 0.1084014 0.0268668 255 0 0
-0.0865236 0.1084017 0.0268667 255 0 0
-0.0842357 0.1084018 0.0268666 255 0 0
-0.0819479 0.1084019 0.0268666 255 0 0
-0.0796601 0.1084020 0.0268666 255 0 0
-0.0773723 0.1084021 0.0268667 255 0 0
-0.0750845 0.1084021 0.0268667 255 0 0
-0.0727967 0.1084021 0.0268667 255 0 0
-0.0705089 0.1084021 0.0268667 255 0 0
-0.0682212 0.1084021 0.0268667 255 0 0
-0.0659334 0.1084021 0.0268667 255 0 0
-0.0636456 0.1084021 0.0268667 255 0 0
-0.0613578 0.1084021 0.0268667 255 0 0
-0.0590700 0.1084021 0.0268667 255 0 0
-0.0567822 0.1084021 0.0268667 255 0 0
-0.0544945 0.1084021 0.0268666 255 0 0
-0.0522067 0.1084021 0.0268666 255 0 0
-0.0499189 0.1084021 0.0268666 255 0 0
-0.0476311 0.1084021 0.0268666 255 0 0
-0.0453433 0.1084021 0.0268666 255 0 0
-0.0430556 0.1084021 0.0268666 255 0 0
-0.0407678 0.1084021 0.0268666 255 0 0
-0.0384800 0.1084021 0.0268666 255 0 0
-0.0361922 0.1084021 0.0268666 255 0 0
-0.0339044 0.1084021 0.0268666 255 0 0
-0.0316167 0.1084021 0.0268666 255 0 0
-0.0293289 0.1084021 0.0268666 255 0 0
-0.0270411 0.1084021 0.0268666 255 0 0
-0.0247533 0.1084021 0.0268666 255 0 0
-0.0224655 0.1084021 0.0268666 255 0 0
-0.0201778 0.1084021 0.0268666 255 0 0
-0.0178900 0.1084021 0.0268666 255 0 0
-0.0156022 0.1084021 0.0268666 255 0 0
-0.0133144 0.1084021 0.0268666 255 0 0
-0.0110266 0.1084021 0.0268666 255 0 0
-0.0087388 0.1084021 0.0268666 255 0 0
-0.0064511 0.1084021 0.0268666 255 0 0
-0.0041633 0.1084021 0.0268666 255 0 0
-0.0018755 0.1084021 0.0268666 255 0 0
0.0004123 0.1084021 0.0268665 255 0 0
0.0027001 0.1084021 0.0268665 255 0 0
0.0049878 0.1084021 0.0268665 255 0 0
0.0072756 0.1084021 0.0268665 255 0 0
0.0095634 0.1084021 0.0268663 255 0 0
0.0118512 0.1084021 0.0268663 255 0 0
0.0141390 0.1084021 0.0268661 255 0 0
-0.0933871 0.1106892 0.0268663 255 0 0
-0.0910994 0.1106890 0.0268665 255 0 0
-0.0888116 0.1106890 0.0268667 255 0 0
-0.0865237 0.1106893 0.0268667 255 0 0
-0.0842358 0.1106895 0.0268667 255 0 0
-0.0819479 0.1106897 0.0268667 255 0 0
-0.0796601 0.1106898 0.0268667 255 0 0
-0.0773723 0.1106898 0.0268667 255 0 0
-0.0750845 0.1106898 0.0268667 255 0 0
-0.0727967 0.1106899 0.0268667 255 0 0
-0.0705089 0.1106899 0.0268666 255 0 0
-0.0682212 0.1106899 0.0268666 255 0 0
-0.0659334 0.1106899 0.0268666 255 0 0
-0.0636456 0.1106899 0.0268666 255 0 0
-0.0613578 0.1106899 0.0268666 255 0 0
-0.0590700 0.1106899 0.0268666 255 0 0
-0.0567822 0.1106899 0.0268666 255 0 0
-0.0544945 0.1106899 0.0268666 255 0 0
-0.0522067 0.1106899 0.0268666 255 0 0
-0.0499189 0.1106899 0.0268666 255 0 0
-0.0476311 0.1106899 0.0268666 255 0 0
-0.0453433 0.1106899 0.0268666 255 0 0
-0.0430556 0.1106899 0.0268666 255 0 0
-0.0407678 0.1106899 0.0268666 255 0 0
-0.0384800 0.1106899 0.0268666 255 0 0
-0.0361922 0.1106899 0.0268667 255 0 0
-0.0339044 0.1106899 0.0268667 255 0 0
-0.0316167 0.1106899 0.0268667 255 0 0
-0.0293289 0.1106899 0.0268667 255 0 0
-0.0270411 0.1106899 0.0268667 255 0 0
-0.0247533 0.1106899 0.0268667 255 0 0
-0.0224655 0.1106899 0.0268667 255 0 0
-0.0201778 0.1106899 0.0268667 255 0 0
-0.0178900 0.1106899 0.0268667 255 0 0
-0.0156022 0.1106899 0.0268667 255 0 0
-0.0133144 0.1106899 0.0268667 255 0 0
-0.0110266 0.1106899 0.0268667 255 0 0
-0.0087388 0.1106899 0.0268667 255 0 0
-0.0064511 0.1106899 0.0268667 255 0 0
-0.0041633 0.1106899 0.0268667 255 0 0
