ply
format ascii 1.0
element vertex 1229
property float x
property float y
property float z
property uchar red
property uchar green
property uchar blue
end_header
-0.0728040 0.1335205 0.0154152 255 0 0
-0.0704982 0.1335854 0.0154554 255 0 0
-0.0682108 0.1336136 0.0154899 255 0 0
-0.0659305 0.1336167 0.0154941 255 0 0
-0.0636430 0.1336198 0.0154961 255 0 0
-0.0613573 0.1336233 0.0154996 255 0 0
-0.0590691 0.1336254 0.0155051 255 0 0
-0.0567852 0.1335883 0.0155121 255 0 0
-0.0545194 0.1335958 0.0155350 255 0 0
-0.0522413 0.1336117 0.0155672 255 0 0
-0.0499416 0.1336719 0.0155984 255 0 0
-0.0476417 0.1336898 0.0156385 255 0 0
-0.0452296 0.1336699 0.0154767 255 0 0
-0.0361898 0.1336429 0.0155104 255 0 0
-0.0339019 0.1336463 0.0155152 255 0 0
-0.0316162 0.1336418 0.0155081 255 0 0
-0.0293346 0.1336384 0.0155024 255 0 0
-0.0270473 0.1336356 0.0154995 255 0 0
-0.0247464 0.1336236 0.0154931 255 0 0
-0.0224523 0.1336139 0.0154868 255 0 0
-0.0201779 0.1336136 0.0154872 255 0 0
-0.0178971 0.1336032 0.0154838 255 0 0
-0.0156075 0.1335699 0.0154741 255 0 0
-0.0133203 0.1335630 0.0154694 255 0 0
-0.0247437 0.0329109 0.0178442 255 0 0
-0.0224492 0.0328951 0.0178258 255 0 0
-0.0201789 0.0329100 0.0178403 255 0 0
-0.0590457 0.0351670 0.0178582 255 0 0
-0.0567626 0.0351597 0.0178951 255 0 0
-0.0544755 0.0351524 0.0179243 255 0 0
-0.0522091 0.0351463 0.0179465 255 0 0
-0.0499218 0.0351421 0.0179584 255 0 0
-0.0476547 0.0351395 0.0179653 255 0 0
-0.0453241 0.0351438 0.0179585 255 0 0
-0.0430153 0.0351470 0.0179538 255 0 0
-0.0407695 0.0351465 0.0179558 255 0 0
-0.0384830 0.0351480 0.0179515 255 0 0
-0.0362037 0.0351514 0.0179409 255 0 0
-0.0339279 0.0351546 0.0179310 255 0 0
-0.0316402 0.0351579 0.0179179 255 0 0
-0.0293521 0.0351604 0.0179053 255 0 0
-0.0270646 0.0351616 0.0178984 255 0 0
-0.0247439 0.0351652 0.0178815 255 0 0
-0.0224446 0.0351677 0.0178723 255 0 0
-0.0201788 0.0351652 0.0178789 255 0 0
-0.0179041 0.0351650 0.0178735 255 0 0
-0.0156307 0.0351680 0.0178600 255 0 0
-0.0636035 0.0374480 0.0178306 255 0 0
-0.0613348 0.0374399 0.0178626 255 0 0
-0.0590503 0.0374268 0.0178899 255 0 0
-0.0567630 0.0374216 0.0179116 255 0 0
-0.0544965 0.0374176 0.0179288 255 0 0
-0.0522092 0.0374141 0.0179415 255 0 0
-0.0499218 0.0374116 0.0179493 255 0 0
-0.0476546 0.0374101 0.0179550 255 0 0
-0.0453238 0.0374116 0.0179552 255 0 0
-0.0430153 0.0374131 0.0179547 255 0 0
-0.0407691 0.0374131 0.0179552 255 0 0
-0.0384825 0.0374140 0.0179521 255 0 0
-0.0361951 0.0374160 0.0179446 255 0 0
-0.0339279 0.0374177 0.0179375 255 0 0
-0.0316402 0.0374196 0.0179309 255 0 0
-0.0293523 0.0374212 0.0179254 255 0 0
-0.0270658 0.0374222 0.0179175 255 0 0
-0.0247438 0.0374238 0.0179102 255 0 0
-0.0224425 0.0374253 0.0179048 255 0 0
-0.0201698 0.0374240 0.0179069 255 0 0
-0.0179028 0.0374242 0.0179013 255 0 0
-0.0156266 0.0374338 0.0178915 255 0 0
-0.0133518 0.0374485 0.0178784 255 0 0
-0.0110811 0.0374533 0.0178645 255 0 0
-0.0088102 0.0374585 0.0178513 255 0 0
-0.0681784 0.0397313 0.0178379 255 0 0
-0.0658913 0.0397179 0.0178678 255 0 0
-0.0636043 0.0397112 0.0178913 255 0 0
-0.0613381 0.0397074 0.0179046 255 0 0
-0.0590508 0.0396872 0.0179153 255 0 0
-0.0567840 0.0396848 0.0179271 255 0 0
-0.0544968 0.0396826 0.0179347 255 0 0
-0.0522098 0.0396806 0.0179404 255 0 0
-0.0499221 0.0396608 0.0179466 255 0 0
-0.0476546 0.0396599 0.0179506 255 0 0
-0.0453237 0.0396764 0.0179516 255 0 0
-0.0430353 0.0396798 0.0179518 255 0 0
-0.0407691 0.0396799 0.0179513 255 0 0
-0.0384819 0.0396806 0.0179500 255 0 0
-0.0361944 0.0396815 0.0179474 255 0 0
-0.0339142 0.0396821 0.0179441 255 0 0
-0.0316401 0.0396827 0.0179404 255 0 0
-0.0293525 0.0396831 0.0179365 255 0 0
-0.0270687 0.0396835 0.0179327 255 0 0
-0.0247437 0.0396836 0.0179319 255 0 0
-0.0224406 0.0396844 0.0179301 255 0 0
-0.0201685 0.0396843 0.0179274 255 0 0
-0.0179027 0.0396852 0.0179214 255 0 0
-0.0156211 0.0396869 0.0179153 255 0 0
-0.0133447 0.0397083 0.0179033 255 0 0
-0.0110697 0.0397140 0.0178887 255 0 0
-0.0088025 0.0397193 0.0178730 255 0 0
-0.0065310 0.0397268 0.0178586 255 0 0
-0.0727539 0.0420282 0.0177749 255 0 0
-0.0704659 0.0420138 0.0178444 255 0 0
-0.0681782 0.0420016 0.0178955 255 0 0
-0.0658923 0.0419969 0.0179099 255 0 0
-0.0636120 0.0419929 0.0179217 255 0 0
-0.0613391 0.0419905 0.0179302 255 0 0
-0.0590726 0.0419883 0.0179388 255 0 0
-0.0567850 0.0419847 0.0179431 255 0 0
-0.0544976 0.0419673 0.0179468 255 0 0
-0.0522309 0.0419665 0.0179501 255 0 0
-0.0499430 0.0419663 0.0179531 255 0 0
-0.0476553 0.0419660 0.0179557 255 0 0
-0.0453235 0.0419667 0.0179558 255 0 0
-0.0430196 0.0419670 0.0179556 255 0 0
-0.0407632 0.0419670 0.0179557 255 0 0
-0.0384823 0.0419671 0.0179551 255 0 0
-0.0361949 0.0419676 0.0179537 255 0 0
-0.0339134 0.0419680 0.0179524 255 0 0
-0.0316409 0.0419679 0.0179508 255 0 0
-0.0293513 0.0419681 0.0179484 255 0 0
-0.0270692 0.0419686 0.0179458 255 0 0
-0.0247438 0.0419681 0.0179468 255 0 0
-0.0224335 0.0419684 0.0179468 255 0 0
-0.0201683 0.0419740 0.0179449 255 0 0
-0.0178926 0.0419868 0.0179424 255 0 0
-0.0156154 0.0419880 0.0179388 255 0 0
-0.0133344 0.0419902 0.0179307 255 0 0
-0.0110576 0.0419931 0.0179226 255 0 0
-0.0087841 0.0419965 0.0179086 255 0 0
-0.0065174 0.0420038 0.0178942 255 0 0
-0.0042520 0.0420110 0.0178700 255 0 0
-0.0750410 0.0443329 0.0177884 255 0 0
-0.0727538 0.0443279 0.0178323 255 0 0
-0.0704662 0.0442914 0.0178916 255 0 0
-0.0681786 0.0442788 0.0179324 255 0 0
-0.0658925 0.0442773 0.0179378 255 0 0
-0.0636474 0.0442756 0.0179433 255 0 0
-0.0613605 0.0442735 0.0179484 255 0 0
-0.0590729 0.0442723 0.0179518 255 0 0
-0.0567854 0.0442716 0.0179538 255 0 0
-0.0544985 0.0442708 0.0179556 255 0 0
-0.0522311 0.0442706 0.0179568 255 0 0
-0.0499433 0.0442707 0.0179580 255 0 0
-0.0476555 0.0442704 0.0179591 255 0 0
-0.0453233 0.0442709 0.0179584 255 0 0
-0.0430142 0.0442712 0.0179581 255 0 0
-0.0407484 0.0442711 0.0179586 255 0 0
-0.0384825 0.0442712 0.0179586 255 0 0
-0.0361950 0.0442712 0.0179584 255 0 0
-0.0339103 0.0442711 0.0179582 255 0 0
-0.0316411 0.0442709 0.0179580 255 0 0
-0.0293484 0.0442711 0.0179566 255 0 0
-0.0270696 0.0442709 0.0179538 255 0 0
-0.0247438 0.0442711 0.0179580 255 0 0
-0.0224321 0.0442707 0.0179597 255 0 0
-0.0201683 0.0442711 0.0179568 255 0 0
-0.0178921 0.0442715 0.0179543 255 0 0
-0.0156100 0.0442714 0.0179533 255 0 0
-0.0133283 0.0442729 0.0179508 255 0 0
-0.0110477 0.0442741 0.0179458 255 0 0
-0.0087737 0.0442764 0.0179347 255 0 0
-0.0065062 0.0442796 0.0179193 255 0 0
-0.0042440 0.0442852 0.0178948 255 0 0
-0.0750414 0.0466025 0.0178498 255 0 0
-0.0727984 0.0465834 0.0178809 255 0 0
-0.0704669 0.0465717 0.0179147 255 0 0
-0.0681785 0.0465460 0.0179393 255 0 0
-0.0658932 0.0465452 0.0179414 255 0 0
-0.0636481 0.0465439 0.0179444 255 0 0
-0.0613605 0.0465426 0.0179482 255 0 0
-0.0590729 0.0465417 0.0179514 255 0 0
-0.0567855 0.0465411 0.0179536 255 0 0
-0.0545039 0.0465408 0.0179552 255 0 0
-0.0522314 0.0465406 0.0179566 255 0 0
-0.0499435 0.0465404 0.0179573 255 0 0
-0.0476557 0.0465402 0.0179578 255 0 0
-0.0453233 0.0465407 0.0179579 255 0 0
-0.0430143 0.0465409 0.0179579 255 0 0
-0.0407487 0.0465408 0.0179581 255 0 0
-0.0384820 0.0465408 0.0179581 255 0 0
-0.0361949 0.0465408 0.0179581 255 0 0
-0.0339083 0.0465407 0.0179581 255 0 0
-0.0316414 0.0465409 0.0179580 255 0 0
-0.0293472 0.0465407 0.0179567 255 0 0
-0.0270697 0.0465411 0.0179533 255 0 0
-0.0247436 0.0465408 0.0179579 255 0 0
-0.0224330 0.0465406 0.0179591 255 0 0
-0.0201680 0.0465409 0.0179571 255 0 0
-0.0178919 0.0465407 0.0179544 255 0 0
-0.0156064 0.0465408 0.0179532 255 0 0
-0.0133277 0.0465417 0.0179502 255 0 0
-0.0110463 0.0465426 0.0179466 255 0 0
-0.0087704 0.0465439 0.0179408 255 0 0
-0.0065002 0.0465630 0.0179297 255 0 0
-0.0042355 0.0465649 0.0179150 255 0 0
-0.0020254 0.0465507 0.0179177 255 0 0
-0.0773275 0.0488747 0.0178589 255 0 0
-0.0750430 0.0488665 0.0178916 255 0 0
-0.0727994 0.0488599 0.0179151 255 0 0
-0.0704667 0.0488349 0.0179328 255 0 0
-0.0681778 0.0488303 0.0179439 255 0 0
-0.0659143 0.0488294 0.0179463 255 0 0
-0.0636481 0.0488283 0.0179489 255 0 0
-0.0613605 0.0488109 0.0179517 255 0 0
-0.0590731 0.0488104 0.0179539 255 0 0
-0.0567857 0.0488097 0.0179555 255 0 0
-0.0545173 0.0488095 0.0179562 255 0 0
-0.0522316 0.0488093 0.0179567 255 0 0
-0.0499437 0.0488091 0.0179573 255 0 0
-0.0476558 0.0488091 0.0179578 255 0 0
-0.0453231 0.0488094 0.0179578 255 0 0
-0.0430168 0.0488096 0.0179579 255 0 0
-0.0407485 0.0488095 0.0179581 255 0 0
-0.0384819 0.0488095 0.0179582 255 0 0
-0.0361943 0.0488095 0.0179582 255 0 0
-0.0339079 0.0488096 0.0179581 255 0 0
-0.0316413 0.0488099 0.0179580 255 0 0
-0.0293470 0.0488095 0.0179572 255 0 0
-0.0270699 0.0488101 0.0179551 255 0 0
-0.0247436 0.0488090 0.0179580 255 0 0
-0.0224328 0.0488093 0.0179596 255 0 0
-0.0201679 0.0488092 0.0179577 255 0 0
-0.0178916 0.0488091 0.0179564 255 0 0
-0.0156061 0.0488094 0.0179559 255 0 0
-0.0133242 0.0488151 0.0179535 255 0 0
-0.0110448 0.0488272 0.0179501 255 0 0
-0.0087658 0.0488278 0.0179460 255 0 0
-0.0064946 0.0488288 0.0179414 255 0 0
-0.0042264 0.0488377 0.0179294 255 0 0
-0.0020128 0.0488239 0.0179385 255 0 0
0.0004678 0.0489343 0.0178559 255 0 0
-0.0796136 0.0511640 0.0178508 255 0 0
-0.0773288 0.0511547 0.0178872 255 0 0
-0.0750834 0.0511470 0.0179131 255 0 0
-0.0727996 0.0511240 0.0179293 255 0 0
-0.0704669 0.0511186 0.0179430 255 0 0
-0.0681774 0.0510977 0.0179533 255 0 0
-0.0659294 0.0510975 0.0179553 255 0 0
-0.0636482 0.0510971 0.0179569 255 0 0
-0.0613607 0.0510965 0.0179581 255 0 0
-0.0590730 0.0510963 0.0179590 255 0 0
-0.0567856 0.0510962 0.0179596 255 0 0
-0.0545194 0.0510959 0.0179601 255 0 0
-0.0522317 0.0510956 0.0179606 255 0 0
-0.0499438 0.0510955 0.0179610 255 0 0
-0.0476560 0.0510956 0.0179614 255 0 0
-0.0453230 0.0510957 0.0179613 255 0 0
-0.0430139 0.0510960 0.0179612 255 0 0
-0.0407484 0.0510959 0.0179615 255 0 0
-0.0384821 0.0510958 0.0179616 255 0 0
-0.0361946 0.0510958 0.0179616 255 0 0
-0.0339084 0.0510961 0.0179615 255 0 0
-0.0316417 0.0510963 0.0179614 255 0 0
-0.0293485 0.0510960 0.0179607 255 0 0
-0.0270702 0.0510965 0.0179587 255 0 0
-0.0247436 0.0510951 0.0179615 255 0 0
-0.0224328 0.0510954 0.0179635 255 0 0
-0.0201679 0.0510950 0.0179612 255 0 0
-0.0178916 0.0510955 0.0179602 255 0 0
-0.0156056 0.0510954 0.0179601 255 0 0
-0.0133232 0.0510958 0.0179596 255 0 0
-0.0110413 0.0510958 0.0179579 255 0 0
-0.0087642 0.0510964 0.0179545 255 0 0
-0.0064888 0.0511130 0.0179492 255 0 0
-0.0042127 0.0511149 0.0179407 255 0 0
-0.0019647 0.0511096 0.0179371 255 0 0
0.0004138 0.0511751 0.0178840 255 0 0
-0.0818998 0.0534520 0.0178310 255 0 0
-0.0796141 0.0534434 0.0178788 255 0 0
-0.0773299 0.0534181 0.0179075 255 0 0
-0.0750861 0.0534123 0.0179274 255 0 0
-0.0728001 0.0534073 0.0179420 255 0 0
-0.0704668 0.0533864 0.0179518 255 0 0
-0.0681767 0.0533841 0.0179592 255 0 0
-0.0659350 0.0533842 0.0179596 255 0 0
-0.0636484 0.0533841 0.0179603 255 0 0
-0.0613607 0.0533835 0.0179611 255 0 0
-0.0590731 0.0533831 0.0179617 255 0 0
-0.0567856 0.0533830 0.0179622 255 0 0
-0.0545199 0.0533828 0.0179626 255 0 0
-0.0522321 0.0533826 0.0179630 255 0 0
-0.0499443 0.0533826 0.0179634 255 0 0
-0.0476564 0.0533826 0.0179637 255 0 0
-0.0453226 0.0533826 0.0179635 255 0 0
-0.0430133 0.0533828 0.0179634 255 0 0
-0.0407481 0.0533828 0.0179637 255 0 0
-0.0384820 0.0533828 0.0179638 255 0 0
-0.0361945 0.0533827 0.0179638 255 0 0
-0.0339082 0.0533828 0.0179637 255 0 0
-0.0316415 0.0533830 0.0179635 255 0 0
-0.0293495 0.0533835 0.0179627 255 0 0
-0.0270704 0.0533833 0.0179607 255 0 0
-0.0247436 0.0533826 0.0179638 255 0 0
-0.0224324 0.0533824 0.0179663 255 0 0
-0.0201677 0.0533826 0.0179637 255 0 0
-0.0178915 0.0533830 0.0179624 255 0 0
-0.0156046 0.0533828 0.0179625 255 0 0
-0.0133223 0.0533828 0.0179623 255 0 0
-0.0110404 0.0533826 0.0179617 255 0 0
-0.0087599 0.0533827 0.0179606 255 0 0
-0.0064837 0.0533831 0.0179570 255 0 0
-0.0042040 0.0534005 0.0179492 255 0 0
-0.0019358 0.0534009 0.0179416 255 0 0
0.0003902 0.0534332 0.0179144 255 0 0
0.0026838 0.0534471 0.0178931 255 0 0
-0.0818999 0.0557303 0.0178638 255 0 0
-0.0796153 0.0557052 0.0179016 255 0 0
-0.0773712 0.0556989 0.0179238 255 0 0
-0.0750866 0.0556947 0.0179408 255 0 0
-0.0728007 0.0556913 0.0179513 255 0 0
-0.0704667 0.0556734 0.0179584 255 0 0
-0.0681766 0.0556715 0.0179614 255 0 0
-0.0659354 0.0556715 0.0179621 255 0 0
-0.0636482 0.0556714 0.0179627 255 0 0
-0.0613606 0.0556712 0.0179632 255 0 0
-0.0590730 0.0556707 0.0179636 255 0 0
-0.0567855 0.0556704 0.0179639 255 0 0
-0.0545199 0.0556704 0.0179642 255 0 0
-0.0522321 0.0556704 0.0179645 255 0 0
-0.0499443 0.0556705 0.0179648 255 0 0
-0.0476565 0.0556704 0.0179651 255 0 0
-0.0453225 0.0556706 0.0179646 255 0 0
-0.0430132 0.0556706 0.0179644 255 0 0
-0.0407480 0.0556706 0.0179647 255 0 0
-0.0384822 0.0556706 0.0179649 255 0 0
-0.0361947 0.0556706 0.0179648 255 0 0
-0.0339086 0.0556706 0.0179647 255 0 0
-0.0316417 0.0556709 0.0179646 255 0 0
-0.0293500 0.0556709 0.0179636 255 0 0
-0.0270709 0.0556713 0.0179615 255 0 0
-0.0247435 0.0556708 0.0179648 255 0 0
-0.0224323 0.0556706 0.0179676 255 0 0
-0.0201667 0.0556706 0.0179648 255 0 0
-0.0178914 0.0556710 0.0179636 255 0 0
-0.0156043 0.0556707 0.0179639 255 0 0
-0.0133222 0.0556705 0.0179638 255 0 0
-0.0110402 0.0556704 0.0179633 255 0 0
-0.0087585 0.0556706 0.0179624 255 0 0
-0.0064806 0.0556711 0.0179612 255 0 0
-0.0041982 0.0556742 0.0179563 255 0 0
-0.0019229 0.0556880 0.0179482 255 0 0
0.0003944 0.0557011 0.0179310 255 0 0
0.0026843 0.0557205 0.0179154 255 0 0
0.0049209 0.0557245 0.0178891 255 0 0
-0.0841790 0.0580184 0.0178434 255 0 0
-0.0819002 0.0579989 0.0178903 255 0 0
-0.0796161 0.0579848 0.0179208 255 0 0
-0.0773734 0.0579809 0.0179392 255 0 0
-0.0750870 0.0579778 0.0179500 255 0 0
-0.0728013 0.0579607 0.0179599 255 0 0
-0.0704667 0.0579596 0.0179627 255 0 0
-0.0681759 0.0579590 0.0179648 255 0 0
-0.0659354 0.0579590 0.0179656 255 0 0
-0.0636486 0.0579588 0.0179663 255 0 0
-0.0613607 0.0579586 0.0179665 255 0 0
-0.0590731 0.0579585 0.0179669 255 0 0
-0.0567856 0.0579584 0.0179672 255 0 0
-0.0545202 0.0579584 0.0179674 255 0 0
-0.0522324 0.0579584 0.0179676 255 0 0
-0.0499446 0.0579584 0.0179679 255 0 0
-0.0476567 0.0579584 0.0179682 255 0 0
-0.0453221 0.0579585 0.0179675 255 0 0
-0.0430128 0.0579585 0.0179672 255 0 0
-0.0407476 0.0579586 0.0179675 255 0 0
-0.0384821 0.0579586 0.0179677 255 0 0
-0.0361945 0.0579586 0.0179676 255 0 0
-0.0339084 0.0579586 0.0179675 255 0 0
-0.0316415 0.0579586 0.0179673 255 0 0
-0.0293523 0.0579589 0.0179661 255 0 0
-0.0270706 0.0579582 0.0179636 255 0 0
-0.0247435 0.0579586 0.0179680 255 0 0
-0.0224321 0.0579585 0.0179708 255 0 0
-0.0201650 0.0579585 0.0179681 255 0 0
-0.0178913 0.0579588 0.0179668 255 0 0
-0.0156041 0.0579584 0.0179672 255 0 0
-0.0133221 0.0579584 0.0179672 255 0 0
-0.0110391 0.0579585 0.0179668 255 0 0
-0.0087584 0.0579584 0.0179662 255 0 0
-0.0064776 0.0579581 0.0179652 255 0 0
-0.0041929 0.0579582 0.0179631 255 0 0
-0.0019154 0.0579749 0.0179569 255 0 0
0.0003994 0.0579789 0.0179430 255 0 0
0.0026886 0.0579959 0.0179302 255 0 0
0.0049329 0.0580063 0.0179103 255 0 0
-0.0841827 0.0602959 0.0178757 255 0 0
-0.0819009 0.0602746 0.0179126 255 0 0
-0.0796366 0.0602666 0.0179366 255 0 0
-0.0773737 0.0602649 0.0179490 255 0 0
-0.0750871 0.0602568 0.0179596 255 0 0
-0.0728124 0.0602469 0.0179654 255 0 0
-0.0704664 0.0602470 0.0179667 255 0 0
-0.0681759 0.0602466 0.0179679 255 0 0
-0.0659353 0.0602465 0.0179692 255 0 0
-0.0636482 0.0602464 0.0179700 255 0 0
-0.0613605 0.0602459 0.0179698 255 0 0
-0.0590730 0.0602455 0.0179699 255 0 0
-0.0567855 0.0602454 0.0179702 255 0 0
-0.0545203 0.0602453 0.0179704 255 0 0
-0.0522325 0.0602452 0.0179706 255 0 0
-0.0499447 0.0602452 0.0179708 255 0 0
-0.0476569 0.0602453 0.0179712 255 0 0
-0.0453220 0.0602452 0.0179703 255 0 0
-0.0430139 0.0602453 0.0179699 255 0 0
-0.0407476 0.0602452 0.0179703 255 0 0
-0.0384821 0.0602451 0.0179705 255 0 0
-0.0361950 0.0602452 0.0179705 255 0 0
-0.0339084 0.0602452 0.0179704 255 0 0
-0.0316418 0.0602458 0.0179703 255 0 0
-0.0293533 0.0602459 0.0179691 255 0 0
-0.0270705 0.0602451 0.0179660 255 0 0
-0.0247433 0.0602461 0.0179712 255 0 0
-0.0224318 0.0602472 0.0179753 255 0 0
-0.0201642 0.0602461 0.0179716 255 0 0
-0.0178910 0.0602460 0.0179702 255 0 0
-0.0156041 0.0602454 0.0179707 255 0 0
-0.0133222 0.0602453 0.0179709 255 0 0
-0.0110374 0.0602457 0.0179706 255 0 0
-0.0087580 0.0602458 0.0179703 255 0 0
-0.0064756 0.0602461 0.0179694 255 0 0
-0.0041902 0.0602462 0.0179678 255 0 0
-0.0019123 0.0602470 0.0179646 255 0 0
0.0004048 0.0602626 0.0179548 255 0 0
0.0026958 0.0602650 0.0179429 255 0 0
0.0049430 0.0602742 0.0179323 255 0 0
0.0071899 0.0602899 0.0179198 255 0 0
-0.0864713 0.0626019 0.0178522 255 0 0
-0.0841862 0.0625747 0.0179046 255 0 0
-0.0819018 0.0625580 0.0179321 255 0 0
-0.0796594 0.0625551 0.0179498 255 0 0
-0.0773743 0.0625540 0.0179606 255 0 0
-0.0750877 0.0625540 0.0179666 255 0 0
-0.0728404 0.0625532 0.0179720 255 0 0
-0.0704666 0.0625525 0.0179720 255 0 0
-0.0681753 0.0625520 0.0179723 255 0 0
-0.0659357 0.0625523 0.0179740 255 0 0
-0.0636485 0.0625521 0.0179749 255 0 0
-0.0613606 0.0625521 0.0179744 255 0 0
-0.0590729 0.0625520 0.0179743 255 0 0
-0.0567856 0.0625520 0.0179746 255 0 0
-0.0545204 0.0625520 0.0179749 255 0 0
-0.0522327 0.0625519 0.0179751 255 0 0
-0.0499449 0.0625519 0.0179755 255 0 0
-0.0476571 0.0625519 0.0179758 255 0 0
-0.0453217 0.0625521 0.0179749 255 0 0
-0.0430134 0.0625521 0.0179745 255 0 0
-0.0407471 0.0625522 0.0179750 255 0 0
-0.0384819 0.0625521 0.0179754 255 0 0
-0.0361945 0.0625520 0.0179753 255 0 0
-0.0339083 0.0625519 0.0179754 255 0 0
-0.0316420 0.0625516 0.0179752 255 0 0
-0.0293540 0.0625522 0.0179740 255 0 0
-0.0270708 0.0625527 0.0179700 255 0 0
-0.0247433 0.0625531 0.0179774 255 0 0
-0.0224314 0.0625560 0.0179800 255 0 0
-0.0201616 0.0625528 0.0179777 255 0 0
-0.0178908 0.0625515 0.0179753 255 0 0
-0.0156041 0.0625515 0.0179760 255 0 0
-0.0133223 0.0625517 0.0179762 255 0 0
-0.0110370 0.0625516 0.0179759 255 0 0
-0.0087566 0.0625518 0.0179757 255 0 0
-0.0064750 0.0625517 0.0179754 255 0 0
-0.0041899 0.0625513 0.0179738 255 0 0
-0.0019099 0.0625522 0.0179717 255 0 0
0.0004102 0.0625512 0.0179650 255 0 0
0.0027037 0.0625520 0.0179561 255 0 0
0.0049519 0.0625549 0.0179503 255 0 0
0.0071994 0.0625584 0.0179373 255 0 0
-0.0887226 0.0649093 0.0178452 255 0 0
-0.0864723 0.0648929 0.0178953 255 0 0
-0.0841872 0.0648647 0.0179295 255 0 0
-0.0819028 0.0648446 0.0179483 255 0 0
-0.0796601 0.0648402 0.0179621 255 0 0
-0.0773743 0.0648408 0.0179682 255 0 0
-0.0750874 0.0648396 0.0179737 255 0 0
-0.0728450 0.0648411 0.0179782 255 0 0
-0.0704658 0.0648402 0.0179769 255 0 0
-0.0681751 0.0648402 0.0179765 255 0 0
-0.0659353 0.0648401 0.0179784 255 0 0
-0.0636482 0.0648398 0.0179788 255 0 0
-0.0613606 0.0648398 0.0179787 255 0 0
-0.0590730 0.0648396 0.0179785 255 0 0
-0.0567856 0.0648395 0.0179787 255 0 0
-0.0545206 0.0648396 0.0179788 255 0 0
-0.0522330 0.0648395 0.0179789 255 0 0
-0.0499451 0.0648396 0.0179790 255 0 0
-0.0476573 0.0648397 0.0179791 255 0 0
-0.0453213 0.0648397 0.0179789 255 0 0
-0.0430131 0.0648399 0.0179784 255 0 0
-0.0407467 0.0648398 0.0179790 255 0 0
-0.0384816 0.0648398 0.0179793 255 0 0
-0.0361944 0.0648400 0.0179794 255 0 0
-0.0339087 0.0648403 0.0179795 255 0 0
-0.0316419 0.0648410 0.0179794 255 0 0
-0.0293543 0.0648410 0.0179779 255 0 0
-0.0270710 0.0648382 0.0179736 255 0 0
-0.0247434 0.0648404 0.0179808 255 0 0
-0.0224310 0.0648435 0.0179843 255 0 0
-0.0201574 0.0648404 0.0179809 255 0 0
-0.0178841 0.0648408 0.0179790 255 0 0
-0.0156039 0.0648402 0.0179802 255 0 0
-0.0133223 0.0648400 0.0179805 255 0 0
-0.0110369 0.0648400 0.0179805 255 0 0
-0.0087564 0.0648400 0.0179805 255 0 0
-0.0064751 0.0648396 0.0179803 255 0 0
-0.0041877 0.0648401 0.0179798 255 0 0
-0.0019096 0.0648406 0.0179783 255 0 0
0.0004149 0.0648382 0.0179727 255 0 0
0.0027108 0.0648371 0.0179665 255 0 0
0.0049593 0.0648379 0.0179614 255 0 0
0.0072083 0.0648398 0.0179523 255 0 0
0.0094639 0.0648452 0.0179373 255 0 0
-0.0887196 0.0671947 0.0178914 255 0 0
-0.0864747 0.0671813 0.0179284 255 0 0
-0.0841895 0.0671530 0.0179524 255 0 0
-0.0819473 0.0671375 0.0179654 255 0 0
-0.0796618 0.0671354 0.0179718 255 0 0
-0.0773754 0.0671359 0.0179769 255 0 0
-0.0750884 0.0671361 0.0179806 255 0 0
-0.0728465 0.0671358 0.0179834 255 0 0
-0.0704654 0.0671373 0.0179818 255 0 0
-0.0681742 0.0671373 0.0179808 255 0 0
-0.0659353 0.0671371 0.0179828 255 0 0
-0.0636483 0.0671370 0.0179833 255 0 0
-0.0613607 0.0671368 0.0179832 255 0 0
-0.0590730 0.0671368 0.0179831 255 0 0
-0.0567855 0.0671368 0.0179835 255 0 0
-0.0545209 0.0671367 0.0179837 255 0 0
-0.0522334 0.0671366 0.0179839 255 0 0
-0.0499454 0.0671365 0.0179842 255 0 0
-0.0476576 0.0671365 0.0179845 255 0 0
-0.0453212 0.0671367 0.0179842 255 0 0
-0.0430103 0.0671365 0.0179841 255 0 0
-0.0407467 0.0671364 0.0179845 255 0 0
-0.0384821 0.0671364 0.0179848 255 0 0
-0.0361949 0.0671364 0.0179849 255 0 0
-0.0339103 0.0671365 0.0179849 255 0 0
-0.0316420 0.0671369 0.0179848 255 0 0
-0.0293544 0.0671369 0.0179826 255 0 0
-0.0270719 0.0671347 0.0179782 255 0 0
-0.0247436 0.0671372 0.0179859 255 0 0
-0.0224307 0.0671383 0.0179902 255 0 0
-0.0201570 0.0671371 0.0179859 255 0 0
-0.0178834 0.0671366 0.0179832 255 0 0
-0.0156038 0.0671365 0.0179844 255 0 0
-0.0133225 0.0671361 0.0179849 255 0 0
-0.0110373 0.0671360 0.0179848 255 0 0
-0.0087570 0.0671358 0.0179848 255 0 0
-0.0064755 0.0671358 0.0179848 255 0 0
-0.0041880 0.0671348 0.0179846 255 0 0
-0.0019088 0.0671342 0.0179838 255 0 0
0.0004211 0.0671291 0.0179789 255 0 0
0.0027217 0.0671251 0.0179743 255 0 0
0.0049716 0.0671312 0.0179715 255 0 0
0.0072207 0.0671573 0.0179610 255 0 0
0.0094783 0.0671617 0.0179441 255 0 0
-0.0887445 0.0694774 0.0179260 255 0 0
-0.0864767 0.0694469 0.0179517 255 0 0
-0.0841918 0.0694308 0.0179694 255 0 0
-0.0819494 0.0694268 0.0179751 255 0 0
-0.0796629 0.0694262 0.0179799 255 0 0
-0.0773759 0.0694272 0.0179836 255 0 0
-0.0750886 0.0694270 0.0179863 255 0 0
-0.0728476 0.0694273 0.0179877 255 0 0
-0.0704646 0.0694288 0.0179866 255 0 0
-0.0681737 0.0694292 0.0179857 255 0 0
-0.0659350 0.0694286 0.0179870 255 0 0
-0.0636479 0.0694282 0.0179877 255 0 0
-0.0613606 0.0694282 0.0179876 255 0 0
-0.0590730 0.0694284 0.0179877 255 0 0
-0.0567857 0.0694284 0.0179880 255 0 0
-0.0545214 0.0694283 0.0179882 255 0 0
-0.0522338 0.0694283 0.0179885 255 0 0
-0.0499458 0.0694281 0.0179888 255 0 0
-0.0476580 0.0694281 0.0179892 255 0 0
-0.0453207 0.0694279 0.0179891 255 0 0
-0.0430095 0.0694279 0.0179890 255 0 0
-0.0407462 0.0694275 0.0179893 255 0 0
-0.0384821 0.0694273 0.0179895 255 0 0
-0.0361948 0.0694272 0.0179895 255 0 0
-0.0339104 0.0694271 0.0179895 255 0 0
-0.0316418 0.0694269 0.0179893 255 0 0
-0.0293547 0.0694265 0.0179868 255 0 0
-0.0270791 0.0694246 0.0179817 255 0 0
-0.0247435 0.0694282 0.0179901 255 0 0
-0.0224305 0.0694290 0.0179948 255 0 0
-0.0201566 0.0694277 0.0179900 255 0 0
-0.0178832 0.0694267 0.0179871 255 0 0
-0.0156038 0.0694270 0.0179886 255 0 0
-0.0133225 0.0694271 0.0179888 255 0 0
-0.0110375 0.0694270 0.0179887 255 0 0
-0.0087573 0.0694268 0.0179887 255 0 0
-0.0064756 0.0694264 0.0179887 255 0 0
-0.0041878 0.0694252 0.0179886 255 0 0
-0.0019079 0.0694241 0.0179879 255 0 0
0.0004256 0.0694183 0.0179847 255 0 0
0.0027283 0.0694212 0.0179800 255 0 0
0.0049796 0.0694430 0.0179777 255 0 0
0.0072327 0.0694440 0.0179684 255 0 0
0.0094890 0.0694474 0.0179494 255 0 0
0.0117379 0.0694545 0.0179280 255 0 0
-0.0910037 0.0717695 0.0178907 255 0 0
-0.0887630 0.0717349 0.0179408 255 0 0
-0.0864774 0.0717193 0.0179584 255 0 0
-0.0842076 0.0717147 0.0179715 255 0 0
-0.0819499 0.0717139 0.0179774 255 0 0
-0.0796632 0.0717133 0.0179824 255 0 0
-0.0773762 0.0717121 0.0179859 255 0 0
-0.0750888 0.0717117 0.0179875 255 0 0
-0.0728479 0.0717113 0.0179889 255 0 0
-0.0704676 0.0717120 0.0179879 255 0 0
-0.0681733 0.0717126 0.0179875 255 0 0
-0.0659355 0.0717123 0.0179885 255 0 0
-0.0636482 0.0717120 0.0179892 255 0 0
-0.0613607 0.0717119 0.0179891 255 0 0
-0.0590730 0.0717120 0.0179893 255 0 0
-0.0567856 0.0717119 0.0179896 255 0 0
-0.0545215 0.0717119 0.0179899 255 0 0
-0.0522338 0.0717118 0.0179902 255 0 0
-0.0499460 0.0717119 0.0179905 255 0 0
-0.0476582 0.0717117 0.0179909 255 0 0
-0.0453209 0.0717115 0.0179904 255 0 0
-0.0430094 0.0717115 0.0179903 255 0 0
-0.0407462 0.0717112 0.0179905 255 0 0
-0.0384822 0.0717112 0.0179906 255 0 0
-0.0361948 0.0717111 0.0179906 255 0 0
-0.0339099 0.0717109 0.0179904 255 0 0
-0.0316421 0.0717113 0.0179901 255 0 0
-0.0293548 0.0717105 0.0179876 255 0 0
-0.0270793 0.0717101 0.0179824 255 0 0
-0.0247436 0.0717120 0.0179910 255 0 0
-0.0224309 0.0717150 0.0179957 255 0 0
-0.0201567 0.0717119 0.0179908 255 0 0
-0.0178832 0.0717112 0.0179878 255 0 0
-0.0156037 0.0717110 0.0179894 255 0 0
-0.0133225 0.0717110 0.0179896 255 0 0
-0.0110375 0.0717105 0.0179894 255 0 0
-0.0087571 0.0717101 0.0179893 255 0 0
-0.0064756 0.0717095 0.0179893 255 0 0
-0.0041876 0.0717086 0.0179892 255 0 0
-0.0019076 0.0717081 0.0179885 255 0 0
0.0004272 0.0717046 0.0179870 255 0 0
0.0027314 0.0717028 0.0179825 255 0 0
0.0049814 0.0716999 0.0179798 255 0 0
0.0072362 0.0717026 0.0179708 255 0 0
0.0094964 0.0717323 0.0179540 255 0 0
0.0117516 0.0717399 0.0179333 255 0 0
-0.0910320 0.0740373 0.0179136 255 0 0
-0.0887645 0.0740111 0.0179539 255 0 0
-0.0864782 0.0740054 0.0179670 255 0 0
-0.0842337 0.0740017 0.0179752 255 0 0
-0.0819507 0.0739998 0.0179806 255 0 0
-0.0796635 0.0739977 0.0179854 255 0 0
-0.0773767 0.0739975 0.0179879 255 0 0
-0.0750894 0.0739973 0.0179892 255 0 0
-0.0728487 0.0739972 0.0179906 255 0 0
-0.0704671 0.0739980 0.0179897 255 0 0
-0.0681727 0.0739981 0.0179893 255 0 0
-0.0659351 0.0739978 0.0179904 255 0 0
-0.0636483 0.0739975 0.0179910 255 0 0
-0.0613606 0.0739976 0.0179909 255 0 0
-0.0590731 0.0739974 0.0179910 255 0 0
-0.0567858 0.0739972 0.0179913 255 0 0
-0.0545219 0.0739972 0.0179915 255 0 0
-0.0522342 0.0739966 0.0179916 255 0 0
-0.0499462 0.0739963 0.0179918 255 0 0
-0.0476584 0.0739962 0.0179921 255 0 0
-0.0453205 0.0739964 0.0179915 255 0 0
-0.0430091 0.0739964 0.0179912 255 0 0
-0.0407459 0.0739963 0.0179914 255 0 0
-0.0384820 0.0739964 0.0179914 255 0 0
-0.0361946 0.0739965 0.0179913 255 0 0
-0.0339092 0.0739966 0.0179912 255 0 0
-0.0316418 0.0739964 0.0179908 255 0 0
-0.0293548 0.0739958 0.0179886 255 0 0
-0.0270768 0.0739946 0.0179833 255 0 0
-0.0247435 0.0739965 0.0179916 255 0 0
-0.0224311 0.0739986 0.0179965 255 0 0
-0.0201566 0.0739963 0.0179915 255 0 0
-0.0178830 0.0739962 0.0179892 255 0 0
-0.0156037 0.0739962 0.0179902 255 0 0
-0.0133226 0.0739960 0.0179904 255 0 0
-0.0110374 0.0739959 0.0179904 255 0 0
-0.0087567 0.0739966 0.0179904 255 0 0
-0.0064755 0.0739963 0.0179904 255 0 0
-0.0041874 0.0739958 0.0179903 255 0 0
-0.0019071 0.0739946 0.0179898 255 0 0
0.0004290 0.0739916 0.0179890 255 0 0
0.0027344 0.0739892 0.0179851 255 0 0
0.0049843 0.0739865 0.0179821 255 0 0
0.0072408 0.0739875 0.0179732 255 0 0
0.0095066 0.0739890 0.0179584 255 0 0
0.0117642 0.0740031 0.0179372 255 0 0
0.0140139 0.0740377 0.0179109 255 0 0
-0.0932893 0.0763515 0.0178756 255 0 0
-0.0910465 0.0763088 0.0179331 255 0 0
-0.0887647 0.0762935 0.0179688 255 0 0
-0.0864787 0.0762905 0.0179745 255 0 0
-0.0842380 0.0762882 0.0179803 255 0 0
-0.0819510 0.0762858 0.0179862 255 0 0
-0.0796638 0.0762850 0.0179895 255 0 0
-0.0773769 0.0762851 0.0179908 255 0 0
-0.0750890 0.0762848 0.0179920 255 0 0
-0.0728490 0.0762848 0.0179931 255 0 0
-0.0704668 0.0762854 0.0179919 255 0 0
-0.0681726 0.0762857 0.0179915 255 0 0
-0.0659355 0.0762852 0.0179925 255 0 0
-0.0636482 0.0762850 0.0179931 255 0 0
-0.0613606 0.0762850 0.0179929 255 0 0
-0.0590730 0.0762848 0.0179930 255 0 0
-0.0567856 0.0762848 0.0179932 255 0 0
-0.0545219 0.0762848 0.0179934 255 0 0
-0.0522342 0.0762848 0.0179935 255 0 0
-0.0499464 0.0762848 0.0179937 255 0 0
-0.0476586 0.0762848 0.0179939 255 0 0
-0.0453204 0.0762850 0.0179932 255 0 0
-0.0430088 0.0762847 0.0179930 255 0 0
-0.0407459 0.0762846 0.0179930 255 0 0
-0.0384822 0.0762845 0.0179931 255 0 0
-0.0361949 0.0762846 0.0179932 255 0 0
-0.0339087 0.0762846 0.0179931 255 0 0
-0.0316419 0.0762845 0.0179928 255 0 0
-0.0293550 0.0762834 0.0179910 255 0 0
-0.0270760 0.0762826 0.0179853 255 0 0
-0.0247435 0.0762847 0.0179936 255 0 0
-0.0224311 0.0762854 0.0179987 255 0 0
-0.0201564 0.0762842 0.0179935 255 0 0
-0.0178830 0.0762840 0.0179916 255 0 0
-0.0156036 0.0762844 0.0179923 255 0 0
-0.0133226 0.0762845 0.0179926 255 0 0
-0.0110372 0.0762841 0.0179925 255 0 0
-0.0087562 0.0762838 0.0179925 255 0 0
-0.0064756 0.0762834 0.0179926 255 0 0
-0.0041873 0.0762824 0.0179926 255 0 0
-0.0019063 0.0762815 0.0179923 255 0 0
0.0004311 0.0762785 0.0179908 255 0 0
0.0027377 0.0762765 0.0179868 255 0 0
0.0049883 0.0762757 0.0179840 255 0 0
0.0072466 0.0762770 0.0179759 255 0 0
0.0095155 0.0762785 0.0179627 255 0 0
0.0117766 0.0762849 0.0179412 255 0 0
0.0140297 0.0762987 0.0179114 255 0 0
-0.0933249 0.0786318 0.0178989 255 0 0
-0.0910511 0.0785873 0.0179466 255 0 0
-0.0887644 0.0785777 0.0179767 255 0 0
-0.0864915 0.0785775 0.0179804 255 0 0
-0.0842385 0.0785750 0.0179848 255 0 0
-0.0819512 0.0785738 0.0179895 255 0 0
-0.0796639 0.0785729 0.0179917 255 0 0
-0.0773769 0.0785723 0.0179927 255 0 0
-0.0750891 0.0785720 0.0179936 255 0 0
-0.0728497 0.0785711 0.0179948 255 0 0
-0.0704664 0.0785714 0.0179932 255 0 0
-0.0681721 0.0785715 0.0179924 255 0 0
-0.0659355 0.0785710 0.0179936 255 0 0
-0.0636486 0.0785706 0.0179942 255 0 0
-0.0613607 0.0785707 0.0179938 255 0 0
-0.0590731 0.0785711 0.0179938 255 0 0
-0.0567856 0.0785714 0.0179939 255 0 0
-0.0545222 0.0785713 0.0179941 255 0 0
-0.0522344 0.0785713 0.0179942 255 0 0
-0.0499466 0.0785714 0.0179944 255 0 0
-0.0476588 0.0785715 0.0179947 255 0 0
-0.0453201 0.0785715 0.0179939 255 0 0
-0.0430082 0.0785714 0.0179935 255 0 0
-0.0407455 0.0785712 0.0179937 255 0 0
-0.0384821 0.0785713 0.0179939 255 0 0
-0.0361945 0.0785715 0.0179939 255 0 0
-0.0339085 0.0785716 0.0179938 255 0 0
-0.0316418 0.0785716 0.0179936 255 0 0
-0.0293551 0.0785711 0.0179922 255 0 0
-0.0270740 0.0785716 0.0179874 255 0 0
-0.0247435 0.0785724 0.0179944 255 0 0
-0.0224308 0.0785745 0.0179995 255 0 0
-0.0201563 0.0785721 0.0179944 255 0 0
-0.0178829 0.0785711 0.0179926 255 0 0
-0.0156035 0.0785712 0.0179933 255 0 0
-0.0133226 0.0785714 0.0179937 255 0 0
-0.0110372 0.0785711 0.0179936 255 0 0
-0.0087555 0.0785700 0.0179937 255 0 0
-0.0064758 0.0785696 0.0179939 255 0 0
-0.0041872 0.0785689 0.0179940 255 0 0
-0.0019058 0.0785682 0.0179937 255 0 0
0.0004328 0.0785664 0.0179919 255 0 0
0.0027404 0.0785662 0.0179887 255 0 0
0.0049917 0.0785669 0.0179863 255 0 0
0.0072517 0.0785657 0.0179788 255 0 0
0.0095228 0.0785664 0.0179673 255 0 0
0.0117861 0.0785716 0.0179467 255 0 0
0.0140448 0.0785791 0.0179166 255 0 0
0.0163098 0.0785924 0.0178766 255 0 0
-0.0956187 0.0809024 0.0178519 255 0 0
-0.0933349 0.0808822 0.0179222 255 0 0
-0.0910510 0.0808672 0.0179585 255 0 0
-0.0887644 0.0808604 0.0179803 255 0 0
-0.0865205 0.0808597 0.0179839 255 0 0
-0.0842389 0.0808595 0.0179876 255 0 0
-0.0819513 0.0808586 0.0179900 255 0 0
-0.0796639 0.0808576 0.0179914 255 0 0
-0.0773768 0.0808559 0.0179923 255 0 0
-0.0750889 0.0808559 0.0179930 255 0 0
-0.0728497 0.0808558 0.0179942 255 0 0
-0.0704661 0.0808564 0.0179925 255 0 0
-0.0681719 0.0808563 0.0179918 255 0 0
-0.0659355 0.0808556 0.0179929 255 0 0
-0.0636482 0.0808555 0.0179935 255 0 0
-0.0613606 0.0808555 0.0179930 255 0 0
-0.0590730 0.0808557 0.0179928 255 0 0
-0.0567854 0.0808558 0.0179929 255 0 0
-0.0545223 0.0808563 0.0179930 255 0 0
-0.0522345 0.0808570 0.0179931 255 0 0
-0.0499467 0.0808569 0.0179933 255 0 0
-0.0476589 0.0808571 0.0179937 255 0 0
-0.0453199 0.0808572 0.0179929 255 0 0
-0.0430083 0.0808573 0.0179925 255 0 0
-0.0407456 0.0808571 0.0179929 255 0 0
-0.0384823 0.0808571 0.0179930 255 0 0
-0.0361950 0.0808572 0.0179929 255 0 0
-0.0339087 0.0808573 0.0179930 255 0 0
-0.0316419 0.0808571 0.0179928 255 0 0
-0.0293549 0.0808581 0.0179917 255 0 0
-0.0270728 0.0808584 0.0179876 255 0 0
-0.0247435 0.0808582 0.0179938 255 0 0
-0.0224303 0.0808585 0.0179987 255 0 0
-0.0201563 0.0808579 0.0179939 255 0 0
-0.0178827 0.0808560 0.0179924 255 0 0
-0.0156034 0.0808562 0.0179930 255 0 0
-0.0133226 0.0808563 0.0179933 255 0 0
-0.0110367 0.0808560 0.0179933 255 0 0
-0.0087553 0.0808553 0.0179934 255 0 0
-0.0064755 0.0808549 0.0179936 255 0 0
-0.0041859 0.0808544 0.0179937 255 0 0
-0.0019055 0.0808533 0.0179935 255 0 0
0.0004339 0.0808534 0.0179920 255 0 0
0.0027426 0.0808532 0.0179899 255 0 0
0.0049937 0.0808517 0.0179882 255 0 0
0.0072549 0.0808511 0.0179808 255 0 0
0.0095292 0.0808525 0.0179712 255 0 0
0.0117956 0.0808543 0.0179517 255 0 0
0.0140559 0.0808604 0.0179248 255 0 0
0.0163187 0.0808701 0.0178867 255 0 0
-0.0956202 0.0831701 0.0178794 255 0 0
-0.0933386 0.0831585 0.0179328 255 0 0
-0.0910513 0.0831509 0.0179608 255 0 0
-0.0887640 0.0831462 0.0179770 255 0 0
-0.0865259 0.0831467 0.0179798 255 0 0
-0.0842389 0.0831464 0.0179831 255 0 0
-0.0819512 0.0831449 0.0179856 255 0 0
-0.0796640 0.0831437 0.0179869 255 0 0
-0.0773769 0.0831438 0.0179876 255 0 0
-0.0750892 0.0831429 0.0179881 255 0 0
-0.0728505 0.0831424 0.0179892 255 0 0
-0.0704673 0.0831426 0.0179873 255 0 0
-0.0681715 0.0831428 0.0179866 255 0 0
-0.0659358 0.0831423 0.0179876 255 0 0
-0.0636485 0.0831420 0.0179883 255 0 0
-0.0613606 0.0831419 0.0179876 255 0 0
-0.0590730 0.0831419 0.0179874 255 0 0
-0.0567855 0.0831427 0.0179875 255 0 0
-0.0545225 0.0831428 0.0179877 255 0 0
-0.0522347 0.0831429 0.0179879 255 0 0
-0.0499469 0.0831431 0.0179882 255 0 0
-0.0476591 0.0831431 0.0179886 255 0 0
-0.0453197 0.0831433 0.0179878 255 0 0
-0.0430126 0.0831433 0.0179876 255 0 0
-0.0407452 0.0831431 0.0179879 255 0 0
-0.0384819 0.0831432 0.0179881 255 0 0
-0.0361943 0.0831432 0.0179881 255 0 0
-0.0339081 0.0831432 0.0179882 255 0 0
-0.0316416 0.0831431 0.0179881 255 0 0
-0.0293550 0.0831440 0.0179867 255 0 0
-0.0270729 0.0831461 0.0179820 255 0 0
-0.0247433 0.0831438 0.0179888 255 0 0
-0.0224303 0.0831454 0.0179926 255 0 0
-0.0201565 0.0831437 0.0179892 255 0 0
-0.0178826 0.0831428 0.0179878 255 0 0
-0.0156035 0.0831429 0.0179885 255 0 0
-0.0133228 0.0831430 0.0179888 255 0 0
-0.0110362 0.0831430 0.0179887 255 0 0
-0.0087548 0.0831423 0.0179889 255 0 0
-0.0064752 0.0831421 0.0179891 255 0 0
-0.0041853 0.0831418 0.0179891 255 0 0
-0.0019046 0.0831410 0.0179890 255 0 0
0.0004345 0.0831395 0.0179872 255 0 0
0.0027434 0.0831390 0.0179843 255 0 0
0.0049962 0.0831394 0.0179828 255 0 0
0.0072579 0.0831403 0.0179768 255 0 0
0.0095351 0.0831402 0.0179690 255 0 0
0.0118032 0.0831423 0.0179519 255 0 0
0.0140670 0.0831466 0.0179273 255 0 0
0.0163309 0.0831552 0.0178925 255 0 0
0.0185984 0.0831683 0.0178473 255 0 0
-0.0978847 0.0854629 0.0178465 255 0 0
-0.0956243 0.0854511 0.0178933 255 0 0
-0.0933387 0.0854417 0.0179299 255 0 0
-0.0910509 0.0854372 0.0179491 255 0 0
-0.0887637 0.0854171 0.0179619 255 0 0
-0.0865259 0.0854167 0.0179656 255 0 0
-0.0842386 0.0854166 0.0179692 255 0 0
-0.0819510 0.0854138 0.0179718 255 0 0
-0.0796634 0.0854040 0.0179732 255 0 0
-0.0773763 0.0854023 0.0179735 255 0 0
-0.0750885 0.0854026 0.0179738 255 0 0
-0.0728505 0.0854026 0.0179744 255 0 0
-0.0704786 0.0854025 0.0179730 255 0 0
-0.0681712 0.0854027 0.0179720 255 0 0
-0.0659354 0.0854022 0.0179733 255 0 0
-0.0636483 0.0854021 0.0179736 255 0 0
-0.0613601 0.0854016 0.0179732 255 0 0
-0.0590725 0.0854016 0.0179730 255 0 0
-0.0567851 0.0854015 0.0179730 255 0 0
-0.0545223 0.0854016 0.0179731 255 0 0
-0.0522346 0.0854017 0.0179733 255 0 0
-0.0499468 0.0854020 0.0179735 255 0 0
-0.0476590 0.0854022 0.0179737 255 0 0
-0.0453193 0.0854024 0.0179734 255 0 0
-0.0430130 0.0854025 0.0179731 255 0 0
-0.0407473 0.0854024 0.0179735 255 0 0
-0.0384817 0.0854023 0.0179737 255 0 0
-0.0361942 0.0854023 0.0179738 255 0 0
-0.0339073 0.0854023 0.0179739 255 0 0
-0.0316415 0.0854023 0.0179739 255 0 0
-0.0293521 0.0854024 0.0179718 255 0 0
-0.0270717 0.0854091 0.0179676 255 0 0
-0.0247433 0.0854030 0.0179747 255 0 0
-0.0224309 0.0854044 0.0179783 255 0 0
-0.0201617 0.0854022 0.0179749 255 0 0
-0.0178827 0.0854021 0.0179731 255 0 0
-0.0156033 0.0854017 0.0179746 255 0 0
-0.0133226 0.0854017 0.0179748 255 0 0
-0.0110354 0.0854018 0.0179747 255 0 0
-0.0087540 0.0854020 0.0179747 255 0 0
-0.0064739 0.0854020 0.0179748 255 0 0
-0.0041849 0.0854021 0.0179747 255 0 0
-0.0019033 0.0854036 0.0179746 255 0 0
0.0004343 0.0854046 0.0179731 255 0 0
0.0027430 0.0854139 0.0179704 255 0 0
0.0049970 0.0854166 0.0179692 255 0 0
0.0072615 0.0854167 0.0179640 255 0 0
0.0095382 0.0854260 0.0179541 255 0 0
0.0118105 0.0854316 0.0179409 255 0 0
0.0140774 0.0854354 0.0179196 255 0 0
0.0163440 0.0854445 0.0178873 255 0 0
0.0186121 0.0854576 0.0178417 255 0 0
-0.0978650 0.0877510 0.0178923 255 0 0
-0.0956233 0.0877325 0.0179377 255 0 0
-0.0933390 0.0877248 0.0179720 255 0 0
-0.0910504 0.0877182 0.0179834 255 0 0
-0.0887671 0.0877150 0.0179927 255 0 0
-0.0865260 0.0877158 0.0179951 255 0 0
-0.0842390 0.0877154 0.0179974 255 0 0
-0.0819513 0.0877153 0.0179982 255 0 0
-0.0796640 0.0877157 0.0179987 255 0 0
-0.0773770 0.0877158 0.0179989 255 0 0
-0.0750892 0.0877161 0.0179993 255 0 0
-0.0728513 0.0877162 0.0180002 255 0 0
-0.0704641 0.0877167 0.0179984 255 0 0
-0.0681705 0.0877171 0.0179976 255 0 0
-0.0659354 0.0877165 0.0179988 255 0 0
-0.0636483 0.0877161 0.0179994 255 0 0
-0.0613607 0.0877158 0.0179992 255 0 0
-0.0590730 0.0877159 0.0179992 255 0 0
-0.0567855 0.0877160 0.0179994 255 0 0
-0.0545231 0.0877160 0.0179995 255 0 0
-0.0522354 0.0877161 0.0179999 255 0 0
-0.0499475 0.0877161 0.0180003 255 0 0
-0.0476597 0.0877163 0.0180008 255 0 0
-0.0453191 0.0877163 0.0180005 255 0 0
-0.0430059 0.0877164 0.0180004 255 0 0
-0.0407446 0.0877163 0.0180007 255 0 0
-0.0384824 0.0877163 0.0180009 255 0 0
-0.0361950 0.0877165 0.0180009 255 0 0
-0.0339094 0.0877166 0.0180009 255 0 0
-0.0316423 0.0877171 0.0180007 255 0 0
-0.0293555 0.0877186 0.0179995 255 0 0
-0.0270794 0.0877204 0.0179947 255 0 0
-0.0247438 0.0877149 0.0180010 255 0 0
-0.0224277 0.0877138 0.0180052 255 0 0
-0.0201562 0.0877144 0.0180010 255 0 0
-0.0178832 0.0877170 0.0179998 255 0 0
-0.0156034 0.0877165 0.0180003 255 0 0
-0.0133230 0.0877165 0.0180004 255 0 0
-0.0110378 0.0877165 0.0180002 255 0 0
-0.0087560 0.0877165 0.0180002 255 0 0
-0.0064764 0.0877164 0.0180002 255 0 0
-0.0041861 0.0877165 0.0180002 255 0 0
-0.0019053 0.0877162 0.0180001 255 0 0
0.0004366 0.0877160 0.0179988 255 0 0
0.0027473 0.0877160 0.0179969 255 0 0
0.0049998 0.0877153 0.0179961 255 0 0
0.0072636 0.0877146 0.0179918 255 0 0
0.0095432 0.0877129 0.0179851 255 0 0
0.0118155 0.0877149 0.0179724 255 0 0
0.0140820 0.0877203 0.0179529 255 0 0
0.0163438 0.0877287 0.0179211 255 0 0
0.0186074 0.0877411 0.0178759 255 0 0
-0.0978650 0.0900491 0.0179257 255 0 0
-0.0956239 0.0900149 0.0179674 255 0 0
-0.0933393 0.0900070 0.0179977 255 0 0
-0.0910506 0.0900009 0.0180047 255 0 0
-0.0887730 0.0899980 0.0180109 255 0 0
-0.0865261 0.0899985 0.0180127 255 0 0
-0.0842390 0.0899996 0.0180136 255 0 0
-0.0819513 0.0899998 0.0180142 255 0 0
-0.0796643 0.0900000 0.0180144 255 0 0
-0.0773785 0.0900004 0.0180147 255 0 0
-0.0751065 0.0900007 0.0180150 255 0 0
-0.0728522 0.0900009 0.0180163 255 0 0
-0.0704615 0.0900018 0.0180140 255 0 0
-0.0681699 0.0900022 0.0180128 255 0 0
-0.0659353 0.0900020 0.0180145 255 0 0
-0.0636478 0.0900016 0.0180154 255 0 0
-0.0613611 0.0900018 0.0180152 255 0 0
-0.0590735 0.0900017 0.0180151 255 0 0
-0.0567860 0.0900015 0.0180155 255 0 0
-0.0545236 0.0900015 0.0180158 255 0 0
-0.0522358 0.0900017 0.0180162 255 0 0
-0.0499480 0.0900018 0.0180168 255 0 0
-0.0476602 0.0900019 0.0180177 255 0 0
-0.0453190 0.0900019 0.0180173 255 0 0
-0.0430051 0.0900019 0.0180172 255 0 0
-0.0407444 0.0900016 0.0180176 255 0 0
-0.0384827 0.0900014 0.0180178 255 0 0
-0.0361953 0.0900012 0.0180177 255 0 0
-0.0339149 0.0900011 0.0180175 255 0 0
-0.0316424 0.0900012 0.0180171 255 0 0
-0.0293559 0.0900023 0.0180159 255 0 0
-0.0270811 0.0900063 0.0180108 255 0 0
-0.0247438 0.0899996 0.0180176 255 0 0
-0.0224272 0.0899965 0.0180207 255 0 0
-0.0201557 0.0899991 0.0180172 255 0 0
-0.0178835 0.0900008 0.0180154 255 0 0
-0.0156035 0.0900006 0.0180159 255 0 0
-0.0133232 0.0900006 0.0180159 255 0 0
-0.0110392 0.0900008 0.0180157 255 0 0
-0.0087588 0.0900008 0.0180156 255 0 0
-0.0064770 0.0900009 0.0180157 255 0 0
-0.0041880 0.0900007 0.0180158 255 0 0
-0.0019065 0.0900006 0.0180159 255 0 0
0.0004382 0.0900006 0.0180141 255 0 0
0.0027504 0.0900003 0.0180125 255 0 0
0.0050017 0.0899992 0.0180120 255 0 0
0.0072653 0.0899990 0.0180088 255 0 0
0.0095452 0.0899989 0.0180038 255 0 0
0.0118183 0.0900004 0.0179921 255 0 0
0.0140850 0.0900049 0.0179723 255 0 0
0.0163446 0.0900140 0.0179426 255 0 0
0.0186040 0.0900252 0.0178980 255 0 0
-0.0978688 0.0923097 0.0179255 255 0 0
-0.0956242 0.0923040 0.0179578 255 0 0
-0.0933526 0.0923032 0.0179805 255 0 0
-0.0910502 0.0922979 0.0179855 255 0 0
-0.0887867 0.0922940 0.0179890 255 0 0
-0.0865261 0.0922949 0.0179907 255 0 0
-0.0842386 0.0922956 0.0179924 255 0 0
-0.0819510 0.0922960 0.0179928 255 0 0
-0.0796636 0.0922958 0.0179932 255 0 0
-0.0773767 0.0922963 0.0179935 255 0 0
-0.0750889 0.0922965 0.0179938 255 0 0
-0.0728521 0.0922967 0.0179946 255 0 0
-0.0704651 0.0922973 0.0179928 255 0 0
-0.0681694 0.0922973 0.0179921 255 0 0
-0.0659356 0.0922969 0.0179937 255 0 0
-0.0636482 0.0922965 0.0179945 255 0 0
-0.0613607 0.0922964 0.0179941 255 0 0
-0.0590730 0.0922963 0.0179942 255 0 0
-0.0567856 0.0922961 0.0179947 255 0 0
-0.0545235 0.0922961 0.0179952 255 0 0
-0.0522358 0.0922963 0.0179956 255 0 0
-0.0499480 0.0922964 0.0179962 255 0 0
-0.0476602 0.0922966 0.0179966 255 0 0
-0.0453189 0.0922967 0.0179961 255 0 0
-0.0430049 0.0922966 0.0179957 255 0 0
-0.0407441 0.0922965 0.0179962 255 0 0
-0.0384824 0.0922961 0.0179965 255 0 0
-0.0361951 0.0922962 0.0179964 255 0 0
-0.0339094 0.0922966 0.0179964 255 0 0
-0.0316416 0.0922977 0.0179962 255 0 0
-0.0293557 0.0922992 0.0179936 255 0 0
-0.0270746 0.0923015 0.0179893 255 0 0
-0.0247437 0.0922958 0.0179961 255 0 0
-0.0224286 0.0922919 0.0179999 255 0 0
-0.0201564 0.0922954 0.0179959 255 0 0
-0.0178834 0.0922974 0.0179931 255 0 0
-0.0156032 0.0922967 0.0179943 255 0 0
-0.0133231 0.0922965 0.0179948 255 0 0
-0.0110373 0.0922965 0.0179945 255 0 0
-0.0087556 0.0922966 0.0179944 255 0 0
-0.0064759 0.0922965 0.0179946 255 0 0
-0.0041860 0.0922965 0.0179948 255 0 0
-0.0019051 0.0922963 0.0179950 255 0 0
0.0004373 0.0922963 0.0179931 255 0 0
0.0027487 0.0922962 0.0179913 255 0 0
0.0050018 0.0922953 0.0179910 255 0 0
0.0072661 0.0922947 0.0179883 255 0 0
0.0095461 0.0922941 0.0179837 255 0 0
0.0118198 0.0922954 0.0179740 255 0 0
0.0140881 0.0922994 0.0179581 255 0 0
0.0163509 0.0923052 0.0179323 255 0 0
0.0186100 0.0923147 0.0178908 255 0 0
-0.0978947 0.0945950 0.0179242 255 0 0
-0.0956244 0.0945920 0.0179548 255 0 0
-0.0933532 0.0945939 0.0179737 255 0 0
-0.0910503 0.0945872 0.0179758 255 0 0
-0.0887925 0.0945833 0.0179794 255 0 0
-0.0865263 0.0945839 0.0179810 255 0 0
-0.0842389 0.0945848 0.0179821 255 0 0
-0.0819512 0.0945849 0.0179826 255 0 0
-0.0796639 0.0945851 0.0179831 255 0 0
-0.0773771 0.0945852 0.0179835 255 0 0
-0.0750893 0.0945859 0.0179840 255 0 0
-0.0728528 0.0945859 0.0179849 255 0 0
-0.0704654 0.0945865 0.0179829 255 0 0
-0.0681686 0.0945866 0.0179818 255 0 0
-0.0659351 0.0945855 0.0179836 255 0 0
-0.0636481 0.0945850 0.0179845 255 0 0
-0.0613605 0.0945850 0.0179841 255 0 0
-0.0590730 0.0945850 0.0179842 255 0 0
-0.0567855 0.0945849 0.0179847 255 0 0
-0.0545238 0.0945848 0.0179850 255 0 0
-0.0522361 0.0945849 0.0179854 255 0 0
-0.0499482 0.0945851 0.0179858 255 0 0
-0.0476604 0.0945851 0.0179864 255 0 0
-0.0453185 0.0945852 0.0179854 255 0 0
-0.0430084 0.0945851 0.0179850 255 0 0
-0.0407440 0.0945843 0.0179854 255 0 0
-0.0384818 0.0945841 0.0179856 255 0 0
-0.0361946 0.0945842 0.0179855 255 0 0
-0.0339082 0.0945843 0.0179857 255 0 0
-0.0316413 0.0945852 0.0179856 255 0 0
-0.0293552 0.0945876 0.0179837 255 0 0
-0.0270744 0.0945905 0.0179789 255 0 0
-0.0247436 0.0945843 0.0179864 255 0 0
-0.0224306 0.0945816 0.0179891 255 0 0
-0.0201575 0.0945839 0.0179859 255 0 0
-0.0178834 0.0945851 0.0179834 255 0 0
-0.0156031 0.0945847 0.0179840 255 0 0
-0.0133230 0.0945846 0.0179843 255 0 0
-0.0110360 0.0945847 0.0179841 255 0 0
-0.0087547 0.0945848 0.0179841 255 0 0
-0.0064745 0.0945846 0.0179843 255 0 0
-0.0041858 0.0945848 0.0179845 255 0 0
-0.0019042 0.0945846 0.0179847 255 0 0
0.0004369 0.0945848 0.0179830 255 0 0
0.0027480 0.0945850 0.0179813 255 0 0
0.0050015 0.0945841 0.0179808 255 0 0
0.0072664 0.0945841 0.0179782 255 0 0
0.0095465 0.0945839 0.0179744 255 0 0
0.0118205 0.0945856 0.0179655 255 0 0
0.0140907 0.0945861 0.0179516 255 0 0
0.0163518 0.0945904 0.0179279 255 0 0
0.0186115 0.0945977 0.0178890 255 0 0
-0.0979015 0.0968841 0.0179302 255 0 0
-0.0956232 0.0968791 0.0179625 255 0 0
-0.0933531 0.0968791 0.0179777 255 0 0
-0.0910494 0.0968737 0.0179818 255 0 0
-0.0887942 0.0968709 0.0179854 255 0 0
-0.0865260 0.0968718 0.0179866 255 0 0
-0.0842388 0.0968720 0.0179879 255 0 0
-0.0819512 0.0968723 0.0179886 255 0 0
-0.0796638 0.0968725 0.0179892 255 0 0
-0.0773768 0.0968725 0.0179896 255 0 0
-0.0750889 0.0968725 0.0179900 255 0 0
-0.0728529 0.0968724 0.0179907 255 0 0
-0.0704648 0.0968728 0.0179893 255 0 0
-0.0681686 0.0968731 0.0179883 255 0 0
-0.0659354 0.0968725 0.0179901 255 0 0
-0.0636482 0.0968721 0.0179907 255 0 0
-0.0613606 0.0968722 0.0179903 255 0 0
-0.0590730 0.0968722 0.0179903 255 0 0
-0.0567855 0.0968723 0.0179906 255 0 0
-0.0545239 0.0968722 0.0179909 255 0 0
-0.0522362 0.0968723 0.0179912 255 0 0
-0.0499484 0.0968725 0.0179917 255 0 0
-0.0476606 0.0968725 0.0179923 255 0 0
-0.0453183 0.0968720 0.0179912 255 0 0
-0.0430048 0.0968713 0.0179907 255 0 0
-0.0407439 0.0968712 0.0179911 255 0 0
-0.0384822 0.0968709 0.0179912 255 0 0
-0.0361949 0.0968708 0.0179911 255 0 0
-0.0339086 0.0968706 0.0179912 255 0 0
-0.0316415 0.0968702 0.0179912 255 0 0
-0.0293555 0.0968706 0.0179885 255 0 0
-0.0270748 0.0968707 0.0179841 255 0 0
-0.0247437 0.0968707 0.0179918 255 0 0
-0.0224307 0.0968703 0.0179951 255 0 0
-0.0201572 0.0968694 0.0179915 255 0 0
-0.0178833 0.0968679 0.0179883 255 0 0
-0.0156030 0.0968683 0.0179894 255 0 0
-0.0133231 0.0968686 0.0179898 255 0 0
-0.0110360 0.0968690 0.0179896 255 0 0
-0.0087548 0.0968693 0.0179897 255 0 0
-0.0064749 0.0968695 0.0179900 255 0 0
-0.0041860 0.0968695 0.0179903 255 0 0
-0.0019047 0.0968694 0.0179905 255 0 0
0.0004373 0.0968686 0.0179888 255 0 0
0.0027488 0.0968675 0.0179872 255 0 0
0.0050015 0.0968664 0.0179868 255 0 0
0.0072663 0.0968665 0.0179842 255 0 0
0.0095461 0.0968657 0.0179800 255 0 0
0.0118198 0.0968654 0.0179708 255 0 0
0.0140883 0.0968671 0.0179561 255 0 0
0.0163504 0.0968709 0.0179318 255 0 0
0.0186079 0.0968785 0.0178928 255 0 0
-0.0979044 0.0991633 0.0179287 255 0 0
-0.0956232 0.0991588 0.0179627 255 0 0
-0.0933528 0.0991574 0.0179787 255 0 0
-0.0910494 0.0991521 0.0179838 255 0 0
-0.0887962 0.0991494 0.0179885 255 0 0
-0.0865261 0.0991503 0.0179894 255 0 0
-0.0842390 0.0991507 0.0179907 255 0 0
-0.0819515 0.0991504 0.0179914 255 0 0
-0.0796640 0.0991500 0.0179921 255 0 0
-0.0773770 0.0991498 0.0179927 255 0 0
-0.0750892 0.0991494 0.0179930 255 0 0
-0.0728537 0.0991492 0.0179937 255 0 0
-0.0704643 0.0991490 0.0179921 255 0 0
-0.0681679 0.0991488 0.0179914 255 0 0
-0.0659354 0.0991482 0.0179927 255 0 0
-0.0636486 0.0991480 0.0179934 255 0 0
-0.0613608 0.0991481 0.0179927 255 0 0
-0.0590732 0.0991480 0.0179925 255 0 0
-0.0567857 0.0991481 0.0179928 255 0 0
-0.0545243 0.0991480 0.0179930 255 0 0
-0.0522366 0.0991482 0.0179932 255 0 0
-0.0499487 0.0991485 0.0179937 255 0 0
-0.0476609 0.0991486 0.0179941 255 0 0
-0.0453181 0.0991488 0.0179930 255 0 0
-0.0430041 0.0991489 0.0179925 255 0 0
-0.0407435 0.0991487 0.0179929 255 0 0
