ply
format ascii 1.0
element vertex 1147
property float x
property float y
property float z
property uchar red
property uchar green
property uchar blue
end_header
0.0028046 0.0807304 -0.0717589 255 255 0
0.0048838 0.0807304 -0.0717589 255 255 0
0.0069631 0.0807304 -0.0717589 255 255 0
0.0090425 0.0807304 -0.0717589 255 255 0
0.0111218 0.0807304 -0.0717589 255 255 0
-0.0263065 0.0828060 -0.0717554 255 255 0
-0.0242271 0.0828060 -0.0717557 255 255 0
-0.0221478 0.0828063 -0.0717559 255 255 0
-0.0200684 0.0828063 -0.0717562 255 255 0
-0.0179891 0.0828065 -0.0717564 255 255 0
-0.0159097 0.0828065 -0.0717566 255 255 0
-0.0138304 0.0828065 -0.0717569 255 255 0
-0.0117510 0.0828065 -0.0717571 255 255 0
-0.0096717 0.0828066 -0.0717573 255 255 0
-0.0075923 0.0828068 -0.0717578 255 255 0
-0.0055130 0.0828069 -0.0717581 255 255 0
-0.0034334 0.0828078 -0.0717583 255 255 0
-0.0013542 0.0828083 -0.0717584 255 255 0
0.0007252 0.0828094 -0.0717588 255 255 0
0.0028046 0.0828097 -0.0717589 255 255 0
0.0048838 0.0828097 -0.0717589 255 255 0
0.0069631 0.0828097 -0.0717589 255 255 0
0.0090425 0.0828097 -0.0717589 255 255 0
-0.0221478 0.0848857 -0.0717558 255 255 0
-0.0200684 0.0848859 -0.0717560 255 255 0
-0.0179891 0.0848859 -0.0717563 255 255 0
-0.0159097 0.0848860 -0.0717567 255 255 0
-0.0138304 0.0848858 -0.0717571 255 255 0
-0.0117510 0.0848859 -0.0717572 255 255 0
-0.0096717 0.0848861 -0.0717577 255 255 0
-0.0075923 0.0848865 -0.0717581 255 255 0
-0.0055130 0.0848871 -0.0717583 255 255 0
-0.0034336 0.0848874 -0.0717585 255 255 0
-0.0013542 0.0848884 -0.0717586 255 255 0
0.0007252 0.0848891 -0.0717588 255 255 0
0.0028044 0.0848891 -0.0717589 255 255 0
0.0048838 0.0848891 -0.0717589 255 255 0
-0.0159097 0.0869653 -0.0717567 255 255 0
-0.0138304 0.0869652 -0.0717572 255 255 0
-0.0117510 0.0869657 -0.0717574 255 255 0
-0.0096717 0.0869659 -0.0717582 255 255 0
-0.0075923 0.0869662 -0.0717584 255 255 0
-0.0055130 0.0869669 -0.0717585 255 255 0
-0.0034336 0.0869677 -0.0717585 255 255 0
-0.0075923 0.0328872 -0.0696796 255 255 0
-0.0055130 0.0328872 -0.0696796 255 255 0
-0.0159097 0.0349665 -0.0696793 255 255 0
-0.0138304 0.0349665 -0.0696796 255 255 0
-0.0117510 0.0349665 -0.0696796 255 255 0
-0.0096717 0.0349665 -0.0696796 255 255 0
-0.0075923 0.0349665 -0.0696796 255 255 0
-0.0055130 0.0349665 -0.0696796 255 255 0
-0.0034336 0.0349665 -0.0696796 255 255 0
-0.0013543 0.0349665 -0.0696796 255 255 0
-0.0242271 0.0370458 -0.0696787 255 255 0
-0.0221478 0.0370460 -0.0696791 255 255 0
-0.0200684 0.0370460 -0.0696792 255 255 0
-0.0179891 0.0370460 -0.0696793 255 255 0
-0.0159097 0.0370460 -0.0696796 255 255 0
-0.0138304 0.0370460 -0.0696796 255 255 0
-0.0117510 0.0370459 -0.0696796 255 255 0
-0.0096717 0.0370459 -0.0696796 255 255 0
-0.0075923 0.0370459 -0.0696796 255 255 0
-0.0055130 0.0370459 -0.0696796 255 255 0
-0.0034336 0.0370459 -0.0696796 255 255 0
-0.0013543 0.0370459 -0.0696796 255 255 0
0.0007251 0.0370459 -0.0696796 255 255 0
0.0028044 0.0370458 -0.0696796 255 255 0
-0.0283858 0.0391250 -0.0696785 255 255 0
-0.0263065 0.0391250 -0.0696788 255 255 0
-0.0242271 0.0391253 -0.0696791 255 255 0
-0.0221478 0.0391254 -0.0696793 255 255 0
-0.0200684 0.0391254 -0.0696794 255 255 0
-0.0179891 0.0391254 -0.0696796 255 255 0
-0.0159097 0.0391254 -0.0696796 255 255 0
-0.0138304 0.0391254 -0.0696796 255 255 0
-0.0117510 0.0391254 -0.0696796 255 255 0
-0.0096717 0.0391254 -0.0696796 255 255 0
-0.0075923 0.0391254 -0.0696796 255 255 0
-0.0055130 0.0391254 -0.0696796 255 255 0
-0.0034336 0.0391254 -0.0696796 255 255 0
-0.0013543 0.0391253 -0.0696796 255 255 0
0.0007251 0.0391252 -0.0696796 255 255 0
0.0028044 0.0391252 -0.0696796 255 255 0
0.0048838 0.0391252 -0.0696796 255 255 0
0.0069631 0.0391250 -0.0696796 255 255 0
-0.0304652 0.0412041 -0.0696783 255 255 0
-0.0283858 0.0412045 -0.0696787 255 255 0
-0.0263065 0.0412049 -0.0696791 255 255 0
-0.0242271 0.0412048 -0.0696794 255 255 0
-0.0221478 0.0412048 -0.0696796 255 255 0
-0.0200684 0.0412048 -0.0696796 255 255 0
-0.0179891 0.0412048 -0.0696796 255 255 0
-0.0159097 0.0412048 -0.0696796 255 255 0
-0.0138304 0.0412048 -0.0696796 255 255 0
-0.0117510 0.0412048 -0.0696796 255 255 0
-0.0096717 0.0412048 -0.0696796 255 255 0
-0.0075923 0.0412048 -0.0696796 255 255 0
-0.0055130 0.0412048 -0.0696796 255 255 0
-0.0034336 0.0412048 -0.0696796 255 255 0
-0.0013543 0.0412047 -0.0696796 255 255 0
0.0007251 0.0412047 -0.0696796 255 255 0
0.0028044 0.0412046 -0.0696796 255 255 0
0.0048838 0.0412045 -0.0696796 255 255 0
0.0069631 0.0412044 -0.0696796 255 255 0
0.0090425 0.0412041 -0.0696796 255 255 0
0.0111218 0.0412041 -0.0696796 255 255 0
0.0132012 0.0412041 -0.0696796 255 255 0
-0.0304652 0.0432837 -0.0696785 255 255 0
-0.0283858 0.0432841 -0.0696790 255 255 0
-0.0263065 0.0432843 -0.0696795 255 255 0
-0.0242271 0.0432843 -0.0696796 255 255 0
-0.0221478 0.0432843 -0.0696796 255 255 0
-0.0200684 0.0432843 -0.0696796 255 255 0
-0.0179891 0.0432843 -0.0696796 255 255 0
-0.0159097 0.0432843 -0.0696796 255 255 0
-0.0138304 0.0432843 -0.0696796 255 255 0
-0.0117510 0.0432843 -0.0696796 255 255 0
-0.0096717 0.0432843 -0.0696796 255 255 0
-0.0075923 0.0432843 -0.0696796 255 255 0
-0.0055130 0.0432842 -0.0696796 255 255 0
-0.0034336 0.0432841 -0.0696796 255 255 0
-0.0013543 0.0432841 -0.0696796 255 255 0
0.0007251 0.0432841 -0.0696796 255 255 0
0.0028044 0.0432841 -0.0696796 255 255 0
0.0048838 0.0432839 -0.0696796 255 255 0
0.0069631 0.0432838 -0.0696796 255 255 0
0.0090425 0.0432835 -0.0696796 255 255 0
0.0111218 0.0432835 -0.0696796 255 255 0
0.0132012 0.0432835 -0.0696796 255 255 0
0.0152805 0.0432835 -0.0696796 255 255 0
-0.0304652 0.0453635 -0.0696788 255 255 0
-0.0283858 0.0453636 -0.0696794 255 255 0
-0.0263065 0.0453637 -0.0696796 255 255 0
-0.0242271 0.0453637 -0.0696796 255 255 0
-0.0221478 0.0453637 -0.0696796 255 255 0
-0.0200684 0.0453637 -0.0696796 255 255 0
-0.0179891 0.0453637 -0.0696796 255 255 0
-0.0159097 0.0453637 -0.0696796 255 255 0
-0.0138304 0.0453637 -0.0696796 255 255 0
-0.0117510 0.0453636 -0.0696796 255 255 0
-0.0096717 0.0453636 -0.0696796 255 255 0
-0.0075923 0.0453636 -0.0696796 255 255 0
-0.0055130 0.0453636 -0.0696796 255 255 0
-0.0034336 0.0453636 -0.0696796 255 255 0
-0.0013543 0.0453636 -0.0696796 255 255 0
0.0007251 0.0453636 -0.0696796 255 255 0
0.0028044 0.0453635 -0.0696796 255 255 0
0.0048838 0.0453634 -0.0696796 255 255 0
0.0069631 0.0453632 -0.0696796 255 255 0
0.0090425 0.0453628 -0.0696796 255 255 0
0.0111218 0.0453628 -0.0696796 255 255 0
0.0132012 0.0453628 -0.0696796 255 255 0
0.0152805 0.0453628 -0.0696796 255 255 0
-0.0325445 0.0474421 -0.0696783 255 255 0
-0.0304652 0.0474431 -0.0696793 255 255 0
-0.0283858 0.0474432 -0.0696796 255 255 0
-0.0263065 0.0474432 -0.0696796 255 255 0
-0.0242271 0.0474432 -0.0696796 255 255 0
-0.0221478 0.0474432 -0.0696796 255 255 0
-0.0200684 0.0474432 -0.0696796 255 255 0
-0.0179891 0.0474432 -0.0696796 255 255 0
-0.0159097 0.0474432 -0.0696796 255 255 0
-0.0138304 0.0474432 -0.0696796 255 255 0
-0.0117510 0.0474432 -0.0696796 255 255 0
-0.0096717 0.0474431 -0.0696796 255 255 0
-0.0075923 0.0474430 -0.0696796 255 255 0
-0.0055130 0.0474430 -0.0696796 255 255 0
-0.0034336 0.0474430 -0.0696796 255 255 0
-0.0013543 0.0474430 -0.0696796 255 255 0
0.0007251 0.0474430 -0.0696796 255 255 0
0.0028044 0.0474430 -0.0696796 255 255 0
0.0048838 0.0474428 -0.0696796 255 255 0
0.0069631 0.0474427 -0.0696796 255 255 0
0.0090425 0.0474422 -0.0696796 255 255 0
0.0111218 0.0474422 -0.0696796 255 255 0
0.0132012 0.0474422 -0.0696796 255 255 0
0.0152805 0.0474422 -0.0696796 255 255 0
-0.0325445 0.0495221 -0.0696787 255 255 0
-0.0304652 0.0495226 -0.0696796 255 255 0
-0.0283858 0.0495226 -0.0696796 255 255 0
-0.0263065 0.0495225 -0.0696796 255 255 0
-0.0242271 0.0495225 -0.0696796 255 255 0
-0.0221478 0.0495225 -0.0696796 255 255 0
-0.0200684 0.0495225 -0.0696796 255 255 0
-0.0179891 0.0495225 -0.0696796 255 255 0
-0.0159097 0.0495225 -0.0696796 255 255 0
-0.0138304 0.0495225 -0.0696796 255 255 0
-0.0117510 0.0495225 -0.0696796 255 255 0
-0.0096717 0.0495225 -0.0696796 255 255 0
-0.0075923 0.0495225 -0.0696796 255 255 0
-0.0055130 0.0495225 -0.0696796 255 255 0
-0.0034336 0.0495225 -0.0696796 255 255 0
-0.0013543 0.0495225 -0.0696796 255 255 0
0.0007251 0.0495224 -0.0696796 255 255 0
0.0028044 0.0495224 -0.0696796 255 255 0
0.0048838 0.0495223 -0.0696796 255 255 0
0.0069631 0.0495221 -0.0696796 255 255 0
0.0090425 0.0495216 -0.0696796 255 255 0
0.0111218 0.0495215 -0.0696796 255 255 0
0.0132012 0.0495215 -0.0696796 255 255 0
0.0152805 0.0495215 -0.0696796 255 255 0
-0.0325445 0.0516019 -0.0696791 255 255 0
-0.0304652 0.0516021 -0.0696796 255 255 0
-0.0283858 0.0516021 -0.0696796 255 255 0
-0.0263065 0.0516021 -0.0696796 255 255 0
-0.0242271 0.0516020 -0.0696796 255 255 0
-0.0221478 0.0516019 -0.0696796 255 255 0
-0.0200684 0.0516019 -0.0696796 255 255 0
-0.0179891 0.0516019 -0.0696796 255 255 0
-0.0159097 0.0516019 -0.0696796 255 255 0
-0.0138304 0.0516019 -0.0696796 255 255 0
-0.0117510 0.0516019 -0.0696796 255 255 0
-0.0096717 0.0516019 -0.0696796 255 255 0
-0.0075923 0.0516019 -0.0696796 255 255 0
-0.0055130 0.0516019 -0.0696796 255 255 0
-0.0034336 0.0516019 -0.0696796 255 255 0
-0.0013543 0.0516019 -0.0696796 255 255 0
0.0007251 0.0516019 -0.0696796 255 255 0
0.0028044 0.0516019 -0.0696796 255 255 0
0.0048838 0.0516017 -0.0696796 255 255 0
0.0069631 0.0516016 -0.0696796 255 255 0
0.0090425 0.0516010 -0.0696796 255 255 0
0.0111218 0.0516009 -0.0696796 255 255 0
0.0132012 0.0516009 -0.0696796 255 255 0
0.0152805 0.0516009 -0.0696796 255 255 0
-0.0346239 0.0536807 -0.0696786 255 255 0
-0.0325445 0.0536814 -0.0696794 255 255 0
-0.0304652 0.0536814 -0.0696796 255 255 0
-0.0283858 0.0536814 -0.0696796 255 255 0
-0.0263065 0.0536814 -0.0696796 255 255 0
-0.0242271 0.0536814 -0.0696796 255 255 0
-0.0221478 0.0536814 -0.0696796 255 255 0
-0.0200684 0.0536814 -0.0696796 255 255 0
-0.0179891 0.0536814 -0.0696796 255 255 0
-0.0159097 0.0536814 -0.0696796 255 255 0
-0.0138304 0.0536814 -0.0696796 255 255 0
-0.0117510 0.0536814 -0.0696796 255 255 0
-0.0096717 0.0536814 -0.0696796 255 255 0
-0.0075923 0.0536814 -0.0696796 255 255 0
-0.0055130 0.0536814 -0.0696796 255 255 0
-0.0034336 0.0536814 -0.0696796 255 255 0
-0.0013543 0.0536814 -0.0696796 255 255 0
0.0007251 0.0536813 -0.0696796 255 255 0
0.0028044 0.0536812 -0.0696796 255 255 0
0.0048838 0.0536812 -0.0696796 255 255 0
0.0069631 0.0536809 -0.0696796 255 255 0
0.0090425 0.0536806 -0.0696796 255 255 0
0.0111218 0.0536803 -0.0696796 255 255 0
0.0132012 0.0536802 -0.0696796 255 255 0
0.0152805 0.0536802 -0.0696796 255 255 0
0.0173599 0.0536802 -0.0696796 255 255 0
-0.0346239 0.0557607 -0.0696790 255 255 0
-0.0325445 0.0557610 -0.0696796 255 255 0
-0.0304652 0.0557608 -0.0696796 255 255 0
-0.0283858 0.0557608 -0.0696796 255 255 0
-0.0263065 0.0557608 -0.0696796 255 255 0
-0.0242271 0.0557608 -0.0696796 255 255 0
-0.0221478 0.0557608 -0.0696796 255 255 0
-0.0200684 0.0557608 -0.0696796 255 255 0
-0.0179891 0.0557608 -0.0696796 255 255 0
-0.0159097 0.0557608 -0.0696796 255 255 0
-0.0138304 0.0557608 -0.0696796 255 255 0
-0.0117510 0.0557608 -0.0696796 255 255 0
-0.0096717 0.0557608 -0.0696796 255 255 0
-0.0075923 0.0557608 -0.0696796 255 255 0
-0.0055130 0.0557608 -0.0696796 255 255 0
-0.0034336 0.0557608 -0.0696796 255 255 0
-0.0013543 0.0557608 -0.0696796 255 255 0
0.0007251 0.0557608 -0.0696796 255 255 0
0.0028044 0.0557608 -0.0696796 255 255 0
0.0048838 0.0557606 -0.0696796 255 255 0
0.0069631 0.0557605 -0.0696796 255 255 0
0.0090425 0.0557601 -0.0696796 255 255 0
0.0111218 0.0557596 -0.0696796 255 255 0
0.0132012 0.0557596 -0.0696796 255 255 0
0.0152805 0.0557596 -0.0696796 255 255 0
0.0173599 0.0557596 -0.0696796 255 255 0
-0.0367032 0.0578389 -0.0696777 255 255 0
-0.0346239 0.0578403 -0.0696790 255 255 0
-0.0325445 0.0578404 -0.0696796 255 255 0
-0.0304652 0.0578403 -0.0696796 255 255 0
-0.0283858 0.0578403 -0.0696796 255 255 0
-0.0263065 0.0578403 -0.0696796 255 255 0
-0.0242271 0.0578403 -0.0696796 255 255 0
-0.0221478 0.0578403 -0.0696796 255 255 0
-0.0200684 0.0578403 -0.0696796 255 255 0
-0.0179891 0.0578403 -0.0696796 255 255 0
-0.0159097 0.0578403 -0.0696796 255 255 0
-0.0138304 0.0578403 -0.0696796 255 255 0
-0.0117510 0.0578403 -0.0696796 255 255 0
-0.0096717 0.0578403 -0.0696796 255 255 0
-0.0075923 0.0578403 -0.0696796 255 255 0
-0.0055130 0.0578402 -0.0696796 255 255 0
-0.0034336 0.0578402 -0.0696796 255 255 0
-0.0013543 0.0578401 -0.0696796 255 255 0
0.0007251 0.0578401 -0.0696796 255 255 0
0.0028044 0.0578401 -0.0696796 255 255 0
0.0048838 0.0578401 -0.0696796 255 255 0
0.0069631 0.0578398 -0.0696796 255 255 0
0.0090425 0.0578395 -0.0696796 255 255 0
0.0111218 0.0578390 -0.0696796 255 255 0
0.0132012 0.0578390 -0.0696796 255 255 0
0.0152805 0.0578389 -0.0696796 255 255 0
0.0173599 0.0578389 -0.0696796 255 255 0
-0.0367032 0.0599184 -0.0696776 255 255 0
-0.0346239 0.0599199 -0.0696789 255 255 0
-0.0325445 0.0599199 -0.0696794 255 255 0
-0.0304652 0.0599197 -0.0696796 255 255 0
-0.0283858 0.0599197 -0.0696796 255 255 0
-0.0263065 0.0599197 -0.0696796 255 255 0
-0.0242271 0.0599197 -0.0696796 255 255 0
-0.0221478 0.0599197 -0.0696796 255 255 0
-0.0200684 0.0599197 -0.0696796 255 255 0
-0.0179891 0.0599197 -0.0696796 255 255 0
-0.0159097 0.0599197 -0.0696796 255 255 0
-0.0138304 0.0599197 -0.0696796 255 255 0
-0.0117510 0.0599197 -0.0696796 255 255 0
-0.0096717 0.0599197 -0.0696796 255 255 0
-0.0075923 0.0599197 -0.0696796 255 255 0
-0.0055130 0.0599197 -0.0696796 255 255 0
-0.0034336 0.0599197 -0.0696796 255 255 0
-0.0013543 0.0599197 -0.0696796 255 255 0
0.0007251 0.0599195 -0.0696796 255 255 0
0.0028044 0.0599195 -0.0696796 255 255 0
0.0048838 0.0599194 -0.0696796 255 255 0
0.0069631 0.0599192 -0.0696796 255 255 0
0.0090425 0.0599190 -0.0696796 255 255 0
0.0111218 0.0599184 -0.0696796 255 255 0
0.0132012 0.0599183 -0.0696796 255 255 0
0.0152805 0.0599183 -0.0696796 255 255 0
0.0173599 0.0599183 -0.0696796 255 255 0
-0.0346239 0.0619993 -0.0696787 255 255 0
-0.0325445 0.0619993 -0.0696793 255 255 0
-0.0304652 0.0619993 -0.0696794 255 255 0
-0.0283858 0.0619993 -0.0696794 255 255 0
-0.0263065 0.0619993 -0.0696795 255 255 0
-0.0242271 0.0619993 -0.0696795 255 255 0
-0.0221478 0.0619993 -0.0696796 255 255 0
-0.0200684 0.0619993 -0.0696796 255 255 0
-0.0179891 0.0619993 -0.0696796 255 255 0
-0.0159097 0.0619993 -0.0696796 255 255 0
-0.0138304 0.0619992 -0.0696796 255 255 0
-0.0117510 0.0619991 -0.0696796 255 255 0
-0.0096717 0.0619991 -0.0696796 255 255 0
-0.0075923 0.0619991 -0.0696796 255 255 0
-0.0055130 0.0619991 -0.0696796 255 255 0
-0.0034336 0.0619990 -0.0696796 255 255 0
-0.0013543 0.0619990 -0.0696796 255 255 0
0.0007251 0.0619990 -0.0696796 255 255 0
0.0028044 0.0619989 -0.0696796 255 255 0
0.0048838 0.0619988 -0.0696796 255 255 0
0.0069631 0.0619987 -0.0696796 255 255 0
0.0090425 0.0619984 -0.0696796 255 255 0
0.0111218 0.0619978 -0.0696796 255 255 0
0.0132012 0.0619977 -0.0696796 255 255 0
0.0152805 0.0619977 -0.0696796 255 255 0
0.0173599 0.0619976 -0.0696796 255 255 0
-0.0346239 0.0640911 -0.0696785 255 255 0
-0.0325445 0.0640911 -0.0696791 255 255 0
-0.0304652 0.0640913 -0.0696793 255 255 0
-0.0283858 0.0640915 -0.0696794 255 255 0
-0.0263065 0.0640916 -0.0696794 255 255 0
-0.0242271 0.0640917 -0.0696794 255 255 0
-0.0221478 0.0640917 -0.0696794 255 255 0
-0.0200684 0.0640917 -0.0696794 255 255 0
-0.0179891 0.0640917 -0.0696794 255 255 0
-0.0159097 0.0640917 -0.0696794 255 255 0
-0.0138304 0.0640917 -0.0696794 255 255 0
-0.0117510 0.0640918 -0.0696795 255 255 0
-0.0096717 0.0640919 -0.0696795 255 255 0
-0.0075923 0.0640920 -0.0696795 255 255 0
-0.0055130 0.0640922 -0.0696796 255 255 0
-0.0034336 0.0640932 -0.0696796 255 255 0
-0.0013543 0.0640940 -0.0696796 255 255 0
0.0007251 0.0640955 -0.0696796 255 255 0
0.0028044 0.0640956 -0.0696796 255 255 0
0.0048838 0.0640956 -0.0696796 255 255 0
0.0069631 0.0640956 -0.0696796 255 255 0
0.0090425 0.0640956 -0.0696796 255 255 0
0.0111218 0.0640956 -0.0696796 255 255 0
0.0132012 0.0640956 -0.0696796 255 255 0
0.0152805 0.0640956 -0.0696796 255 255 0
0.0173599 0.0640956 -0.0696796 255 255 0
-0.0346239 0.0661703 -0.0696780 255 255 0
-0.0325445 0.0661706 -0.0696790 255 255 0
-0.0304652 0.0661708 -0.0696791 255 255 0
-0.0283858 0.0661708 -0.0696792 255 255 0
-0.0263065 0.0661708 -0.0696792 255 255 0
-0.0242271 0.0661708 -0.0696793 255 255 0
-0.0221478 0.0661708 -0.0696793 255 255 0
-0.0200684 0.0661708 -0.0696793 255 255 0
-0.0179891 0.0661710 -0.0696793 255 255 0
-0.0159097 0.0661711 -0.0696794 255 255 0
-0.0138304 0.0661712 -0.0696794 255 255 0
-0.0117510 0.0661713 -0.0696794 255 255 0
-0.0096717 0.0661715 -0.0696794 255 255 0
-0.0075923 0.0661718 -0.0696794 255 255 0
-0.0055130 0.0661720 -0.0696795 255 255 0
-0.0034336 0.0661725 -0.0696796 255 255 0
-0.0013543 0.0661741 -0.0696796 255 255 0
0.0007251 0.0661749 -0.0696796 255 255 0
0.0028044 0.0661749 -0.0696796 255 255 0
0.0048838 0.0661749 -0.0696796 255 255 0
0.0069631 0.0661749 -0.0696796 255 255 0
0.0090425 0.0661749 -0.0696796 255 255 0
0.0111218 0.0661749 -0.0696796 255 255 0
0.0132012 0.0661749 -0.0696796 255 255 0
0.0152805 0.0661749 -0.0696796 255 255 0
0.0173599 0.0661749 -0.0696796 255 255 0
-0.0346239 0.0682499 -0.0696776 255 255 0
-0.0325445 0.0682500 -0.0696786 255 255 0
-0.0304652 0.0682502 -0.0696789 255 255 0
-0.0283858 0.0682503 -0.0696791 255 255 0
-0.0263065 0.0682503 -0.0696792 255 255 0
-0.0242271 0.0682503 -0.0696792 255 255 0
-0.0221478 0.0682504 -0.0696792 255 255 0
-0.0200684 0.0682504 -0.0696792 255 255 0
-0.0179891 0.0682505 -0.0696792 255 255 0
-0.0159097 0.0682505 -0.0696792 255 255 0
-0.0138304 0.0682506 -0.0696792 255 255 0
-0.0117510 0.0682507 -0.0696792 255 255 0
-0.0096717 0.0682507 -0.0696793 255 255 0
-0.0075923 0.0682508 -0.0696793 255 255 0
-0.0055130 0.0682518 -0.0696794 255 255 0
-0.0034336 0.0682525 -0.0696795 255 255 0
-0.0013542 0.0682539 -0.0696796 255 255 0
0.0007251 0.0682543 -0.0696796 255 255 0
0.0028044 0.0682543 -0.0696796 255 255 0
0.0048838 0.0682543 -0.0696796 255 255 0
0.0069631 0.0682543 -0.0696796 255 255 0
0.0090425 0.0682543 -0.0696796 255 255 0
0.0111218 0.0682543 -0.0696796 255 255 0
0.0132012 0.0682543 -0.0696796 255 255 0
0.0152805 0.0682543 -0.0696796 255 255 0
0.0173599 0.0682543 -0.0696796 255 255 0
-0.0346239 0.0703292 -0.0696772 255 255 0
-0.0325445 0.0703295 -0.0696783 255 255 0
-0.0304652 0.0703297 -0.0696789 255 255 0
-0.0283858 0.0703296 -0.0696789 255 255 0
-0.0263065 0.0703296 -0.0696790 255 255 0
-0.0242271 0.0703296 -0.0696790 255 255 0
-0.0221478 0.0703296 -0.0696790 255 255 0
-0.0200684 0.0703296 -0.0696790 255 255 0
-0.0179891 0.0703299 -0.0696791 255 255 0
-0.0159097 0.0703300 -0.0696791 255 255 0
-0.0138304 0.0703301 -0.0696791 255 255 0
-0.0117510 0.0703302 -0.0696792 255 255 0
-0.0096717 0.0703305 -0.0696792 255 255 0
-0.0075923 0.0703308 -0.0696793 255 255 0
-0.0055130 0.0703311 -0.0696793 255 255 0
-0.0034336 0.0703324 -0.0696795 255 255 0
-0.0013542 0.0703335 -0.0696796 255 255 0
0.0007252 0.0703336 -0.0696796 255 255 0
0.0028044 0.0703336 -0.0696796 255 255 0
0.0048838 0.0703336 -0.0696796 255 255 0
0.0069631 0.0703336 -0.0696796 255 255 0
0.0090425 0.0703336 -0.0696796 255 255 0
0.0111218 0.0703336 -0.0696796 255 255 0
0.0132012 0.0703336 -0.0696796 255 255 0
0.0152805 0.0703336 -0.0696796 255 255 0
-0.0346239 0.0724087 -0.0696768 255 255 0
-0.0325445 0.0724089 -0.0696779 255 255 0
-0.0304652 0.0724088 -0.0696786 255 255 0
-0.0283858 0.0724091 -0.0696787 255 255 0
-0.0263065 0.0724091 -0.0696788 255 255 0
-0.0242271 0.0724092 -0.0696789 255 255 0
-0.0221478 0.0724092 -0.0696790 255 255 0
-0.0200684 0.0724094 -0.0696790 255 255 0
-0.0179891 0.0724094 -0.0696790 255 255 0
-0.0159097 0.0724095 -0.0696790 255 255 0
-0.0138304 0.0724095 -0.0696790 255 255 0
-0.0117510 0.0724097 -0.0696790 255 255 0
-0.0096717 0.0724099 -0.0696791 255 255 0
-0.0075923 0.0724103 -0.0696792 255 255 0
-0.0055130 0.0724112 -0.0696794 255 255 0
-0.0034336 0.0724123 -0.0696795 255 255 0
-0.0013542 0.0724129 -0.0696796 255 255 0
0.0007252 0.0724130 -0.0696796 255 255 0
0.0028044 0.0724130 -0.0696796 255 255 0
0.0048838 0.0724130 -0.0696796 255 255 0
0.0069631 0.0724130 -0.0696796 255 255 0
0.0090425 0.0724130 -0.0696796 255 255 0
0.0111218 0.0724130 -0.0696796 255 255 0
0.0132012 0.0724130 -0.0696796 255 255 0
0.0152805 0.0724130 -0.0696796 255 255 0
-0.0325445 0.0744883 -0.0696774 255 255 0
-0.0304652 0.0744885 -0.0696784 255 255 0
-0.0283858 0.0744884 -0.0696786 255 255 0
-0.0263065 0.0744885 -0.0696787 255 255 0
-0.0242271 0.0744886 -0.0696788 255 255 0
-0.0221478 0.0744886 -0.0696788 255 255 0
-0.0200684 0.0744886 -0.0696788 255 255 0
-0.0179891 0.0744887 -0.0696789 255 255 0
-0.0159097 0.0744891 -0.0696789 255 255 0
-0.0138304 0.0744893 -0.0696790 255 255 0
-0.0117510 0.0744896 -0.0696791 255 255 0
-0.0096717 0.0744898 -0.0696792 255 255 0
-0.0075923 0.0744901 -0.0696792 255 255 0
-0.0055130 0.0744906 -0.0696793 255 255 0
-0.0034336 0.0744919 -0.0696795 255 255 0
-0.0013542 0.0744923 -0.0696796 255 255 0
0.0007252 0.0744923 -0.0696796 255 255 0
0.0028044 0.0744923 -0.0696796 255 255 0
0.0048838 0.0744923 -0.0696796 255 255 0
0.0069631 0.0744923 -0.0696796 255 255 0
0.0090425 0.0744923 -0.0696796 255 255 0
0.0111218 0.0744923 -0.0696796 255 255 0
0.0132012 0.0744923 -0.0696796 255 255 0
-0.0325445 0.0765677 -0.0696773 255 255 0
-0.0304652 0.0765677 -0.0696780 255 255 0
-0.0283858 0.0765679 -0.0696784 255 255 0
-0.0263065 0.0765681 -0.0696787 255 255 0
-0.0242271 0.0765684 -0.0696788 255 255 0
-0.0221478 0.0765685 -0.0696789 255 255 0
-0.0200684 0.0765685 -0.0696789 255 255 0
-0.0179891 0.0765686 -0.0696789 255 255 0
-0.0159097 0.0765688 -0.0696789 255 255 0
-0.0138304 0.0765690 -0.0696790 255 255 0
-0.0117510 0.0765691 -0.0696790 255 255 0
-0.0096717 0.0765694 -0.0696791 255 255 0
-0.0075923 0.0765698 -0.0696792 255 255 0
-0.0055130 0.0765704 -0.0696793 255 255 0
-0.0034336 0.0765716 -0.0696795 255 255 0
-0.0013542 0.0765717 -0.0696796 255 255 0
0.0007251 0.0765717 -0.0696796 255 255 0
0.0028044 0.0765717 -0.0696796 255 255 0
0.0048838 0.0765717 -0.0696796 255 255 0
0.0069631 0.0765717 -0.0696796 255 255 0
0.0090425 0.0765717 -0.0696796 255 255 0
0.0111218 0.0765717 -0.0696796 255 255 0
0.0132012 0.0765717 -0.0696796 255 255 0
-0.0325445 0.0786472 -0.0696767 255 255 0
-0.0304652 0.0786471 -0.0696778 255 255 0
-0.0283858 0.0786471 -0.0696783 255 255 0
-0.0263065 0.0786475 -0.0696786 255 255 0
-0.0242271 0.0786479 -0.0696788 255 255 0
-0.0221478 0.0786480 -0.0696788 255 255 0
-0.0200684 0.0786481 -0.0696789 255 255 0
-0.0179891 0.0786483 -0.0696789 255 255 0
-0.0159097 0.0786483 -0.0696789 255 255 0
-0.0138304 0.0786485 -0.0696790 255 255 0
-0.0117510 0.0786489 -0.0696790 255 255 0
-0.0096717 0.0786490 -0.0696791 255 255 0
-0.0075923 0.0786497 -0.0696792 255 255 0
-0.0055130 0.0786505 -0.0696794 255 255 0
-0.0034336 0.0786510 -0.0696795 255 255 0
-0.0013542 0.0786510 -0.0696796 255 255 0
0.0007251 0.0786510 -0.0696796 255 255 0
0.0028044 0.0786510 -0.0696796 255 255 0
0.0048838 0.0786510 -0.0696796 255 255 0
0.0069631 0.0786510 -0.0696796 255 255 0
0.0090425 0.0786510 -0.0696796 255 255 0
0.0111218 0.0786510 -0.0696796 255 255 0
0.0132012 0.0786510 -0.0696796 255 255 0
-0.0304652 0.0807265 -0.0696774 255 255 0
-0.0283858 0.0807268 -0.0696779 255 255 0
-0.0263065 0.0807270 -0.0696783 255 255 0
-0.0242271 0.0807271 -0.0696785 255 255 0
-0.0221478 0.0807272 -0.0696787 255 255 0
-0.0200684 0.0807273 -0.0696789 255 255 0
-0.0179891 0.0807279 -0.0696790 255 255 0
-0.0159097 0.0807281 -0.0696790 255 255 0
-0.0138304 0.0807282 -0.0696791 255 255 0
-0.0117510 0.0807286 -0.0696791 255 255 0
-0.0096717 0.0807287 -0.0696792 255 255 0
-0.0075923 0.0807297 -0.0696792 255 255 0
-0.0055130 0.0807300 -0.0696794 255 255 0
-0.0034336 0.0807304 -0.0696796 255 255 0
-0.0013542 0.0807304 -0.0696796 255 255 0
0.0007251 0.0807304 -0.0696796 255 255 0
0.0028044 0.0807304 -0.0696796 255 255 0
0.0048838 0.0807304 -0.0696796 255 255 0
0.0069631 0.0807304 -0.0696796 255 255 0
0.0090425 0.0807304 -0.0696796 255 255 0
0.0111218 0.0807304 -0.0696796 255 255 0
-0.0242271 0.0828065 -0.0696781 255 255 0
-0.0221478 0.0828065 -0.0696785 255 255 0
-0.0200684 0.0828070 -0.0696788 255 255 0
-0.0179891 0.0828072 -0.0696790 255 255 0
-0.0159097 0.0828075 -0.0696791 255 255 0
-0.0138304 0.0828080 -0.0696791 255 255 0
-0.0117510 0.0828082 -0.0696791 255 255 0
-0.0096717 0.0828089 -0.0696792 255 255 0
-0.0075923 0.0828092 -0.0696793 255 255 0
-0.0055130 0.0828097 -0.0696795 255 255 0
-0.0034336 0.0828097 -0.0696796 255 255 0
-0.0013542 0.0828097 -0.0696796 255 255 0
0.0007251 0.0828097 -0.0696796 255 255 0
0.0028044 0.0828097 -0.0696796 255 255 0
0.0048838 0.0828097 -0.0696796 255 255 0
0.0069631 0.0828097 -0.0696796 255 255 0
0.0090425 0.0828097 -0.0696796 255 255 0
0.0111218 0.0828097 -0.0696796 255 255 0
-0.0200684 0.0848863 -0.0696787 255 255 0
-0.0179891 0.0848867 -0.0696789 255 255 0
-0.0159097 0.0848869 -0.0696791 255 255 0
-0.0138304 0.0848875 -0.0696791 255 255 0
-0.0117510 0.0848883 -0.0696792 255 255 0
-0.0096717 0.0848885 -0.0696792 255 255 0
-0.0075923 0.0848889 -0.0696793 255 255 0
-0.0055130 0.0848891 -0.0696796 255 255 0
-0.0034336 0.0848891 -0.0696796 255 255 0
-0.0013542 0.0848891 -0.0696796 255 255 0
0.0007251 0.0848891 -0.0696796 255 255 0
0.0028044 0.0848891 -0.0696796 255 255 0
0.0048838 0.0848891 -0.0696796 255 255 0
0.0069631 0.0848891 -0.0696796 255 255 0
-0.0159097 0.0869662 -0.0696791 255 255 0
-0.0138304 0.0869671 -0.0696792 255 255 0
-0.0117510 0.0869677 -0.0696792 255 255 0
-0.0096717 0.0869682 -0.0696794 255 255 0
-0.0075923 0.0869684 -0.0696795 255 255 0
-0.0055130 0.0869684 -0.0696796 255 255 0
-0.0034336 0.0869684 -0.0696796 255 255 0
-0.0013543 0.0869684 -0.0696796 255 255 0
-0.0117510 0.0890473 -0.0696793 255 255 0
-0.0055130 0.0328869 -0.0676002 255 255 0
-0.0138304 0.0349665 -0.0676002 255 255 0
-0.0117510 0.0349665 -0.0676002 255 255 0
-0.0096717 0.0349663 -0.0676002 255 255 0
-0.0075923 0.0349663 -0.0676002 255 255 0
-0.0055130 0.0349663 -0.0676002 255 255 0
-0.0034336 0.0349663 -0.0676002 255 255 0
-0.0013543 0.0349661 -0.0676002 255 255 0
-0.0221478 0.0370459 -0.0676002 255 255 0
-0.0200684 0.0370459 -0.0676002 255 255 0
-0.0179891 0.0370458 -0.0676002 255 255 0
-0.0159097 0.0370458 -0.0676002 255 255 0
-0.0138304 0.0370458 -0.0676002 255 255 0
-0.0117510 0.0370458 -0.0676002 255 255 0
-0.0096717 0.0370458 -0.0676002 255 255 0
-0.0075923 0.0370457 -0.0676002 255 255 0
-0.0055130 0.0370456 -0.0676002 255 255 0
-0.0034336 0.0370456 -0.0676002 255 255 0
-0.0013543 0.0370455 -0.0676002 255 255 0
0.0007251 0.0370454 -0.0676002 255 255 0
0.0028044 0.0370454 -0.0676002 255 255 0
0.0048838 0.0370454 -0.0676002 255 255 0
-0.0283858 0.0391254 -0.0676002 255 255 0
-0.0263065 0.0391254 -0.0676002 255 255 0
-0.0242271 0.0391252 -0.0676002 255 255 0
-0.0221478 0.0391252 -0.0676002 255 255 0
-0.0200684 0.0391252 -0.0676002 255 255 0
-0.0179891 0.0391252 -0.0676002 255 255 0
-0.0159097 0.0391252 -0.0676002 255 255 0
-0.0138304 0.0391252 -0.0676002 255 255 0
-0.0117510 0.0391252 -0.0676002 255 255 0
-0.0096717 0.0391252 -0.0676002 255 255 0
-0.0075923 0.0391252 -0.0676002 255 255 0
-0.0055130 0.0391250 -0.0676002 255 255 0
-0.0034336 0.0391250 -0.0676002 255 255 0
-0.0013543 0.0391250 -0.0676002 255 255 0
0.0007251 0.0391248 -0.0676002 255 255 0
0.0028044 0.0391248 -0.0676002 255 255 0
0.0048838 0.0391248 -0.0676002 255 255 0
0.0069631 0.0391248 -0.0676002 255 255 0
0.0090425 0.0391248 -0.0676002 255 255 0
-0.0283858 0.0412048 -0.0676002 255 255 0
-0.0263065 0.0412047 -0.0676002 255 255 0
-0.0242271 0.0412047 -0.0676002 255 255 0
-0.0221478 0.0412046 -0.0676002 255 255 0
-0.0200684 0.0412046 -0.0676002 255 255 0
-0.0179891 0.0412046 -0.0676002 255 255 0
-0.0159097 0.0412045 -0.0676002 255 255 0
-0.0138304 0.0412045 -0.0676002 255 255 0
-0.0117510 0.0412045 -0.0676002 255 255 0
-0.0096717 0.0412045 -0.0676002 255 255 0
-0.0075923 0.0412045 -0.0676002 255 255 0
-0.0055130 0.0412045 -0.0676002 255 255 0
-0.0034336 0.0412045 -0.0676002 255 255 0
-0.0013543 0.0412043 -0.0676002 255 255 0
0.0007251 0.0412042 -0.0676002 255 255 0
0.0028044 0.0412041 -0.0676002 255 255 0
0.0048838 0.0412041 -0.0676002 255 255 0
0.0069631 0.0412041 -0.0676002 255 255 0
0.0090425 0.0412041 -0.0676002 255 255 0
0.0111218 0.0412041 -0.0676002 255 255 0
0.0132012 0.0412041 -0.0676002 255 255 0
-0.0283858 0.0432841 -0.0676002 255 255 0
-0.0263065 0.0432841 -0.0676002 255 255 0
-0.0242271 0.0432841 -0.0676002 255 255 0
-0.0221478 0.0432841 -0.0676002 255 255 0
-0.0200684 0.0432841 -0.0676002 255 255 0
-0.0179891 0.0432840 -0.0676002 255 255 0
-0.0159097 0.0432839 -0.0676002 255 255 0
-0.0138304 0.0432839 -0.0676002 255 255 0
-0.0117510 0.0432839 -0.0676002 255 255 0
-0.0096717 0.0432839 -0.0676002 255 255 0
-0.0075923 0.0432839 -0.0676002 255 255 0
-0.0055130 0.0432839 -0.0676002 255 255 0
-0.0034336 0.0432839 -0.0676002 255 255 0
-0.0013543 0.0432838 -0.0676002 255 255 0
0.0007251 0.0432836 -0.0676002 255 255 0
0.0028044 0.0432835 -0.0676002 255 255 0
0.0048838 0.0432835 -0.0676002 255 255 0
0.0069631 0.0432835 -0.0676002 255 255 0
0.0090425 0.0432835 -0.0676002 255 255 0
0.0111218 0.0432835 -0.0676002 255 255 0
0.0132012 0.0432835 -0.0676002 255 255 0
0.0152805 0.0432835 -0.0676002 255 255 0
-0.0304652 0.0453636 -0.0676002 255 255 0
-0.0283858 0.0453636 -0.0676002 255 255 0
-0.0263065 0.0453635 -0.0676002 255 255 0
-0.0242271 0.0453635 -0.0676002 255 255 0
-0.0221478 0.0453634 -0.0676002 255 255 0
-0.0200684 0.0453634 -0.0676002 255 255 0
-0.0179891 0.0453634 -0.0676002 255 255 0
-0.0159097 0.0453634 -0.0676002 255 255 0
-0.0138304 0.0453634 -0.0676002 255 255 0
-0.0117510 0.0453634 -0.0676002 255 255 0
-0.0096717 0.0453634 -0.0676002 255 255 0
-0.0075923 0.0453634 -0.0676002 255 255 0
-0.0055130 0.0453633 -0.0676002 255 255 0
-0.0034336 0.0453632 -0.0676002 255 255 0
-0.0013543 0.0453632 -0.0676002 255 255 0
0.0007251 0.0453630 -0.0676002 255 255 0
0.0028044 0.0453628 -0.0676002 255 255 0
0.0048838 0.0453628 -0.0676002 255 255 0
0.0069631 0.0453628 -0.0676002 255 255 0
0.0090425 0.0453628 -0.0676002 255 255 0
0.0111218 0.0453628 -0.0676002 255 255 0
0.0132012 0.0453628 -0.0676002 255 255 0
0.0152805 0.0453628 -0.0676002 255 255 0
0.0173599 0.0453628 -0.0676002 255 255 0
-0.0304652 0.0474430 -0.0676002 255 255 0
-0.0283858 0.0474430 -0.0676002 255 255 0
-0.0263065 0.0474430 -0.0676002 255 255 0
-0.0242271 0.0474430 -0.0676002 255 255 0
-0.0221478 0.0474429 -0.0676002 255 255 0
-0.0200684 0.0474429 -0.0676002 255 255 0
-0.0179891 0.0474428 -0.0676002 255 255 0
-0.0159097 0.0474428 -0.0676002 255 255 0
-0.0138304 0.0474428 -0.0676002 255 255 0
-0.0117510 0.0474428 -0.0676002 255 255 0
-0.0096717 0.0474428 -0.0676002 255 255 0
-0.0075923 0.0474428 -0.0676002 255 255 0
-0.0055130 0.0474428 -0.0676002 255 255 0
-0.0034336 0.0474428 -0.0676002 255 255 0
-0.0013543 0.0474426 -0.0676002 255 255 0
0.0007251 0.0474424 -0.0676002 255 255 0
0.0028044 0.0474422 -0.0676002 255 255 0
0.0048838 0.0474422 -0.0676002 255 255 0
0.0069631 0.0474422 -0.0676002 255 255 0
0.0090425 0.0474422 -0.0676002 255 255 0
0.0111218 0.0474422 -0.0676002 255 255 0
0.0132012 0.0474422 -0.0676002 255 255 0
0.0152805 0.0474422 -0.0676002 255 255 0
0.0173599 0.0474422 -0.0676002 255 255 0
-0.0304652 0.0495225 -0.0676002 255 255 0
-0.0283858 0.0495224 -0.0676002 255 255 0
-0.0263065 0.0495223 -0.0676002 255 255 0
-0.0242271 0.0495223 -0.0676002 255 255 0
-0.0221478 0.0495223 -0.0676002 255 255 0
-0.0200684 0.0495223 -0.0676002 255 255 0
-0.0179891 0.0495223 -0.0676002 255 255 0
-0.0159097 0.0495223 -0.0676002 255 255 0
-0.0138304 0.0495223 -0.0676002 255 255 0
-0.0117510 0.0495223 -0.0676002 255 255 0
-0.0096717 0.0495223 -0.0676002 255 255 0
-0.0075923 0.0495223 -0.0676002 255 255 0
-0.0055130 0.0495223 -0.0676002 255 255 0
-0.0034336 0.0495221 -0.0676002 255 255 0
-0.0013543 0.0495221 -0.0676002 255 255 0
0.0007251 0.0495217 -0.0676002 255 255 0
0.0028044 0.0495216 -0.0676002 255 255 0
0.0048838 0.0495215 -0.0676002 255 255 0
0.0069631 0.0495215 -0.0676002 255 255 0
0.0090425 0.0495215 -0.0676002 255 255 0
0.0111218 0.0495215 -0.0676002 255 255 0
0.0132012 0.0495215 -0.0676002 255 255 0
0.0152805 0.0495215 -0.0676002 255 255 0
0.0173599 0.0495215 -0.0676002 255 255 0
-0.0325445 0.0516019 -0.0676002 255 255 0
-0.0304652 0.0516019 -0.0676002 255 255 0
-0.0283858 0.0516019 -0.0676002 255 255 0
-0.0263065 0.0516019 -0.0676002 255 255 0
-0.0242271 0.0516017 -0.0676002 255 255 0
-0.0221478 0.0516017 -0.0676002 255 255 0
-0.0200684 0.0516017 -0.0676002 255 255 0
-0.0179891 0.0516017 -0.0676002 255 255 0
-0.0159097 0.0516017 -0.0676002 255 255 0
-0.0138304 0.0516017 -0.0676002 255 255 0
-0.0117510 0.0516017 -0.0676002 255 255 0
-0.0096717 0.0516017 -0.0676002 255 255 0
-0.0075923 0.0516017 -0.0676002 255 255 0
-0.0055130 0.0516017 -0.0676002 255 255 0
-0.0034336 0.0516017 -0.0676002 255 255 0
-0.0013543 0.0516015 -0.0676002 255 255 0
0.0007251 0.0516012 -0.0676002 255 255 0
0.0028044 0.0516010 -0.0676002 255 255 0
0.0048838 0.0516009 -0.0676002 255 255 0
0.0069631 0.0516009 -0.0676002 255 255 0
0.0090425 0.0516009 -0.0676002 255 255 0
0.0111218 0.0516009 -0.0676002 255 255 0
0.0132012 0.0516009 -0.0676002 255 255 0
0.0152805 0.0516009 -0.0676002 255 255 0
0.0173599 0.0516009 -0.0676002 255 255 0
-0.0325445 0.0536814 -0.0676002 255 255 0
-0.0304652 0.0536812 -0.0676002 255 255 0
-0.0283858 0.0536812 -0.0676002 255 255 0
-0.0263065 0.0536812 -0.0676002 255 255 0
-0.0242271 0.0536812 -0.0676002 255 255 0
-0.0221478 0.0536812 -0.0676002 255 255 0
-0.0200684 0.0536812 -0.0676002 255 255 0
-0.0179891 0.0536812 -0.0676002 255 255 0
-0.0159097 0.0536812 -0.0676002 255 255 0
-0.0138304 0.0536812 -0.0676002 255 255 0
-0.0117510 0.0536812 -0.0676002 255 255 0
-0.0096717 0.0536812 -0.0676002 255 255 0
-0.0075923 0.0536812 -0.0676002 255 255 0
-0.0055130 0.0536810 -0.0676002 255 255 0
-0.0034336 0.0536810 -0.0676002 255 255 0
-0.0013543 0.0536809 -0.0676002 255 255 0
0.0007251 0.0536807 -0.0676002 255 255 0
0.0028044 0.0536804 -0.0676002 255 255 0
0.0048838 0.0536803 -0.0676002 255 255 0
0.0069631 0.0536802 -0.0676002 255 255 0
0.0090425 0.0536802 -0.0676002 255 255 0
0.0111218 0.0536802 -0.0676002 255 255 0
0.0132012 0.0536802 -0.0676002 255 255 0
0.0152805 0.0536802 -0.0676002 255 255 0
0.0173599 0.0536802 -0.0676002 255 255 0
-0.0346239 0.0557608 -0.0676002 255 255 0
-0.0325445 0.0557608 -0.0676002 255 255 0
-0.0304652 0.0557608 -0.0676002 255 255 0
-0.0283858 0.0557606 -0.0676002 255 255 0
-0.0263065 0.0557606 -0.0676002 255 255 0
-0.0242271 0.0557606 -0.0676002 255 255 0
-0.0221478 0.0557606 -0.0676002 255 255 0
-0.0200684 0.0557606 -0.0676002 255 255 0
-0.0179891 0.0557606 -0.0676002 255 255 0
-0.0159097 0.0557606 -0.0676002 255 255 0
-0.0138304 0.0557606 -0.0676002 255 255 0
-0.0117510 0.0557606 -0.0676002 255 255 0
-0.0096717 0.0557606 -0.0676002 255 255 0
-0.0075923 0.0557606 -0.0676002 255 255 0
-0.0055130 0.0557605 -0.0676002 255 255 0
-0.0034336 0.0557605 -0.0676002 255 255 0
-0.0013543 0.0557603 -0.0676002 255 255 0
0.0007251 0.0557601 -0.0676002 255 255 0
0.0028044 0.0557599 -0.0676002 255 255 0
0.0048838 0.0557596 -0.0676002 255 255 0
0.0069631 0.0557596 -0.0676002 255 255 0
0.0090425 0.0557596 -0.0676002 255 255 0
0.0111218 0.0557596 -0.0676002 255 255 0
0.0132012 0.0557596 -0.0676002 255 255 0
0.0152805 0.0557596 -0.0676002 255 255 0
0.0173599 0.0557596 -0.0676002 255 255 0
-0.0346239 0.0578403 -0.0676002 255 255 0
-0.0325445 0.0578402 -0.0676002 255 255 0
-0.0304652 0.0578401 -0.0676002 255 255 0
-0.0283858 0.0578401 -0.0676002 255 255 0
-0.0263065 0.0578401 -0.0676002 255 255 0
-0.0242271 0.0578401 -0.0676002 255 255 0
-0.0221478 0.0578401 -0.0676002 255 255 0
-0.0200684 0.0578401 -0.0676002 255 255 0
-0.0179891 0.0578400 -0.0676002 255 255 0
-0.0159097 0.0578400 -0.0676002 255 255 0
-0.0138304 0.0578400 -0.0676002 255 255 0
-0.0117510 0.0578399 -0.0676002 255 255 0
-0.0096717 0.0578399 -0.0676002 255 255 0
-0.0075923 0.0578399 -0.0676002 255 255 0
-0.0055130 0.0578399 -0.0676002 255 255 0
-0.0034336 0.0578398 -0.0676002 255 255 0
-0.0013543 0.0578398 -0.0676002 255 255 0
0.0007251 0.0578395 -0.0676002 255 255 0
0.0028044 0.0578393 -0.0676002 255 255 0
0.0048838 0.0578391 -0.0676002 255 255 0
0.0069631 0.0578390 -0.0676002 255 255 0
0.0090425 0.0578389 -0.0676002 255 255 0
0.0111218 0.0578389 -0.0676002 255 255 0
0.0132012 0.0578389 -0.0676002 255 255 0
0.0152805 0.0578389 -0.0676002 255 255 0
0.0173599 0.0578389 -0.0676002 255 255 0
0.0194392 0.0578389 -0.0676002 255 255 0
-0.0346239 0.0599197 -0.0676002 255 255 0
-0.0325445 0.0599197 -0.0676002 255 255 0
-0.0304652 0.0599195 -0.0676002 255 255 0
-0.0283858 0.0599195 -0.0676002 255 255 0
-0.0263065 0.0599195 -0.0676002 255 255 0
-0.0242271 0.0599195 -0.0676002 255 255 0
-0.0221478 0.0599195 -0.0676002 255 255 0
-0.0200684 0.0599195 -0.0676002 255 255 0
-0.0179891 0.0599195 -0.0676002 255 255 0
-0.0159097 0.0599194 -0.0676002 255 255 0
-0.0138304 0.0599194 -0.0676002 255 255 0
-0.0117510 0.0599194 -0.0676002 255 255 0
-0.0096717 0.0599194 -0.0676002 255 255 0
-0.0075923 0.0599194 -0.0676002 255 255 0
-0.0055130 0.0599193 -0.0676002 255 255 0
-0.0034336 0.0599192 -0.0676002 255 255 0
-0.0013543 0.0599191 -0.0676002 255 255 0
0.0007251 0.0599191 -0.0676002 255 255 0
0.0028044 0.0599187 -0.0676002 255 255 0
0.0048838 0.0599185 -0.0676002 255 255 0
0.0069631 0.0599184 -0.0676002 255 255 0
0.0090425 0.0599183 -0.0676002 255 255 0
0.0111218 0.0599183 -0.0676002 255 255 0
0.0132012 0.0599183 -0.0676002 255 255 0
0.0152805 0.0599183 -0.0676002 255 255 0
0.0173599 0.0599183 -0.0676002 255 255 0
0.0194392 0.0599183 -0.0676002 255 255 0
-0.0346239 0.0619991 -0.0676002 255 255 0
-0.0325445 0.0619990 -0.0676002 255 255 0
-0.0304652 0.0619990 -0.0676002 255 255 0
-0.0283858 0.0619990 -0.0676002 255 255 0
-0.0263065 0.0619989 -0.0676002 255 255 0
-0.0242271 0.0619988 -0.0676002 255 255 0
-0.0221478 0.0619988 -0.0676002 255 255 0
-0.0200684 0.0619988 -0.0676002 255 255 0
-0.0179891 0.0619988 -0.0676002 255 255 0
-0.0159097 0.0619988 -0.0676002 255 255 0
-0.0138304 0.0619988 -0.0676002 255 255 0
-0.0117510 0.0619988 -0.0676002 255 255 0
-0.0096717 0.0619988 -0.0676002 255 255 0
-0.0075923 0.0619988 -0.0676002 255 255 0
-0.0055130 0.0619987 -0.0676002 255 255 0
-0.0034336 0.0619987 -0.0676002 255 255 0
-0.0013543 0.0619985 -0.0676002 255 255 0
0.0007251 0.0619984 -0.0676002 255 255 0
0.0028044 0.0619981 -0.0676002 255 255 0
0.0048838 0.0619979 -0.0676002 255 255 0
0.0069631 0.0619978 -0.0676002 255 255 0
0.0090425 0.0619977 -0.0676002 255 255 0
0.0111218 0.0619977 -0.0676002 255 255 0
0.0132012 0.0619976 -0.0676002 255 255 0
0.0152805 0.0619976 -0.0676002 255 255 0
0.0173599 0.0619976 -0.0676002 255 255 0
0.0194392 0.0619976 -0.0676002 255 255 0
-0.0346239 0.0640918 -0.0676001 255 255 0
-0.0325445 0.0640946 -0.0676002 255 255 0
-0.0304652 0.0640956 -0.0676002 255 255 0
-0.0283858 0.0640956 -0.0676002 255 255 0
-0.0263065 0.0640956 -0.0676002 255 255 0
-0.0242271 0.0640956 -0.0676002 255 255 0
-0.0221478 0.0640956 -0.0676002 255 255 0
-0.0200684 0.0640956 -0.0676002 255 255 0
-0.0179891 0.0640956 -0.0676002 255 255 0
-0.0159097 0.0640956 -0.0676002 255 255 0
-0.0138304 0.0640956 -0.0676002 255 255 0
-0.0117510 0.0640956 -0.0676002 255 255 0
-0.0096717 0.0640956 -0.0676002 255 255 0
-0.0075923 0.0640956 -0.0676002 255 255 0
-0.0055130 0.0640956 -0.0676002 255 255 0
-0.0034336 0.0640956 -0.0676002 255 255 0
-0.0013543 0.0640956 -0.0676002 255 255 0
0.0007251 0.0640956 -0.0676002 255 255 0
0.0028044 0.0640956 -0.0676002 255 255 0
0.0048838 0.0640956 -0.0676002 255 255 0
0.0069631 0.0640956 -0.0676002 255 255 0
0.0090425 0.0640956 -0.0676002 255 255 0
0.0111218 0.0640956 -0.0676002 255 255 0
0.0132012 0.0640956 -0.0676002 255 255 0
0.0152805 0.0640956 -0.0676002 255 255 0
0.0173599 0.0640956 -0.0676002 255 255 0
0.0194392 0.0640956 -0.0676002 255 255 0
-0.0325445 0.0661732 -0.0676002 255 255 0
-0.0304652 0.0661749 -0.0676002 255 255 0
-0.0283858 0.0661749 -0.0676002 255 255 0
-0.0263065 0.0661749 -0.0676002 255 255 0
-0.0242271 0.0661749 -0.0676002 255 255 0
-0.0221478 0.0661749 -0.0676002 255 255 0
-0.0200684 0.0661749 -0.0676002 255 255 0
-0.0179891 0.0661749 -0.0676002 255 255 0
-0.0159097 0.0661749 -0.0676002 255 255 0
-0.0138304 0.0661749 -0.0676002 255 255 0
-0.0117510 0.0661749 -0.0676002 255 255 0
-0.0096717 0.0661749 -0.0676002 255 255 0
-0.0075923 0.0661749 -0.0676002 255 255 0
-0.0055130 0.0661749 -0.0676002 255 255 0
-0.0034336 0.0661749 -0.0676002 255 255 0
-0.0013543 0.0661749 -0.0676002 255 255 0
0.0007251 0.0661749 -0.0676002 255 255 0
0.0028044 0.0661749 -0.0676002 255 255 0
0.0048838 0.0661749 -0.0676002 255 255 0
0.0069631 0.0661749 -0.0676002 255 255 0
0.0090425 0.0661749 -0.0676002 255 255 0
0.0111218 0.0661749 -0.0676002 255 255 0
0.0132012 0.0661749 -0.0676002 255 255 0
0.0152805 0.0661749 -0.0676002 255 255 0
0.0173599 0.0661749 -0.0676002 255 255 0
0.0194392 0.0661749 -0.0676002 255 255 0
-0.0325445 0.0682518 -0.0676002 255 255 0
-0.0304652 0.0682543 -0.0676002 255 255 0
-0.0283858 0.0682543 -0.0676002 255 255 0
-0.0263065 0.0682543 -0.0676002 255 255 0
-0.0242271 0.0682543 -0.0676002 255 255 0
-0.0221478 0.0682543 -0.0676002 255 255 0
-0.0200684 0.0682543 -0.0676002 255 255 0
-0.0179891 0.0682543 -0.0676002 255 255 0
-0.0159097 0.0682543 -0.0676002 255 255 0
-0.0138304 0.0682543 -0.0676002 255 255 0
-0.0117510 0.0682543 -0.0676002 255 255 0
-0.0096717 0.0682543 -0.0676002 255 255 0
-0.0075923 0.0682543 -0.0676002 255 255 0
-0.0055130 0.0682543 -0.0676002 255 255 0
-0.0034336 0.0682543 -0.0676002 255 255 0
-0.0013543 0.0682543 -0.0676002 255 255 0
0.0007251 0.0682543 -0.0676002 255 255 0
0.0028044 0.0682543 -0.0676002 255 255 0
0.0048838 0.0682543 -0.0676002 255 255 0
0.0069631 0.0682543 -0.0676002 255 255 0
0.0090425 0.0682543 -0.0676002 255 255 0
0.0111218 0.0682543 -0.0676002 255 255 0
0.0132012 0.0682543 -0.0676002 255 255 0
0.0152805 0.0682543 -0.0676002 255 255 0
0.0173599 0.0682543 -0.0676002 255 255 0
-0.0325445 0.0703309 -0.0676000 255 255 0
-0.0304652 0.0703336 -0.0676002 255 255 0
-0.0283858 0.0703336 -0.0676002 255 255 0
-0.0263065 0.0703336 -0.0676002 255 255 0
-0.0242271 0.0703336 -0.0676002 255 255 0
-0.0221478 0.0703336 -0.0676002 255 255 0
-0.0200684 0.0703336 -0.0676002 255 255 0
-0.0179891 0.0703336 -0.0676002 255 255 0
-0.0159097 0.0703336 -0.0676002 255 255 0
-0.0138304 0.0703336 -0.0676002 255 255 0
-0.0117510 0.0703336 -0.0676002 255 255 0
-0.0096717 0.0703336 -0.0676002 255 255 0
-0.0075923 0.0703336 -0.0676002 255 255 0
-0.0055130 0.0703336 -0.0676002 255 255 0
-0.0034336 0.0703336 -0.0676002 255 255 0
-0.0013543 0.0703336 -0.0676002 255 255 0
0.0007251 0.0703336 -0.0676002 255 255 0
0.0028044 0.0703336 -0.0676002 255 255 0
0.0048838 0.0703336 -0.0676002 255 255 0
0.0069631 0.0703336 -0.0676002 255 255 0
0.0090425 0.0703336 -0.0676002 255 255 0
0.0111218 0.0703336 -0.0676002 255 255 0
0.0132012 0.0703336 -0.0676002 255 255 0
0.0152805 0.0703336 -0.0676002 255 255 0
0.0173599 0.0703336 -0.0676002 255 255 0
-0.0325445 0.0724100 -0.0675998 255 255 0
-0.0304652 0.0724127 -0.0676002 255 255 0
-0.0283858 0.0724130 -0.0676002 255 255 0
-0.0263065 0.0724130 -0.0676002 255 255 0
-0.0242271 0.0724130 -0.0676002 255 255 0
-0.0221478 0.0724130 -0.0676002 255 255 0
-0.0200684 0.0724130 -0.0676002 255 255 0
-0.0179891 0.0724130 -0.0676002 255 255 0
-0.0159097 0.0724130 -0.0676002 255 255 0
-0.0138304 0.0724130 -0.0676002 255 255 0
-0.0117510 0.0724130 -0.0676002 255 255 0
-0.0096717 0.0724130 -0.0676002 255 255 0
-0.0075923 0.0724130 -0.0676002 255 255 0
-0.0055130 0.0724130 -0.0676002 255 255 0
-0.0034336 0.0724130 -0.0676002 255 255 0
-0.0013543 0.0724130 -0.0676002 255 255 0
0.0007251 0.0724130 -0.0676002 255 255 0
0.0028044 0.0724130 -0.0676002 255 255 0
0.0048838 0.0724130 -0.0676002 255 255 0
0.0069631 0.0724130 -0.0676002 255 255 0
0.0090425 0.0724130 -0.0676002 255 255 0
0.0111218 0.0724130 -0.0676002 255 255 0
0.0132012 0.0724130 -0.0676002 255 255 0
0.0152805 0.0724130 -0.0676002 255 255 0
0.0173599 0.0724130 -0.0676002 255 255 0
-0.0325445 0.0744892 -0.0675997 255 255 0
-0.0304652 0.0744912 -0.0676001 255 255 0
-0.0283858 0.0744923 -0.0676002 255 255 0
-0.0263065 0.0744923 -0.0676002 255 255 0
-0.0242271 0.0744923 -0.0676002 255 255 0
-0.0221478 0.0744923 -0.0676002 255 255 0
-0.0200684 0.0744923 -0.0676002 255 255 0
-0.0179891 0.0744923 -0.0676002 255 255 0
-0.0159097 0.0744923 -0.0676002 255 255 0
-0.0138304 0.0744923 -0.0676002 255 255 0
-0.0117510 0.0744923 -0.0676002 255 255 0
-0.0096717 0.0744923 -0.0676002 255 255 0
-0.0075923 0.0744923 -0.0676002 255 255 0
-0.0055130 0.0744923 -0.0676002 255 255 0
-0.0034336 0.0744923 -0.0676002 255 255 0
-0.0013543 0.0744923 -0.0676002 255 255 0
0.0007251 0.0744923 -0.0676002 255 255 0
0.0028044 0.0744923 -0.0676002 255 255 0
0.0048838 0.0744923 -0.0676002 255 255 0
0.0069631 0.0744923 -0.0676002 255 255 0
0.0090425 0.0744923 -0.0676002 255 255 0
0.0111218 0.0744923 -0.0676002 255 255 0
0.0132012 0.0744923 -0.0676002 255 255 0
0.0152805 0.0744923 -0.0676002 255 255 0
-0.0325445 0.0765683 -0.0675995 255 255 0
-0.0304652 0.0765702 -0.0676000 255 255 0
-0.0283858 0.0765712 -0.0676001 255 255 0
-0.0263065 0.0765717 -0.0676002 255 255 0
-0.0242271 0.0765717 -0.0676002 255 255 0
-0.0221478 0.0765717 -0.0676002 255 255 0
-0.0200684 0.0765717 -0.0676002 255 255 0
-0.0179891 0.0765717 -0.0676002 255 255 0
-0.0159097 0.0765717 -0.0676002 255 255 0
-0.0138304 0.0765717 -0.0676002 255 255 0
-0.0117510 0.0765717 -0.0676002 255 255 0
-0.0096717 0.0765717 -0.0676002 255 255 0
-0.0075923 0.0765717 -0.0676002 255 255 0
-0.0055130 0.0765717 -0.0676002 255 255 0
-0.0034336 0.0765717 -0.0676002 255 255 0
-0.0013543 0.0765717 -0.0676002 255 255 0
0.0007251 0.0765717 -0.0676002 255 255 0
0.0028044 0.0765717 -0.0676002 255 255 0
0.0048838 0.0765717 -0.0676002 255 255 0
0.0069631 0.0765717 -0.0676002 255 255 0
0.0090425 0.0765717 -0.0676002 255 255 0
0.0111218 0.0765717 -0.0676002 255 255 0
0.0132012 0.0765717 -0.0676002 255 255 0
0.0152805 0.0765717 -0.0676002 255 255 0
-0.0304652 0.0786491 -0.0675998 255 255 0
-0.0283858 0.0786502 -0.0676000 255 255 0
-0.0263065 0.0786508 -0.0676002 255 255 0
-0.0242271 0.0786510 -0.0676002 255 255 0
-0.0221478 0.0786510 -0.0676002 255 255 0
-0.0200684 0.0786510 -0.0676002 255 255 0
-0.0179891 0.0786510 -0.0676002 255 255 0
-0.0159097 0.0786510 -0.0676002 255 255 0
-0.0138304 0.0786510 -0.0676002 255 255 0
-0.0117510 0.0786510 -0.0676002 255 255 0
-0.0096717 0.0786510 -0.0676002 255 255 0
-0.0075923 0.0786510 -0.0676002 255 255 0
-0.0055130 0.0786510 -0.0676002 255 255 0
-0.0034336 0.0786510 -0.0676002 255 255 0
-0.0013543 0.0786510 -0.0676002 255 255 0
0.0007251 0.0786510 -0.0676002 255 255 0
0.0028044 0.0786510 -0.0676002 255 255 0
0.0048838 0.0786510 -0.0676002 255 255 0
0.0069631 0.0786510 -0.0676002 255 255 0
0.0090425 0.0786510 -0.0676002 255 255 0
0.0111218 0.0786510 -0.0676002 255 255 0
0.0132012 0.0786510 -0.0676002 255 255 0
-0.0283858 0.0807288 -0.0675999 255 255 0
-0.0263065 0.0807299 -0.0676000 255 255 0
-0.0242271 0.0807303 -0.0676002 255 255 0
-0.0221478 0.0807304 -0.0676002 255 255 0
-0.0200684 0.0807304 -0.0676002 255 255 0
-0.0179891 0.0807304 -0.0676002 255 255 0
-0.0159097 0.0807304 -0.0676002 255 255 0
-0.0138304 0.0807304 -0.0676002 255 255 0
-0.0117510 0.0807304 -0.0676002 255 255 0
-0.0096717 0.0807304 -0.0676002 255 255 0
-0.0075923 0.0807304 -0.0676002 255 255 0
-0.0055130 0.0807304 -0.0676002 255 255 0
-0.0034336 0.0807304 -0.0676002 255 255 0
-0.0013543 0.0807304 -0.0676002 255 255 0
0.0007251 0.0807304 -0.0676002 255 255 0
0.0028044 0.0807304 -0.0676002 255 255 0
0.0048838 0.0807304 -0.0676002 255 255 0
0.0069631 0.0807304 -0.0676002 255 255 0
0.0090425 0.0807304 -0.0676002 255 255 0
