ply
format ascii 1.0
element vertex 1170
property float x
property float y
property float z
property uchar red
property uchar green
property uchar blue
end_header
0.0028044 0.0724110 0.0904320 255 255 0
0.0048838 0.0724107 0.0904322 255 255 0
0.0069631 0.0724107 0.0904326 255 255 0
-0.0408619 0.0744923 0.0904304 255 255 0
-0.0387826 0.0744923 0.0904304 255 255 0
-0.0367032 0.0744923 0.0904304 255 255 0
-0.0346239 0.0744923 0.0904304 255 255 0
-0.0325445 0.0744923 0.0904304 255 255 0
-0.0304652 0.0744923 0.0904304 255 255 0
-0.0283858 0.0744923 0.0904304 255 255 0
-0.0263065 0.0744923 0.0904304 255 255 0
-0.0242271 0.0744920 0.0904304 255 255 0
-0.0221478 0.0744916 0.0904304 255 255 0
-0.0200684 0.0744916 0.0904304 255 255 0
-0.0179891 0.0744915 0.0904304 255 255 0
-0.0159097 0.0744911 0.0904304 255 255 0
-0.0138304 0.0744910 0.0904304 255 255 0
-0.0117510 0.0744910 0.0904304 255 255 0
-0.0096717 0.0744910 0.0904305 255 255 0
-0.0075923 0.0744909 0.0904306 255 255 0
-0.0055130 0.0744908 0.0904308 255 255 0
-0.0034336 0.0744908 0.0904309 255 255 0
-0.0013543 0.0744907 0.0904315 255 255 0
0.0007250 0.0744902 0.0904317 255 255 0
0.0028044 0.0744900 0.0904320 255 255 0
0.0048838 0.0744900 0.0904325 255 255 0
-0.0408619 0.0765717 0.0904304 255 255 0
-0.0387826 0.0765717 0.0904304 255 255 0
-0.0367032 0.0765717 0.0904304 255 255 0
-0.0346239 0.0765717 0.0904304 255 255 0
-0.0325445 0.0765717 0.0904304 255 255 0
-0.0304652 0.0765717 0.0904304 255 255 0
-0.0283858 0.0765717 0.0904304 255 255 0
-0.0263065 0.0765717 0.0904304 255 255 0
-0.0242271 0.0765713 0.0904304 255 255 0
-0.0221478 0.0765710 0.0904304 255 255 0
-0.0200684 0.0765706 0.0904304 255 255 0
-0.0179891 0.0765706 0.0904304 255 255 0
-0.0159097 0.0765705 0.0904305 255 255 0
-0.0138304 0.0765705 0.0904305 255 255 0
-0.0117510 0.0765705 0.0904305 255 255 0
-0.0096717 0.0765705 0.0904308 255 255 0
-0.0075923 0.0765703 0.0904311 255 255 0
-0.0055130 0.0765701 0.0904313 255 255 0
-0.0034336 0.0765700 0.0904313 255 255 0
-0.0013543 0.0765698 0.0904316 255 255 0
0.0007250 0.0765697 0.0904320 255 255 0
0.0028044 0.0765692 0.0904322 255 255 0
0.0048838 0.0765690 0.0904326 255 255 0
-0.0387826 0.0786510 0.0904304 255 255 0
-0.0367032 0.0786510 0.0904304 255 255 0
-0.0346239 0.0786510 0.0904304 255 255 0
-0.0325445 0.0786510 0.0904304 255 255 0
-0.0304652 0.0786510 0.0904304 255 255 0
-0.0283858 0.0786510 0.0904304 255 255 0
-0.0263065 0.0786510 0.0904304 255 255 0
-0.0242271 0.0786507 0.0904304 255 255 0
-0.0221478 0.0786501 0.0904304 255 255 0
-0.0200684 0.0786499 0.0904304 255 255 0
-0.0179891 0.0786499 0.0904305 255 255 0
-0.0159097 0.0786498 0.0904307 255 255 0
-0.0138304 0.0786496 0.0904310 255 255 0
-0.0117510 0.0786496 0.0904310 255 255 0
-0.0096717 0.0786496 0.0904311 255 255 0
-0.0075923 0.0786495 0.0904312 255 255 0
-0.0055130 0.0786495 0.0904316 255 255 0
-0.0034336 0.0786494 0.0904316 255 255 0
-0.0013543 0.0786492 0.0904318 255 255 0
0.0007250 0.0786487 0.0904320 255 255 0
0.0028044 0.0786483 0.0904325 255 255 0
-0.0325445 0.0807304 0.0904304 255 255 0
-0.0304652 0.0807304 0.0904304 255 255 0
-0.0283858 0.0807304 0.0904304 255 255 0
-0.0263065 0.0807304 0.0904304 255 255 0
-0.0242271 0.0807299 0.0904304 255 255 0
-0.0221478 0.0807296 0.0904304 255 255 0
-0.0200684 0.0807294 0.0904304 255 255 0
-0.0179891 0.0807291 0.0904309 255 255 0
-0.0159097 0.0807290 0.0904309 255 255 0
-0.0138304 0.0807289 0.0904310 255 255 0
-0.0117510 0.0807289 0.0904313 255 255 0
-0.0096717 0.0807289 0.0904314 255 255 0
-0.0075923 0.0807288 0.0904315 255 255 0
-0.0055130 0.0807286 0.0904316 255 255 0
-0.0034336 0.0807285 0.0904317 255 255 0
-0.0013543 0.0807283 0.0904320 255 255 0
0.0007250 0.0807281 0.0904323 255 255 0
0.0028044 0.0807277 0.0904325 255 255 0
-0.0283858 0.0828097 0.0904304 255 255 0
-0.0263065 0.0828097 0.0904304 255 255 0
-0.0242271 0.0828091 0.0904304 255 255 0
-0.0221478 0.0828090 0.0904304 255 255 0
-0.0200684 0.0828087 0.0904305 255 255 0
-0.0179891 0.0828085 0.0904309 255 255 0
-0.0159097 0.0828084 0.0904311 255 255 0
-0.0138304 0.0828083 0.0904313 255 255 0
-0.0117510 0.0828082 0.0904314 255 255 0
-0.0096717 0.0828079 0.0904315 255 255 0
-0.0075923 0.0828078 0.0904316 255 255 0
-0.0055130 0.0828078 0.0904320 255 255 0
-0.0034336 0.0828078 0.0904321 255 255 0
-0.0013543 0.0828077 0.0904322 255 255 0
0.0007250 0.0828073 0.0904324 255 255 0
-0.0221478 0.0848884 0.0904304 255 255 0
-0.0200684 0.0848880 0.0904307 255 255 0
-0.0179891 0.0848878 0.0904310 255 255 0
-0.0159097 0.0848878 0.0904313 255 255 0
-0.0138304 0.0848876 0.0904314 255 255 0
-0.0117510 0.0848873 0.0904315 255 255 0
-0.0096717 0.0848872 0.0904317 255 255 0
-0.0075923 0.0848872 0.0904320 255 255 0
-0.0179891 0.0349350 0.0925097 255 255 0
-0.0159097 0.0349350 0.0925097 255 255 0
-0.0304652 0.0370144 0.0925097 255 255 0
-0.0283858 0.0370144 0.0925097 255 255 0
-0.0263065 0.0370144 0.0925097 255 255 0
-0.0242271 0.0370144 0.0925097 255 255 0
-0.0221478 0.0370144 0.0925097 255 255 0
-0.0200684 0.0370144 0.0925097 255 255 0
-0.0179891 0.0370144 0.0925097 255 255 0
-0.0159097 0.0370144 0.0925097 255 255 0
-0.0138304 0.0370144 0.0925097 255 255 0
-0.0117510 0.0370144 0.0925097 255 255 0
-0.0096717 0.0370144 0.0925097 255 255 0
-0.0387826 0.0390937 0.0925097 255 255 0
-0.0367032 0.0390937 0.0925097 255 255 0
-0.0346239 0.0390937 0.0925097 255 255 0
-0.0325445 0.0390937 0.0925097 255 255 0
-0.0304652 0.0390937 0.0925097 255 255 0
-0.0283858 0.0390937 0.0925097 255 255 0
-0.0263065 0.0390937 0.0925097 255 255 0
-0.0242271 0.0390937 0.0925097 255 255 0
-0.0221478 0.0390937 0.0925097 255 255 0
-0.0200684 0.0390937 0.0925097 255 255 0
-0.0179891 0.0390937 0.0925097 255 255 0
-0.0159097 0.0390937 0.0925097 255 255 0
-0.0138304 0.0390937 0.0925097 255 255 0
-0.0117510 0.0390937 0.0925097 255 255 0
-0.0096717 0.0390937 0.0925097 255 255 0
-0.0075923 0.0390937 0.0925097 255 255 0
-0.0055130 0.0390937 0.0925097 255 255 0
-0.0034336 0.0390937 0.0925097 255 255 0
-0.0013543 0.0390937 0.0925097 255 255 0
-0.0408619 0.0411731 0.0925097 255 255 0
-0.0387826 0.0411731 0.0925097 255 255 0
-0.0367032 0.0411731 0.0925097 255 255 0
-0.0346239 0.0411731 0.0925097 255 255 0
-0.0325445 0.0411731 0.0925097 255 255 0
-0.0304652 0.0411731 0.0925097 255 255 0
-0.0283858 0.0411731 0.0925097 255 255 0
-0.0263065 0.0411731 0.0925097 255 255 0
-0.0242271 0.0411731 0.0925097 255 255 0
-0.0221478 0.0411731 0.0925097 255 255 0
-0.0200684 0.0411731 0.0925097 255 255 0
-0.0179891 0.0411731 0.0925097 255 255 0
-0.0159097 0.0411731 0.0925097 255 255 0
-0.0138304 0.0411731 0.0925097 255 255 0
-0.0117510 0.0411731 0.0925097 255 255 0
-0.0096717 0.0411731 0.0925097 255 255 0
-0.0075923 0.0411731 0.0925097 255 255 0
-0.0055130 0.0411731 0.0925097 255 255 0
-0.0034336 0.0411731 0.0925097 255 255 0
-0.0013543 0.0411731 0.0925097 255 255 0
0.0007251 0.0411731 0.0925097 255 255 0
0.0028044 0.0411731 0.0925097 255 255 0
0.0048838 0.0411731 0.0925097 255 255 0
-0.0408619 0.0432524 0.0925097 255 255 0
-0.0387826 0.0432524 0.0925097 255 255 0
-0.0367032 0.0432524 0.0925097 255 255 0
-0.0346239 0.0432524 0.0925097 255 255 0
-0.0325445 0.0432524 0.0925097 255 255 0
-0.0304652 0.0432524 0.0925097 255 255 0
-0.0283858 0.0432524 0.0925097 255 255 0
-0.0263065 0.0432524 0.0925097 255 255 0
-0.0242271 0.0432524 0.0925097 255 255 0
-0.0221478 0.0432524 0.0925097 255 255 0
-0.0200684 0.0432524 0.0925097 255 255 0
-0.0179891 0.0432524 0.0925097 255 255 0
-0.0159097 0.0432524 0.0925097 255 255 0
-0.0138304 0.0432524 0.0925097 255 255 0
-0.0117510 0.0432524 0.0925097 255 255 0
-0.0096717 0.0432524 0.0925097 255 255 0
-0.0075923 0.0432524 0.0925097 255 255 0
-0.0055130 0.0432524 0.0925097 255 255 0
-0.0034336 0.0432524 0.0925097 255 255 0
-0.0013543 0.0432524 0.0925097 255 255 0
0.0007251 0.0432524 0.0925097 255 255 0
0.0028044 0.0432524 0.0925097 255 255 0
0.0048838 0.0432524 0.0925097 255 255 0
-0.0429413 0.0453318 0.0925097 255 255 0
-0.0408619 0.0453318 0.0925097 255 255 0
-0.0387826 0.0453318 0.0925097 255 255 0
-0.0367032 0.0453318 0.0925097 255 255 0
-0.0346239 0.0453318 0.0925097 255 255 0
-0.0325445 0.0453318 0.0925097 255 255 0
-0.0304652 0.0453318 0.0925097 255 255 0
-0.0283858 0.0453318 0.0925097 255 255 0
-0.0263065 0.0453318 0.0925097 255 255 0
-0.0242271 0.0453318 0.0925097 255 255 0
-0.0221478 0.0453318 0.0925097 255 255 0
-0.0200684 0.0453318 0.0925097 255 255 0
-0.0179891 0.0453318 0.0925097 255 255 0
-0.0159097 0.0453318 0.0925097 255 255 0
-0.0138304 0.0453318 0.0925097 255 255 0
-0.0117510 0.0453318 0.0925097 255 255 0
-0.0096717 0.0453318 0.0925097 255 255 0
-0.0075923 0.0453318 0.0925097 255 255 0
-0.0055130 0.0453318 0.0925097 255 255 0
-0.0034336 0.0453318 0.0925097 255 255 0
-0.0013543 0.0453318 0.0925097 255 255 0
0.0007251 0.0453318 0.0925097 255 255 0
0.0028044 0.0453318 0.0925097 255 255 0
0.0048838 0.0453318 0.0925097 255 255 0
-0.0429413 0.0474111 0.0925097 255 255 0
-0.0408619 0.0474111 0.0925097 255 255 0
-0.0387826 0.0474111 0.0925097 255 255 0
-0.0367032 0.0474111 0.0925097 255 255 0
-0.0346239 0.0474111 0.0925097 255 255 0
-0.0325445 0.0474111 0.0925097 255 255 0
-0.0304652 0.0474111 0.0925097 255 255 0
-0.0283858 0.0474111 0.0925097 255 255 0
-0.0263065 0.0474111 0.0925097 255 255 0
-0.0242271 0.0474111 0.0925097 255 255 0
-0.0221478 0.0474111 0.0925097 255 255 0
-0.0200684 0.0474111 0.0925097 255 255 0
-0.0179891 0.0474111 0.0925097 255 255 0
-0.0159097 0.0474111 0.0925097 255 255 0
-0.0138304 0.0474111 0.0925097 255 255 0
-0.0117510 0.0474111 0.0925097 255 255 0
-0.0096717 0.0474111 0.0925097 255 255 0
-0.0075923 0.0474111 0.0925097 255 255 0
-0.0055130 0.0474111 0.0925097 255 255 0
-0.0034336 0.0474111 0.0925097 255 255 0
-0.0013543 0.0474111 0.0925097 255 255 0
0.0007251 0.0474111 0.0925097 255 255 0
0.0028044 0.0474111 0.0925097 255 255 0
0.0048838 0.0474111 0.0925097 255 255 0
-0.0429413 0.0494905 0.0925097 255 255 0
-0.0408619 0.0494905 0.0925097 255 255 0
-0.0387826 0.0494905 0.0925097 255 255 0
-0.0367032 0.0494905 0.0925097 255 255 0
-0.0346239 0.0494905 0.0925097 255 255 0
-0.0325445 0.0494905 0.0925097 255 255 0
-0.0304652 0.0494905 0.0925097 255 255 0
-0.0283858 0.0494905 0.0925097 255 255 0
-0.0263065 0.0494905 0.0925097 255 255 0
-0.0242271 0.0494905 0.0925097 255 255 0
-0.0221478 0.0494905 0.0925097 255 255 0
-0.0200684 0.0494905 0.0925097 255 255 0
-0.0179891 0.0494905 0.0925097 255 255 0
-0.0159097 0.0494905 0.0925097 255 255 0
-0.0138304 0.0494905 0.0925097 255 255 0
-0.0117510 0.0494905 0.0925097 255 255 0
-0.0096717 0.0494905 0.0925097 255 255 0
-0.0075923 0.0494905 0.0925097 255 255 0
-0.0055130 0.0494905 0.0925097 255 255 0
-0.0034336 0.0494905 0.0925097 255 255 0
-0.0013543 0.0494905 0.0925097 255 255 0
0.0007251 0.0494905 0.0925097 255 255 0
0.0028044 0.0494905 0.0925097 255 255 0
0.0048838 0.0494905 0.0925097 255 255 0
0.0069631 0.0494905 0.0925097 255 255 0
-0.0450206 0.0515698 0.0925097 255 255 0
-0.0429413 0.0515698 0.0925097 255 255 0
-0.0408619 0.0515698 0.0925097 255 255 0
-0.0387826 0.0515698 0.0925097 255 255 0
-0.0367032 0.0515698 0.0925097 255 255 0
-0.0346239 0.0515698 0.0925097 255 255 0
-0.0325445 0.0515698 0.0925097 255 255 0
-0.0304652 0.0515698 0.0925097 255 255 0
-0.0283858 0.0515698 0.0925097 255 255 0
-0.0263065 0.0515698 0.0925097 255 255 0
-0.0242271 0.0515698 0.0925097 255 255 0
-0.0221478 0.0515698 0.0925097 255 255 0
-0.0200684 0.0515698 0.0925097 255 255 0
-0.0179891 0.0515698 0.0925097 255 255 0
-0.0159097 0.0515698 0.0925097 255 255 0
-0.0138304 0.0515698 0.0925097 255 255 0
-0.0117510 0.0515698 0.0925097 255 255 0
-0.0096717 0.0515698 0.0925097 255 255 0
-0.0075923 0.0515698 0.0925097 255 255 0
-0.0055130 0.0515698 0.0925097 255 255 0
-0.0034336 0.0515698 0.0925097 255 255 0
-0.0013543 0.0515698 0.0925097 255 255 0
0.0007251 0.0515698 0.0925097 255 255 0
0.0028044 0.0515698 0.0925097 255 255 0
0.0048838 0.0515698 0.0925097 255 255 0
0.0069631 0.0515698 0.0925097 255 255 0
-0.0450206 0.0536492 0.0925097 255 255 0
-0.0429413 0.0536492 0.0925097 255 255 0
-0.0408619 0.0536492 0.0925097 255 255 0
-0.0387826 0.0536492 0.0925097 255 255 0
-0.0367032 0.0536492 0.0925097 255 255 0
-0.0346239 0.0536492 0.0925097 255 255 0
-0.0325445 0.0536492 0.0925097 255 255 0
-0.0304652 0.0536492 0.0925097 255 255 0
-0.0283858 0.0536492 0.0925097 255 255 0
-0.0263065 0.0536492 0.0925097 255 255 0
-0.0242271 0.0536492 0.0925097 255 255 0
-0.0221478 0.0536492 0.0925097 255 255 0
-0.0200684 0.0536492 0.0925097 255 255 0
-0.0179891 0.0536492 0.0925097 255 255 0
-0.0159097 0.0536492 0.0925097 255 255 0
-0.0138304 0.0536492 0.0925097 255 255 0
-0.0117510 0.0536492 0.0925097 255 255 0
-0.0096717 0.0536492 0.0925097 255 255 0
-0.0075923 0.0536492 0.0925097 255 255 0
-0.0055130 0.0536492 0.0925097 255 255 0
-0.0034336 0.0536492 0.0925097 255 255 0
-0.0013543 0.0536492 0.0925097 255 255 0
0.0007251 0.0536492 0.0925097 255 255 0
0.0028044 0.0536492 0.0925097 255 255 0
0.0048838 0.0536492 0.0925097 255 255 0
0.0069631 0.0536492 0.0925097 255 255 0
-0.0471000 0.0557285 0.0925097 255 255 0
-0.0450206 0.0557285 0.0925097 255 255 0
-0.0429413 0.0557285 0.0925097 255 255 0
-0.0408619 0.0557285 0.0925097 255 255 0
-0.0387826 0.0557285 0.0925097 255 255 0
-0.0367032 0.0557285 0.0925097 255 255 0
-0.0346239 0.0557285 0.0925097 255 255 0
-0.0325445 0.0557285 0.0925097 255 255 0
-0.0304652 0.0557285 0.0925097 255 255 0
-0.0283858 0.0557285 0.0925097 255 255 0
-0.0263065 0.0557285 0.0925097 255 255 0
-0.0242271 0.0557285 0.0925097 255 255 0
-0.0221478 0.0557285 0.0925097 255 255 0
-0.0200684 0.0557285 0.0925097 255 255 0
-0.0179891 0.0557285 0.0925097 255 255 0
-0.0159097 0.0557285 0.0925097 255 255 0
-0.0138304 0.0557285 0.0925097 255 255 0
-0.0117510 0.0557285 0.0925097 255 255 0
-0.0096717 0.0557285 0.0925097 255 255 0
-0.0075923 0.0557285 0.0925097 255 255 0
-0.0055130 0.0557285 0.0925097 255 255 0
-0.0034336 0.0557285 0.0925097 255 255 0
-0.0013543 0.0557285 0.0925097 255 255 0
0.0007251 0.0557285 0.0925097 255 255 0
0.0028044 0.0557285 0.0925097 255 255 0
0.0048838 0.0557285 0.0925097 255 255 0
0.0069631 0.0557285 0.0925097 255 255 0
-0.0471000 0.0578079 0.0925097 255 255 0
-0.0450206 0.0578079 0.0925097 255 255 0
-0.0429413 0.0578079 0.0925097 255 255 0
-0.0408619 0.0578079 0.0925097 255 255 0
-0.0387826 0.0578079 0.0925097 255 255 0
-0.0367032 0.0578079 0.0925097 255 255 0
-0.0346239 0.0578079 0.0925097 255 255 0
-0.0325445 0.0578079 0.0925097 255 255 0
-0.0304652 0.0578079 0.0925097 255 255 0
-0.0283858 0.0578079 0.0925097 255 255 0
-0.0263065 0.0578079 0.0925097 255 255 0
-0.0242271 0.0578079 0.0925097 255 255 0
-0.0221478 0.0578079 0.0925097 255 255 0
-0.0200684 0.0578079 0.0925097 255 255 0
-0.0179891 0.0578079 0.0925097 255 255 0
-0.0159097 0.0578079 0.0925097 255 255 0
-0.0138304 0.0578079 0.0925097 255 255 0
-0.0117510 0.0578079 0.0925097 255 255 0
-0.0096717 0.0578079 0.0925097 255 255 0
-0.0075923 0.0578079 0.0925097 255 255 0
-0.0055130 0.0578079 0.0925097 255 255 0
-0.0034336 0.0578079 0.0925097 255 255 0
-0.0013543 0.0578079 0.0925097 255 255 0
0.0007251 0.0578079 0.0925097 255 255 0
0.0028044 0.0578079 0.0925097 255 255 0
0.0048838 0.0578079 0.0925097 255 255 0
0.0069631 0.0578079 0.0925097 255 255 0
-0.0471000 0.0598872 0.0925097 255 255 0
-0.0450206 0.0598872 0.0925097 255 255 0
-0.0429413 0.0598872 0.0925097 255 255 0
-0.0408619 0.0598872 0.0925097 255 255 0
-0.0387826 0.0598872 0.0925097 255 255 0
-0.0367032 0.0598872 0.0925097 255 255 0
-0.0346239 0.0598872 0.0925097 255 255 0
-0.0325445 0.0598872 0.0925097 255 255 0
-0.0304652 0.0598872 0.0925097 255 255 0
-0.0283858 0.0598872 0.0925097 255 255 0
-0.0263065 0.0598872 0.0925097 255 255 0
-0.0242271 0.0598872 0.0925097 255 255 0
-0.0221478 0.0598872 0.0925097 255 255 0
-0.0200684 0.0598872 0.0925097 255 255 0
-0.0179891 0.0598872 0.0925097 255 255 0
-0.0159097 0.0598872 0.0925097 255 255 0
-0.0138304 0.0598872 0.0925097 255 255 0
-0.0117510 0.0598872 0.0925097 255 255 0
-0.0096717 0.0598872 0.0925097 255 255 0
-0.0075923 0.0598872 0.0925097 255 255 0
-0.0055130 0.0598872 0.0925097 255 255 0
-0.0034336 0.0598872 0.0925097 255 255 0
-0.0013543 0.0598872 0.0925097 255 255 0
0.0007251 0.0598872 0.0925097 255 255 0
0.0028044 0.0598872 0.0925097 255 255 0
0.0048838 0.0598872 0.0925097 255 255 0
0.0069631 0.0598872 0.0925097 255 255 0
0.0090425 0.0598872 0.0925101 255 255 0
-0.0471000 0.0619666 0.0925097 255 255 0
-0.0450206 0.0619666 0.0925097 255 255 0
-0.0429413 0.0619666 0.0925097 255 255 0
-0.0408619 0.0619666 0.0925097 255 255 0
-0.0387826 0.0619666 0.0925097 255 255 0
-0.0367032 0.0619666 0.0925097 255 255 0
-0.0346239 0.0619666 0.0925097 255 255 0
-0.0325445 0.0619666 0.0925097 255 255 0
-0.0304652 0.0619666 0.0925097 255 255 0
-0.0283858 0.0619666 0.0925097 255 255 0
-0.0263065 0.0619666 0.0925097 255 255 0
-0.0242271 0.0619666 0.0925097 255 255 0
-0.0221478 0.0619666 0.0925097 255 255 0
-0.0200684 0.0619666 0.0925097 255 255 0
-0.0179891 0.0619666 0.0925097 255 255 0
-0.0159097 0.0619666 0.0925097 255 255 0
-0.0138304 0.0619666 0.0925097 255 255 0
-0.0117510 0.0619666 0.0925097 255 255 0
-0.0096717 0.0619666 0.0925097 255 255 0
-0.0075923 0.0619666 0.0925097 255 255 0
-0.0055130 0.0619666 0.0925097 255 255 0
-0.0034336 0.0619666 0.0925097 255 255 0
-0.0013543 0.0619666 0.0925097 255 255 0
0.0007251 0.0619666 0.0925097 255 255 0
0.0028044 0.0619666 0.0925097 255 255 0
0.0048838 0.0619666 0.0925097 255 255 0
0.0069631 0.0619666 0.0925097 255 255 0
0.0090425 0.0619666 0.0925105 255 255 0
-0.0450206 0.0640956 0.0925097 255 255 0
-0.0429413 0.0640956 0.0925097 255 255 0
-0.0408619 0.0640956 0.0925097 255 255 0
-0.0387826 0.0640956 0.0925097 255 255 0
-0.0367032 0.0640956 0.0925097 255 255 0
-0.0346239 0.0640956 0.0925097 255 255 0
-0.0325445 0.0640956 0.0925097 255 255 0
-0.0304652 0.0640956 0.0925097 255 255 0
-0.0283858 0.0640956 0.0925097 255 255 0
-0.0263065 0.0640956 0.0925097 255 255 0
-0.0242271 0.0640956 0.0925097 255 255 0
-0.0221478 0.0640956 0.0925097 255 255 0
-0.0200684 0.0640956 0.0925097 255 255 0
-0.0179891 0.0640956 0.0925097 255 255 0
-0.0159097 0.0640956 0.0925097 255 255 0
-0.0138304 0.0640956 0.0925097 255 255 0
-0.0117510 0.0640956 0.0925097 255 255 0
-0.0096717 0.0640956 0.0925097 255 255 0
-0.0075923 0.0640956 0.0925097 255 255 0
-0.0055130 0.0640956 0.0925097 255 255 0
-0.0034336 0.0640956 0.0925097 255 255 0
-0.0013543 0.0640956 0.0925097 255 255 0
0.0007251 0.0640956 0.0925097 255 255 0
0.0028044 0.0640956 0.0925097 255 255 0
0.0048838 0.0640956 0.0925097 255 255 0
0.0069631 0.0640948 0.0925097 255 255 0
0.0090425 0.0640944 0.0925105 255 255 0
-0.0450206 0.0661749 0.0925097 255 255 0
-0.0429413 0.0661749 0.0925097 255 255 0
-0.0408619 0.0661749 0.0925097 255 255 0
-0.0387826 0.0661749 0.0925097 255 255 0
-0.0367032 0.0661749 0.0925097 255 255 0
-0.0346239 0.0661749 0.0925097 255 255 0
-0.0325445 0.0661749 0.0925097 255 255 0
-0.0304652 0.0661749 0.0925097 255 255 0
-0.0283858 0.0661749 0.0925097 255 255 0
-0.0263065 0.0661749 0.0925097 255 255 0
-0.0242271 0.0661749 0.0925097 255 255 0
-0.0221478 0.0661749 0.0925097 255 255 0
-0.0200684 0.0661749 0.0925097 255 255 0
-0.0179891 0.0661749 0.0925097 255 255 0
-0.0159097 0.0661749 0.0925097 255 255 0
-0.0138304 0.0661749 0.0925097 255 255 0
-0.0117510 0.0661749 0.0925097 255 255 0
-0.0096717 0.0661749 0.0925097 255 255 0
-0.0075923 0.0661749 0.0925097 255 255 0
-0.0055130 0.0661749 0.0925097 255 255 0
-0.0034336 0.0661749 0.0925097 255 255 0
-0.0013543 0.0661749 0.0925097 255 255 0
0.0007251 0.0661749 0.0925097 255 255 0
0.0028044 0.0661749 0.0925097 255 255 0
0.0048838 0.0661747 0.0925097 255 255 0
0.0069631 0.0661738 0.0925098 255 255 0
-0.0450206 0.0682543 0.0925097 255 255 0
-0.0429413 0.0682543 0.0925097 255 255 0
-0.0408619 0.0682543 0.0925097 255 255 0
-0.0387826 0.0682543 0.0925097 255 255 0
-0.0367032 0.0682543 0.0925097 255 255 0
-0.0346239 0.0682543 0.0925097 255 255 0
-0.0325445 0.0682543 0.0925097 255 255 0
-0.0304652 0.0682543 0.0925097 255 255 0
-0.0283858 0.0682543 0.0925097 255 255 0
-0.0263065 0.0682543 0.0925097 255 255 0
-0.0242271 0.0682543 0.0925097 255 255 0
-0.0221478 0.0682543 0.0925097 255 255 0
-0.0200684 0.0682543 0.0925097 255 255 0
-0.0179891 0.0682543 0.0925097 255 255 0
-0.0159097 0.0682543 0.0925097 255 255 0
-0.0138304 0.0682543 0.0925097 255 255 0
-0.0117510 0.0682543 0.0925097 255 255 0
-0.0096717 0.0682543 0.0925097 255 255 0
-0.0075923 0.0682543 0.0925097 255 255 0
-0.0055130 0.0682543 0.0925097 255 255 0
-0.0034336 0.0682543 0.0925097 255 255 0
-0.0013543 0.0682543 0.0925097 255 255 0
0.0007251 0.0682543 0.0925097 255 255 0
0.0028044 0.0682543 0.0925097 255 255 0
0.0048838 0.0682534 0.0925097 255 255 0
0.0069631 0.0682528 0.0925102 255 255 0
-0.0450206 0.0703336 0.0925097 255 255 0
-0.0429413 0.0703336 0.0925097 255 255 0
-0.0408619 0.0703336 0.0925097 255 255 0
-0.0387826 0.0703336 0.0925097 255 255 0
-0.0367032 0.0703336 0.0925097 255 255 0
-0.0346239 0.0703336 0.0925097 255 255 0
-0.0325445 0.0703336 0.0925097 255 255 0
-0.0304652 0.0703336 0.0925097 255 255 0
-0.0283858 0.0703336 0.0925097 255 255 0
-0.0263065 0.0703336 0.0925097 255 255 0
-0.0242271 0.0703336 0.0925097 255 255 0
-0.0221478 0.0703336 0.0925097 255 255 0
-0.0200684 0.0703336 0.0925097 255 255 0
-0.0179891 0.0703336 0.0925097 255 255 0
-0.0159097 0.0703336 0.0925097 255 255 0
-0.0138304 0.0703336 0.0925097 255 255 0
-0.0117510 0.0703336 0.0925097 255 255 0
-0.0096717 0.0703336 0.0925097 255 255 0
-0.0075923 0.0703336 0.0925097 255 255 0
-0.0055130 0.0703336 0.0925097 255 255 0
-0.0034336 0.0703336 0.0925097 255 255 0
-0.0013543 0.0703336 0.0925097 255 255 0
0.0007251 0.0703336 0.0925097 255 255 0
0.0028044 0.0703335 0.0925097 255 255 0
0.0048838 0.0703323 0.0925097 255 255 0
-0.0429413 0.0724130 0.0925097 255 255 0
-0.0408619 0.0724130 0.0925097 255 255 0
-0.0387826 0.0724130 0.0925097 255 255 0
-0.0367032 0.0724130 0.0925097 255 255 0
-0.0346239 0.0724130 0.0925097 255 255 0
-0.0325445 0.0724130 0.0925097 255 255 0
-0.0304652 0.0724130 0.0925097 255 255 0
-0.0283858 0.0724130 0.0925097 255 255 0
-0.0263065 0.0724130 0.0925097 255 255 0
-0.0242271 0.0724130 0.0925097 255 255 0
-0.0221478 0.0724130 0.0925097 255 255 0
-0.0200684 0.0724130 0.0925097 255 255 0
-0.0179891 0.0724130 0.0925097 255 255 0
-0.0159097 0.0724130 0.0925097 255 255 0
-0.0138304 0.0724130 0.0925097 255 255 0
-0.0117510 0.0724130 0.0925097 255 255 0
-0.0096717 0.0724130 0.0925097 255 255 0
-0.0075923 0.0724130 0.0925097 255 255 0
-0.0055130 0.0724130 0.0925097 255 255 0
-0.0034336 0.0724130 0.0925097 255 255 0
-0.0013543 0.0724130 0.0925097 255 255 0
0.0007251 0.0724130 0.0925097 255 255 0
0.0028044 0.0724121 0.0925097 255 255 0
0.0048838 0.0724112 0.0925102 255 255 0
-0.0429413 0.0744923 0.0925097 255 255 0
-0.0408619 0.0744923 0.0925097 255 255 0
-0.0387826 0.0744923 0.0925097 255 255 0
-0.0367032 0.0744923 0.0925097 255 255 0
-0.0346239 0.0744923 0.0925097 255 255 0
-0.0325445 0.0744923 0.0925097 255 255 0
-0.0304652 0.0744923 0.0925097 255 255 0
-0.0283858 0.0744923 0.0925097 255 255 0
-0.0263065 0.0744923 0.0925097 255 255 0
-0.0242271 0.0744923 0.0925097 255 255 0
-0.0221478 0.0744923 0.0925097 255 255 0
-0.0200684 0.0744923 0.0925097 255 255 0
-0.0179891 0.0744923 0.0925097 255 255 0
-0.0159097 0.0744923 0.0925097 255 255 0
-0.0138304 0.0744923 0.0925097 255 255 0
-0.0117510 0.0744923 0.0925097 255 255 0
-0.0096717 0.0744923 0.0925097 255 255 0
-0.0075923 0.0744923 0.0925097 255 255 0
-0.0055130 0.0744923 0.0925097 255 255 0
-0.0034336 0.0744923 0.0925097 255 255 0
-0.0013543 0.0744923 0.0925097 255 255 0
0.0007251 0.0744922 0.0925097 255 255 0
0.0028044 0.0744910 0.0925097 255 255 0
0.0048838 0.0744904 0.0925110 255 255 0
-0.0429413 0.0765717 0.0925097 255 255 0
-0.0408619 0.0765717 0.0925097 255 255 0
-0.0387826 0.0765717 0.0925097 255 255 0
-0.0367032 0.0765717 0.0925097 255 255 0
-0.0346239 0.0765717 0.0925097 255 255 0
-0.0325445 0.0765717 0.0925097 255 255 0
-0.0304652 0.0765717 0.0925097 255 255 0
-0.0283858 0.0765717 0.0925097 255 255 0
-0.0263065 0.0765717 0.0925097 255 255 0
-0.0242271 0.0765717 0.0925097 255 255 0
-0.0221478 0.0765717 0.0925097 255 255 0
-0.0200684 0.0765717 0.0925097 255 255 0
-0.0179891 0.0765717 0.0925097 255 255 0
-0.0159097 0.0765717 0.0925097 255 255 0
-0.0138304 0.0765717 0.0925097 255 255 0
-0.0117510 0.0765717 0.0925097 255 255 0
-0.0096717 0.0765717 0.0925097 255 255 0
-0.0075923 0.0765717 0.0925097 255 255 0
-0.0055130 0.0765717 0.0925097 255 255 0
-0.0034336 0.0765717 0.0925097 255 255 0
-0.0013543 0.0765715 0.0925097 255 255 0
0.0007251 0.0765707 0.0925097 255 255 0
0.0028044 0.0765701 0.0925106 255 255 0
-0.0387826 0.0786510 0.0925097 255 255 0
-0.0367032 0.0786510 0.0925097 255 255 0
-0.0346239 0.0786510 0.0925097 255 255 0
-0.0325445 0.0786510 0.0925097 255 255 0
-0.0304652 0.0786510 0.0925097 255 255 0
-0.0283858 0.0786510 0.0925097 255 255 0
-0.0263065 0.0786510 0.0925097 255 255 0
-0.0242271 0.0786510 0.0925097 255 255 0
-0.0221478 0.0786510 0.0925097 255 255 0
-0.0200684 0.0786510 0.0925097 255 255 0
-0.0179891 0.0786510 0.0925097 255 255 0
-0.0159097 0.0786510 0.0925097 255 255 0
-0.0138304 0.0786510 0.0925097 255 255 0
-0.0117510 0.0786510 0.0925097 255 255 0
-0.0096717 0.0786510 0.0925097 255 255 0
-0.0075923 0.0786510 0.0925097 255 255 0
-0.0055130 0.0786510 0.0925097 255 255 0
-0.0034336 0.0786510 0.0925097 255 255 0
-0.0013543 0.0786503 0.0925097 255 255 0
0.0007250 0.0786496 0.0925103 255 255 0
0.0028044 0.0786494 0.0925110 255 255 0
-0.0325445 0.0807304 0.0925097 255 255 0
-0.0304652 0.0807304 0.0925097 255 255 0
-0.0283858 0.0807304 0.0925097 255 255 0
-0.0263065 0.0807304 0.0925097 255 255 0
-0.0242271 0.0807304 0.0925097 255 255 0
-0.0221478 0.0807304 0.0925097 255 255 0
-0.0200684 0.0807304 0.0925097 255 255 0
-0.0179891 0.0807304 0.0925097 255 255 0
-0.0159097 0.0807304 0.0925097 255 255 0
-0.0138304 0.0807304 0.0925097 255 255 0
-0.0117510 0.0807304 0.0925097 255 255 0
-0.0096717 0.0807304 0.0925097 255 255 0
-0.0075923 0.0807304 0.0925097 255 255 0
-0.0055130 0.0807300 0.0925097 255 255 0
-0.0034336 0.0807297 0.0925097 255 255 0
-0.0013543 0.0807293 0.0925101 255 255 0
0.0007250 0.0807289 0.0925108 255 255 0
-0.0283858 0.0828097 0.0925097 255 255 0
-0.0263065 0.0828097 0.0925097 255 255 0
-0.0242271 0.0828097 0.0925097 255 255 0
-0.0221478 0.0828097 0.0925097 255 255 0
-0.0200684 0.0828097 0.0925097 255 255 0
-0.0179891 0.0828097 0.0925097 255 255 0
-0.0159097 0.0828097 0.0925097 255 255 0
-0.0138304 0.0828097 0.0925097 255 255 0
-0.0117510 0.0828097 0.0925097 255 255 0
-0.0096717 0.0828095 0.0925097 255 255 0
-0.0075923 0.0828092 0.0925097 255 255 0
-0.0055130 0.0828088 0.0925097 255 255 0
-0.0034336 0.0828087 0.0925099 255 255 0
-0.0013543 0.0828083 0.0925107 255 255 0
0.0007250 0.0828078 0.0925111 255 255 0
-0.0221478 0.0848891 0.0925097 255 255 0
-0.0200684 0.0848891 0.0925097 255 255 0
-0.0179891 0.0848891 0.0925097 255 255 0
-0.0159097 0.0848891 0.0925097 255 255 0
-0.0138304 0.0848890 0.0925097 255 255 0
-0.0200684 0.0349350 0.0945891 255 255 0
-0.0179891 0.0349350 0.0945891 255 255 0
-0.0283858 0.0370144 0.0945891 255 255 0
-0.0263065 0.0370144 0.0945891 255 255 0
-0.0242271 0.0370144 0.0945891 255 255 0
-0.0221478 0.0370144 0.0945891 255 255 0
-0.0200684 0.0370144 0.0945891 255 255 0
-0.0179891 0.0370144 0.0945891 255 255 0
-0.0159097 0.0370144 0.0945891 255 255 0
-0.0138304 0.0370144 0.0945891 255 255 0
-0.0117510 0.0370144 0.0945891 255 255 0
-0.0096717 0.0370144 0.0945891 255 255 0
-0.0387826 0.0390937 0.0945891 255 255 0
-0.0367032 0.0390937 0.0945891 255 255 0
-0.0346239 0.0390937 0.0945891 255 255 0
-0.0325445 0.0390937 0.0945891 255 255 0
-0.0304652 0.0390937 0.0945891 255 255 0
-0.0283858 0.0390937 0.0945891 255 255 0
-0.0263065 0.0390937 0.0945891 255 255 0
-0.0242271 0.0390937 0.0945891 255 255 0
-0.0221478 0.0390937 0.0945891 255 255 0
-0.0200684 0.0390937 0.0945891 255 255 0
-0.0179891 0.0390937 0.0945891 255 255 0
-0.0159097 0.0390937 0.0945891 255 255 0
-0.0138304 0.0390937 0.0945891 255 255 0
-0.0117510 0.0390937 0.0945891 255 255 0
-0.0096717 0.0390937 0.0945891 255 255 0
-0.0075923 0.0390937 0.0945891 255 255 0
-0.0055130 0.0390937 0.0945891 255 255 0
-0.0034336 0.0390937 0.0945891 255 255 0
-0.0013543 0.0390937 0.0945891 255 255 0
-0.0408619 0.0411731 0.0945891 255 255 0
-0.0387826 0.0411731 0.0945891 255 255 0
-0.0367032 0.0411731 0.0945891 255 255 0
-0.0346239 0.0411731 0.0945891 255 255 0
-0.0325445 0.0411731 0.0945891 255 255 0
-0.0304652 0.0411731 0.0945891 255 255 0
-0.0283858 0.0411731 0.0945891 255 255 0
-0.0263065 0.0411731 0.0945891 255 255 0
-0.0242271 0.0411731 0.0945891 255 255 0
-0.0221478 0.0411731 0.0945891 255 255 0
-0.0200684 0.0411731 0.0945891 255 255 0
-0.0179891 0.0411731 0.0945891 255 255 0
-0.0159097 0.0411731 0.0945891 255 255 0
-0.0138304 0.0411731 0.0945891 255 255 0
-0.0117510 0.0411731 0.0945891 255 255 0
-0.0096717 0.0411731 0.0945891 255 255 0
-0.0075923 0.0411731 0.0945891 255 255 0
-0.0055130 0.0411731 0.0945891 255 255 0
-0.0034336 0.0411731 0.0945891 255 255 0
-0.0013543 0.0411731 0.0945891 255 255 0
0.0007251 0.0411731 0.0945891 255 255 0
0.0028044 0.0411731 0.0945891 255 255 0
-0.0429413 0.0432524 0.0945891 255 255 0
-0.0408619 0.0432524 0.0945891 255 255 0
-0.0387826 0.0432524 0.0945891 255 255 0
-0.0367032 0.0432524 0.0945891 255 255 0
-0.0346239 0.0432524 0.0945891 255 255 0
-0.0325445 0.0432524 0.0945891 255 255 0
-0.0304652 0.0432524 0.0945891 255 255 0
-0.0283858 0.0432524 0.0945891 255 255 0
-0.0263065 0.0432524 0.0945891 255 255 0
-0.0242271 0.0432524 0.0945891 255 255 0
-0.0221478 0.0432524 0.0945891 255 255 0
-0.0200684 0.0432524 0.0945891 255 255 0
-0.0179891 0.0432524 0.0945891 255 255 0
-0.0159097 0.0432524 0.0945891 255 255 0
-0.0138304 0.0432524 0.0945891 255 255 0
-0.0117510 0.0432524 0.0945891 255 255 0
-0.0096717 0.0432524 0.0945891 255 255 0
-0.0075923 0.0432524 0.0945891 255 255 0
-0.0055130 0.0432524 0.0945891 255 255 0
-0.0034336 0.0432524 0.0945891 255 255 0
-0.0013543 0.0432524 0.0945891 255 255 0
0.0007251 0.0432524 0.0945891 255 255 0
0.0028044 0.0432524 0.0945891 255 255 0
-0.0429413 0.0453318 0.0945891 255 255 0
-0.0408619 0.0453318 0.0945891 255 255 0
-0.0387826 0.0453318 0.0945891 255 255 0
-0.0367032 0.0453318 0.0945891 255 255 0
-0.0346239 0.0453318 0.0945891 255 255 0
-0.0325445 0.0453318 0.0945891 255 255 0
-0.0304652 0.0453318 0.0945891 255 255 0
-0.0283858 0.0453318 0.0945891 255 255 0
-0.0263065 0.0453318 0.0945891 255 255 0
-0.0242271 0.0453318 0.0945891 255 255 0
-0.0221478 0.0453318 0.0945891 255 255 0
-0.0200684 0.0453318 0.0945891 255 255 0
-0.0179891 0.0453318 0.0945891 255 255 0
-0.0159097 0.0453318 0.0945891 255 255 0
-0.0138304 0.0453318 0.0945891 255 255 0
-0.0117510 0.0453318 0.0945891 255 255 0
-0.0096717 0.0453318 0.0945891 255 255 0
-0.0075923 0.0453318 0.0945891 255 255 0
-0.0055130 0.0453318 0.0945891 255 255 0
-0.0034336 0.0453318 0.0945891 255 255 0
-0.0013543 0.0453318 0.0945891 255 255 0
0.0007251 0.0453318 0.0945891 255 255 0
0.0028044 0.0453318 0.0945891 255 255 0
-0.0450206 0.0474111 0.0945891 255 255 0
-0.0429413 0.0474111 0.0945891 255 255 0
-0.0408619 0.0474111 0.0945891 255 255 0
-0.0387826 0.0474111 0.0945891 255 255 0
-0.0367032 0.0474111 0.0945891 255 255 0
-0.0346239 0.0474111 0.0945891 255 255 0
-0.0325445 0.0474111 0.0945891 255 255 0
-0.0304652 0.0474111 0.0945891 255 255 0
-0.0283858 0.0474111 0.0945891 255 255 0
-0.0263065 0.0474111 0.0945891 255 255 0
-0.0242271 0.0474111 0.0945891 255 255 0
-0.0221478 0.0474111 0.0945891 255 255 0
-0.0200684 0.0474111 0.0945891 255 255 0
-0.0179891 0.0474111 0.0945891 255 255 0
-0.0159097 0.0474111 0.0945891 255 255 0
-0.0138304 0.0474111 0.0945891 255 255 0
-0.0117510 0.0474111 0.0945891 255 255 0
-0.0096717 0.0474111 0.0945891 255 255 0
-0.0075923 0.0474111 0.0945891 255 255 0
-0.0055130 0.0474111 0.0945891 255 255 0
-0.0034336 0.0474111 0.0945891 255 255 0
-0.0013543 0.0474111 0.0945891 255 255 0
0.0007251 0.0474111 0.0945891 255 255 0
0.0028044 0.0474111 0.0945891 255 255 0
0.0048838 0.0474111 0.0945891 255 255 0
-0.0450206 0.0494905 0.0945891 255 255 0
-0.0429413 0.0494905 0.0945891 255 255 0
-0.0408619 0.0494905 0.0945891 255 255 0
-0.0387826 0.0494905 0.0945891 255 255 0
-0.0367032 0.0494905 0.0945891 255 255 0
-0.0346239 0.0494905 0.0945891 255 255 0
-0.0325445 0.0494905 0.0945891 255 255 0
-0.0304652 0.0494905 0.0945891 255 255 0
-0.0283858 0.0494905 0.0945891 255 255 0
-0.0263065 0.0494905 0.0945891 255 255 0
-0.0242271 0.0494905 0.0945891 255 255 0
-0.0221478 0.0494905 0.0945891 255 255 0
-0.0200684 0.0494905 0.0945891 255 255 0
-0.0179891 0.0494905 0.0945891 255 255 0
-0.0159097 0.0494905 0.0945891 255 255 0
-0.0138304 0.0494905 0.0945891 255 255 0
-0.0117510 0.0494905 0.0945891 255 255 0
-0.0096717 0.0494905 0.0945891 255 255 0
-0.0075923 0.0494905 0.0945891 255 255 0
-0.0055130 0.0494905 0.0945891 255 255 0
-0.0034336 0.0494905 0.0945891 255 255 0
-0.0013543 0.0494905 0.0945891 255 255 0
0.0007251 0.0494905 0.0945891 255 255 0
0.0028044 0.0494905 0.0945891 255 255 0
0.0048838 0.0494905 0.0945891 255 255 0
-0.0471000 0.0515698 0.0945891 255 255 0
-0.0450206 0.0515698 0.0945891 255 255 0
-0.0429413 0.0515698 0.0945891 255 255 0
-0.0408619 0.0515698 0.0945891 255 255 0
-0.0387826 0.0515698 0.0945891 255 255 0
-0.0367032 0.0515698 0.0945891 255 255 0
-0.0346239 0.0515698 0.0945891 255 255 0
-0.0325445 0.0515698 0.0945891 255 255 0
-0.0304652 0.0515698 0.0945891 255 255 0
-0.0283858 0.0515698 0.0945891 255 255 0
-0.0263065 0.0515698 0.0945891 255 255 0
-0.0242271 0.0515698 0.0945891 255 255 0
-0.0221478 0.0515698 0.0945891 255 255 0
-0.0200684 0.0515698 0.0945891 255 255 0
-0.0179891 0.0515698 0.0945891 255 255 0
-0.0159097 0.0515698 0.0945891 255 255 0
-0.0138304 0.0515698 0.0945891 255 255 0
-0.0117510 0.0515698 0.0945891 255 255 0
-0.0096717 0.0515698 0.0945891 255 255 0
-0.0075923 0.0515698 0.0945891 255 255 0
-0.0055130 0.0515698 0.0945891 255 255 0
-0.0034336 0.0515698 0.0945891 255 255 0
-0.0013543 0.0515698 0.0945891 255 255 0
0.0007251 0.0515698 0.0945891 255 255 0
0.0028044 0.0515698 0.0945891 255 255 0
0.0048838 0.0515698 0.0945891 255 255 0
-0.0471000 0.0536492 0.0945891 255 255 0
-0.0450206 0.0536492 0.0945891 255 255 0
-0.0429413 0.0536492 0.0945891 255 255 0
-0.0408619 0.0536492 0.0945891 255 255 0
-0.0387826 0.0536492 0.0945891 255 255 0
-0.0367032 0.0536492 0.0945891 255 255 0
-0.0346239 0.0536492 0.0945891 255 255 0
-0.0325445 0.0536492 0.0945891 255 255 0
-0.0304652 0.0536492 0.0945891 255 255 0
-0.0283858 0.0536492 0.0945891 255 255 0
-0.0263065 0.0536492 0.0945891 255 255 0
-0.0242271 0.0536492 0.0945891 255 255 0
-0.0221478 0.0536492 0.0945891 255 255 0
-0.0200684 0.0536492 0.0945891 255 255 0
-0.0179891 0.0536492 0.0945891 255 255 0
-0.0159097 0.0536492 0.0945891 255 255 0
-0.0138304 0.0536492 0.0945891 255 255 0
-0.0117510 0.0536492 0.0945891 255 255 0
-0.0096717 0.0536492 0.0945891 255 255 0
-0.0075923 0.0536492 0.0945891 255 255 0
-0.0055130 0.0536492 0.0945891 255 255 0
-0.0034336 0.0536492 0.0945891 255 255 0
-0.0013543 0.0536492 0.0945891 255 255 0
0.0007251 0.0536492 0.0945891 255 255 0
0.0028044 0.0536492 0.0945891 255 255 0
0.0048838 0.0536492 0.0945891 255 255 0
-0.0471000 0.0557285 0.0945891 255 255 0
-0.0450206 0.0557285 0.0945891 255 255 0
-0.0429413 0.0557285 0.0945891 255 255 0
-0.0408619 0.0557285 0.0945891 255 255 0
-0.0387826 0.0557285 0.0945891 255 255 0
-0.0367032 0.0557285 0.0945891 255 255 0
-0.0346239 0.0557285 0.0945891 255 255 0
-0.0325445 0.0557285 0.0945891 255 255 0
-0.0304652 0.0557285 0.0945891 255 255 0
-0.0283858 0.0557285 0.0945891 255 255 0
-0.0263065 0.0557285 0.0945891 255 255 0
-0.0242271 0.0557285 0.0945891 255 255 0
-0.0221478 0.0557285 0.0945891 255 255 0
-0.0200684 0.0557285 0.0945891 255 255 0
-0.0179891 0.0557285 0.0945891 255 255 0
-0.0159097 0.0557285 0.0945891 255 255 0
-0.0138304 0.0557285 0.0945891 255 255 0
-0.0117510 0.0557285 0.0945891 255 255 0
-0.0096717 0.0557285 0.0945891 255 255 0
-0.0075923 0.0557285 0.0945891 255 255 0
-0.0055130 0.0557285 0.0945891 255 255 0
-0.0034336 0.0557285 0.0945891 255 255 0
-0.0013543 0.0557285 0.0945891 255 255 0
0.0007251 0.0557285 0.0945891 255 255 0
0.0028044 0.0557285 0.0945891 255 255 0
0.0048838 0.0557285 0.0945891 255 255 0
0.0069631 0.0557285 0.0945891 255 255 0
-0.0491793 0.0578079 0.0945891 255 255 0
-0.0471000 0.0578079 0.0945891 255 255 0
-0.0450206 0.0578079 0.0945891 255 255 0
-0.0429413 0.0578079 0.0945891 255 255 0
-0.0408619 0.0578079 0.0945891 255 255 0
-0.0387826 0.0578079 0.0945891 255 255 0
-0.0367032 0.0578079 0.0945891 255 255 0
-0.0346239 0.0578079 0.0945891 255 255 0
-0.0325445 0.0578079 0.0945891 255 255 0
-0.0304652 0.0578079 0.0945891 255 255 0
-0.0283858 0.0578079 0.0945891 255 255 0
-0.0263065 0.0578079 0.0945891 255 255 0
-0.0242271 0.0578079 0.0945891 255 255 0
-0.0221478 0.0578079 0.0945891 255 255 0
-0.0200684 0.0578079 0.0945891 255 255 0
-0.0179891 0.0578079 0.0945891 255 255 0
-0.0159097 0.0578079 0.0945891 255 255 0
-0.0138304 0.0578079 0.0945891 255 255 0
-0.0117510 0.0578079 0.0945891 255 255 0
-0.0096717 0.0578079 0.0945891 255 255 0
-0.0075923 0.0578079 0.0945891 255 255 0
-0.0055130 0.0578079 0.0945891 255 255 0
-0.0034336 0.0578079 0.0945891 255 255 0
-0.0013543 0.0578079 0.0945891 255 255 0
0.0007251 0.0578079 0.0945891 255 255 0
0.0028044 0.0578079 0.0945891 255 255 0
0.0048838 0.0578079 0.0945891 255 255 0
0.0069631 0.0578079 0.0945891 255 255 0
-0.0471000 0.0598872 0.0945891 255 255 0
-0.0450206 0.0598872 0.0945891 255 255 0
-0.0429413 0.0598872 0.0945891 255 255 0
-0.0408619 0.0598872 0.0945891 255 255 0
-0.0387826 0.0598872 0.0945891 255 255 0
-0.0367032 0.0598872 0.0945891 255 255 0
-0.0346239 0.0598872 0.0945891 255 255 0
-0.0325445 0.0598872 0.0945891 255 255 0
-0.0304652 0.0598872 0.0945891 255 255 0
-0.0283858 0.0598872 0.0945891 255 255 0
-0.0263065 0.0598872 0.0945891 255 255 0
-0.0242271 0.0598872 0.0945891 255 255 0
-0.0221478 0.0598872 0.0945891 255 255 0
-0.0200684 0.0598872 0.0945891 255 255 0
-0.0179891 0.0598872 0.0945891 255 255 0
-0.0159097 0.0598872 0.0945891 255 255 0
-0.0138304 0.0598872 0.0945891 255 255 0
-0.0117510 0.0598872 0.0945891 255 255 0
-0.0096717 0.0598872 0.0945891 255 255 0
-0.0075923 0.0598872 0.0945891 255 255 0
-0.0055130 0.0598872 0.0945891 255 255 0
-0.0034336 0.0598872 0.0945891 255 255 0
-0.0013543 0.0598872 0.0945891 255 255 0
0.0007251 0.0598872 0.0945891 255 255 0
0.0028044 0.0598872 0.0945891 255 255 0
0.0048838 0.0598872 0.0945891 255 255 0
0.0069631 0.0598872 0.0945891 255 255 0
-0.0471000 0.0619666 0.0945891 255 255 0
-0.0450206 0.0619666 0.0945891 255 255 0
-0.0429413 0.0619666 0.0945891 255 255 0
-0.0408619 0.0619666 0.0945891 255 255 0
-0.0387826 0.0619666 0.0945891 255 255 0
-0.0367032 0.0619666 0.0945891 255 255 0
-0.0346239 0.0619666 0.0945891 255 255 0
-0.0325445 0.0619666 0.0945891 255 255 0
-0.0304652 0.0619666 0.0945891 255 255 0
-0.0283858 0.0619666 0.0945891 255 255 0
-0.0263065 0.0619666 0.0945891 255 255 0
-0.0242271 0.0619666 0.0945891 255 255 0
-0.0221478 0.0619666 0.0945891 255 255 0
-0.0200684 0.0619666 0.0945891 255 255 0
-0.0179891 0.0619666 0.0945891 255 255 0
-0.0159097 0.0619666 0.0945891 255 255 0
-0.0138304 0.0619666 0.0945891 255 255 0
-0.0117510 0.0619666 0.0945891 255 255 0
-0.0096717 0.0619666 0.0945891 255 255 0
-0.0075923 0.0619666 0.0945891 255 255 0
-0.0055130 0.0619666 0.0945891 255 255 0
-0.0034336 0.0619666 0.0945891 255 255 0
-0.0013543 0.0619666 0.0945891 255 255 0
0.0007251 0.0619666 0.0945891 255 255 0
0.0028044 0.0619666 0.0945891 255 255 0
0.0048838 0.0619666 0.0945891 255 255 0
0.0069631 0.0619666 0.0945891 255 255 0
-0.0471000 0.0640956 0.0945891 255 255 0
-0.0450206 0.0640956 0.0945891 255 255 0
-0.0429413 0.0640956 0.0945891 255 255 0
-0.0408619 0.0640956 0.0945891 255 255 0
-0.0387826 0.0640956 0.0945891 255 255 0
-0.0367032 0.0640956 0.0945891 255 255 0
-0.0346239 0.0640956 0.0945891 255 255 0
-0.0325445 0.0640956 0.0945891 255 255 0
-0.0304652 0.0640956 0.0945891 255 255 0
-0.0283858 0.0640956 0.0945891 255 255 0
-0.0263065 0.0640956 0.0945891 255 255 0
-0.0242271 0.0640956 0.0945891 255 255 0
-0.0221478 0.0640956 0.0945891 255 255 0
-0.0200684 0.0640956 0.0945891 255 255 0
-0.0179891 0.0640956 0.0945891 255 255 0
-0.0159097 0.0640956 0.0945891 255 255 0
-0.0138304 0.0640956 0.0945891 255 255 0
-0.0117510 0.0640956 0.0945891 255 255 0
-0.0096717 0.0640956 0.0945891 255 255 0
-0.0075923 0.0640956 0.0945891 255 255 0
-0.0055130 0.0640956 0.0945891 255 255 0
-0.0034336 0.0640956 0.0945891 255 255 0
-0.0013543 0.0640956 0.0945891 255 255 0
0.0007251 0.0640956 0.0945891 255 255 0
0.0028044 0.0640956 0.0945891 255 255 0
0.0048838 0.0640956 0.0945891 255 255 0
0.0069631 0.0640956 0.0945891 255 255 0
-0.0471000 0.0661749 0.0945891 255 255 0
-0.0450206 0.0661749 0.0945891 255 255 0
-0.0429413 0.0661749 0.0945891 255 255 0
-0.0408619 0.0661749 0.0945891 255 255 0
-0.0387826 0.0661749 0.0945891 255 255 0
-0.0367032 0.0661749 0.0945891 255 255 0
-0.0346239 0.0661749 0.0945891 255 255 0
-0.0325445 0.0661749 0.0945891 255 255 0
-0.0304652 0.0661749 0.0945891 255 255 0
-0.0283858 0.0661749 0.0945891 255 255 0
-0.0263065 0.0661749 0.0945891 255 255 0
-0.0242271 0.0661749 0.0945891 255 255 0
-0.0221478 0.0661749 0.0945891 255 255 0
-0.0200684 0.0661749 0.0945891 255 255 0
-0.0179891 0.0661749 0.0945891 255 255 0
-0.0159097 0.0661749 0.0945891 255 255 0
-0.0138304 0.0661749 0.0945891 255 255 0
-0.0117510 0.0661749 0.0945891 255 255 0
-0.0096717 0.0661749 0.0945891 255 255 0
-0.0075923 0.0661749 0.0945891 255 255 0
-0.0055130 0.0661749 0.0945891 255 255 0
-0.0034336 0.0661749 0.0945891 255 255 0
-0.0013543 0.0661749 0.0945891 255 255 0
0.0007251 0.0661749 0.0945891 255 255 0
0.0028044 0.0661749 0.0945891 255 255 0
0.0048838 0.0661749 0.0945891 255 255 0
0.0069631 0.0661749 0.0945891 255 255 0
-0.0450206 0.0682543 0.0945891 255 255 0
-0.0429413 0.0682543 0.0945891 255 255 0
-0.0408619 0.0682543 0.0945891 255 255 0
-0.0387826 0.0682543 0.0945891 255 255 0
-0.0367032 0.0682543 0.0945891 255 255 0
-0.0346239 0.0682543 0.0945891 255 255 0
-0.0325445 0.0682543 0.0945891 255 255 0
-0.0304652 0.0682543 0.0945891 255 255 0
-0.0283858 0.0682543 0.0945891 255 255 0
-0.0263065 0.0682543 0.0945891 255 255 0
-0.0242271 0.0682543 0.0945891 255 255 0
-0.0221478 0.0682543 0.0945891 255 255 0
-0.0200684 0.0682543 0.0945891 255 255 0
-0.0179891 0.0682543 0.0945891 255 255 0
-0.0159097 0.0682543 0.0945891 255 255 0
-0.0138304 0.0682543 0.0945891 255 255 0
-0.0117510 0.0682543 0.0945891 255 255 0
-0.0096717 0.0682543 0.0945891 255 255 0
-0.0075923 0.0682543 0.0945891 255 255 0
-0.0055130 0.0682543 0.0945891 255 255 0
-0.0034336 0.0682543 0.0945891 255 255 0
-0.0013543 0.0682543 0.0945891 255 255 0
0.0007251 0.0682543 0.0945891 255 255 0
0.0028044 0.0682543 0.0945891 255 255 0
0.0048838 0.0682543 0.0945891 255 255 0
-0.0450206 0.0703336 0.0945891 255 255 0
-0.0429413 0.0703336 0.0945891 255 255 0
-0.0408619 0.0703336 0.0945891 255 255 0
-0.0387826 0.0703336 0.0945891 255 255 0
-0.0367032 0.0703336 0.0945891 255 255 0
-0.0346239 0.0703336 0.0945891 255 255 0
-0.0325445 0.0703336 0.0945891 255 255 0
-0.0304652 0.0703336 0.0945891 255 255 0
-0.0283858 0.0703336 0.0945891 255 255 0
-0.0263065 0.0703336 0.0945891 255 255 0
-0.0242271 0.0703336 0.0945891 255 255 0
-0.0221478 0.0703336 0.0945891 255 255 0
-0.0200684 0.0703336 0.0945891 255 255 0
-0.0179891 0.0703336 0.0945891 255 255 0
-0.0159097 0.0703336 0.0945891 255 255 0
-0.0138304 0.0703336 0.0945891 255 255 0
-0.0117510 0.0703336 0.0945891 255 255 0
-0.0096717 0.0703336 0.0945891 255 255 0
-0.0075923 0.0703336 0.0945891 255 255 0
-0.0055130 0.0703336 0.0945891 255 255 0
-0.0034336 0.0703336 0.0945891 255 255 0
-0.0013543 0.0703336 0.0945891 255 255 0
0.0007251 0.0703336 0.0945891 255 255 0
0.0028044 0.0703336 0.0945891 255 255 0
0.0048838 0.0703336 0.0945891 255 255 0
-0.0450206 0.0724130 0.0945891 255 255 0
-0.0429413 0.0724130 0.0945891 255 255 0
-0.0408619 0.0724130 0.0945891 255 255 0
-0.0387826 0.0724130 0.0945891 255 255 0
-0.0367032 0.0724130 0.0945891 255 255 0
-0.0346239 0.0724130 0.0945891 255 255 0
-0.0325445 0.0724130 0.0945891 255 255 0
-0.0304652 0.0724130 0.0945891 255 255 0
-0.0283858 0.0724130 0.0945891 255 255 0
-0.0263065 0.0724130 0.0945891 255 255 0
-0.0242271 0.0724130 0.0945891 255 255 0
-0.0221478 0.0724130 0.0945891 255 255 0
-0.0200684 0.0724130 0.0945891 255 255 0
-0.0179891 0.0724130 0.0945891 255 255 0
-0.0159097 0.0724130 0.0945891 255 255 0
-0.0138304 0.0724130 0.0945891 255 255 0
-0.0117510 0.0724130 0.0945891 255 255 0
-0.0096717 0.0724130 0.0945891 255 255 0
-0.0075923 0.0724130 0.0945891 255 255 0
-0.0055130 0.0724130 0.0945891 255 255 0
-0.0034336 0.0724130 0.0945891 255 255 0
-0.0013543 0.0724130 0.0945891 255 255 0
0.0007251 0.0724130 0.0945891 255 255 0
0.0028044 0.0724130 0.0945891 255 255 0
-0.0450206 0.0744923 0.0945891 255 255 0
-0.0429413 0.0744923 0.0945891 255 255 0
-0.0408619 0.0744923 0.0945891 255 255 0
-0.0387826 0.0744923 0.0945891 255 255 0
-0.0367032 0.0744923 0.0945891 255 255 0
-0.0346239 0.0744923 0.0945891 255 255 0
-0.0325445 0.0744923 0.0945891 255 255 0
-0.0304652 0.0744923 0.0945891 255 255 0
-0.0283858 0.0744923 0.0945891 255 255 0
-0.0263065 0.0744923 0.0945891 255 255 0
-0.0242271 0.0744923 0.0945891 255 255 0
-0.0221478 0.0744923 0.0945891 255 255 0
-0.0200684 0.0744923 0.0945891 255 255 0
-0.0179891 0.0744923 0.0945891 255 255 0
-0.0159097 0.0744923 0.0945891 255 255 0
-0.0138304 0.0744923 0.0945891 255 255 0
-0.0117510 0.0744923 0.0945891 255 255 0
-0.0096717 0.0744923 0.0945891 255 255 0
-0.0075923 0.0744923 0.0945891 255 255 0
-0.0055130 0.0744923 0.0945891 255 255 0
-0.0034336 0.0744923 0.0945891 255 255 0
-0.0013543 0.0744923 0.0945891 255 255 0
0.0007251 0.0744923 0.0945891 255 255 0
0.0028044 0.0744923 0.0945891 255 255 0
-0.0429413 0.0765717 0.0945891 255 255 0
-0.0408619 0.0765717 0.0945891 255 255 0
-0.0387826 0.0765717 0.0945891 255 255 0
-0.0367032 0.0765717 0.0945891 255 255 0
-0.0346239 0.0765717 0.0945891 255 255 0
-0.0325445 0.0765717 0.0945891 255 255 0
-0.0304652 0.0765717 0.0945891 255 255 0
-0.0283858 0.0765717 0.0945891 255 255 0
-0.0263065 0.0765717 0.0945891 255 255 0
-0.0242271 0.0765717 0.0945891 255 255 0
-0.0221478 0.0765717 0.0945891 255 255 0
-0.0200684 0.0765717 0.0945891 255 255 0
-0.0179891 0.0765717 0.0945891 255 255 0
-0.0159097 0.0765717 0.0945891 255 255 0
-0.0138304 0.0765717 0.0945891 255 255 0
-0.0117510 0.0765717 0.0945891 255 255 0
-0.0096717 0.0765717 0.0945891 255 255 0
-0.0075923 0.0765717 0.0945891 255 255 0
-0.0055130 0.0765717 0.0945891 255 255 0
-0.0034336 0.0765717 0.0945891 255 255 0
-0.0013543 0.0765717 0.0945891 255 255 0
0.0007251 0.0765717 0.0945891 255 255 0
-0.0367032 0.0786510 0.0945891 255 255 0
-0.0346239 0.0786510 0.0945891 255 255 0
-0.0325445 0.0786510 0.0945891 255 255 0
-0.0304652 0.0786510 0.0945891 255 255 0
-0.0283858 0.0786510 0.0945891 255 255 0
-0.0263065 0.0786510 0.0945891 255 255 0
-0.0242271 0.0786510 0.0945891 255 255 0
-0.0221478 0.0786510 0.0945891 255 255 0
-0.0200684 0.0786510 0.0945891 255 255 0
-0.0179891 0.0786510 0.0945891 255 255 0
-0.0159097 0.0786510 0.0945891 255 255 0
-0.0138304 0.0786510 0.0945891 255 255 0
-0.0117510 0.0786510 0.0945891 255 255 0
-0.0096717 0.0786510 0.0945891 255 255 0
-0.0075923 0.0786510 0.0945891 255 255 0
-0.0055130 0.0786510 0.0945891 255 255 0
-0.0034336 0.0786510 0.0945891 255 255 0
-0.0013543 0.0786510 0.0945891 255 255 0
0.0007251 0.0786510 0.0945891 255 255 0
-0.0325445 0.0807304 0.0945891 255 255 0
-0.0304652 0.0807304 0.0945891 255 255 0
-0.0283858 0.0807304 0.0945891 255 255 0
-0.0263065 0.0807304 0.0945891 255 255 0
-0.0242271 0.0807304 0.0945891 255 255 0
-0.0221478 0.0807304 0.0945891 255 255 0
-0.0200684 0.0807304 0.0945891 255 255 0
-0.0179891 0.0807304 0.0945891 255 255 0
-0.0159097 0.0807304 0.0945891 255 255 0
-0.0138304 0.0807304 0.0945891 255 255 0
