ply
format ascii 1.0
element vertex 1187
property float x
property float y
property float z
property uchar red
property uchar green
property uchar blue
end_header
0.0132010 0.0682098 0.0092344 255 255 0
0.0152804 0.0682100 0.0092345 255 255 0
0.0173598 0.0682102 0.0092346 255 255 0
0.0194392 0.0682104 0.0092347 255 255 0
0.0215187 0.0682105 0.0092349 255 255 0
0.0236048 0.0682111 0.0092353 255 255 0
0.0256851 0.0682116 0.0092357 255 255 0
0.0277666 0.0682339 0.0092360 255 255 0
0.0298521 0.0682341 0.0092369 255 255 0
0.0319464 0.0682348 0.0092360 255 255 0
-0.0159422 0.0703166 0.0092322 255 255 0
-0.0138525 0.0703164 0.0092330 255 255 0
-0.0117671 0.0703162 0.0092330 255 255 0
-0.0096823 0.0703032 0.0092332 255 255 0
-0.0075988 0.0702935 0.0092332 255 255 0
-0.0055173 0.0702934 0.0092332 255 255 0
-0.0034361 0.0702934 0.0092331 255 255 0
-0.0013558 0.0702933 0.0092331 255 255 0
0.0007239 0.0702933 0.0092331 255 255 0
0.0028040 0.0702929 0.0092332 255 255 0
0.0048834 0.0702929 0.0092332 255 255 0
0.0069628 0.0702930 0.0092332 255 255 0
0.0090422 0.0702930 0.0092333 255 255 0
0.0111216 0.0702930 0.0092333 255 255 0
0.0132010 0.0702932 0.0092334 255 255 0
0.0152804 0.0702933 0.0092334 255 255 0
0.0173598 0.0702934 0.0092336 255 255 0
0.0194393 0.0702939 0.0092338 255 255 0
0.0215189 0.0702941 0.0092342 255 255 0
0.0236056 0.0703065 0.0092344 255 255 0
0.0256853 0.0703163 0.0092347 255 255 0
0.0277716 0.0703166 0.0092347 255 255 0
0.0298589 0.0703171 0.0092352 255 255 0
0.0319471 0.0703174 0.0092353 255 255 0
-0.0159449 0.0723992 0.0092321 255 255 0
-0.0138547 0.0723983 0.0092325 255 255 0
-0.0117678 0.0723978 0.0092330 255 255 0
-0.0096837 0.0723977 0.0092330 255 255 0
-0.0075993 0.0723974 0.0092330 255 255 0
-0.0055174 0.0723968 0.0092330 255 255 0
-0.0034362 0.0723967 0.0092330 255 255 0
-0.0013562 0.0723846 0.0092330 255 255 0
0.0007237 0.0723836 0.0092330 255 255 0
0.0028032 0.0723832 0.0092330 255 255 0
0.0048834 0.0723830 0.0092330 255 255 0
0.0069629 0.0723830 0.0092331 255 255 0
0.0090422 0.0723830 0.0092331 255 255 0
0.0111216 0.0723832 0.0092331 255 255 0
0.0132011 0.0723835 0.0092332 255 255 0
0.0152805 0.0723843 0.0092332 255 255 0
0.0173599 0.0723956 0.0092333 255 255 0
0.0194394 0.0723968 0.0092335 255 255 0
0.0215190 0.0723972 0.0092336 255 255 0
0.0236058 0.0723976 0.0092339 255 255 0
0.0256855 0.0723979 0.0092342 255 255 0
0.0277726 0.0723981 0.0092344 255 255 0
0.0298600 0.0723997 0.0092351 255 255 0
0.0319478 0.0724004 0.0092354 255 255 0
-0.0138582 0.0744800 0.0092314 255 255 0
-0.0117707 0.0744796 0.0092321 255 255 0
-0.0096841 0.0744789 0.0092324 255 255 0
-0.0076006 0.0744786 0.0092323 255 255 0
-0.0055175 0.0744784 0.0092323 255 255 0
-0.0034370 0.0744783 0.0092322 255 255 0
-0.0013563 0.0744782 0.0092322 255 255 0
0.0007235 0.0744782 0.0092322 255 255 0
0.0028031 0.0744782 0.0092322 255 255 0
0.0048834 0.0744782 0.0092322 255 255 0
0.0069628 0.0744782 0.0092322 255 255 0
0.0090423 0.0744782 0.0092323 255 255 0
0.0111217 0.0744783 0.0092323 255 255 0
0.0132011 0.0744783 0.0092324 255 255 0
0.0152805 0.0744784 0.0092325 255 255 0
0.0173600 0.0744785 0.0092327 255 255 0
0.0194395 0.0744786 0.0092329 255 255 0
0.0215212 0.0744787 0.0092331 255 255 0
0.0236060 0.0744789 0.0092333 255 255 0
0.0256859 0.0744795 0.0092337 255 255 0
0.0277732 0.0744796 0.0092339 255 255 0
0.0298663 0.0744813 0.0092341 255 255 0
-0.0138607 0.0765610 0.0092310 255 255 0
-0.0117715 0.0765604 0.0092313 255 255 0
-0.0096847 0.0765602 0.0092321 255 255 0
-0.0076010 0.0765597 0.0092321 255 255 0
-0.0055182 0.0765596 0.0092321 255 255 0
-0.0034373 0.0765590 0.0092320 255 255 0
-0.0013567 0.0765589 0.0092320 255 255 0
0.0007232 0.0765586 0.0092320 255 255 0
0.0028031 0.0765585 0.0092320 255 255 0
0.0048834 0.0765583 0.0092320 255 255 0
0.0069629 0.0765582 0.0092320 255 255 0
0.0090423 0.0765582 0.0092321 255 255 0
0.0111217 0.0765583 0.0092321 255 255 0
0.0132011 0.0765584 0.0092323 255 255 0
0.0152806 0.0765586 0.0092324 255 255 0
0.0173600 0.0765588 0.0092325 255 255 0
0.0194396 0.0765590 0.0092327 255 255 0
0.0215255 0.0765591 0.0092328 255 255 0
0.0236062 0.0765597 0.0092331 255 255 0
0.0256922 0.0765604 0.0092335 255 255 0
0.0277797 0.0765609 0.0092337 255 255 0
0.0298682 0.0765622 0.0092332 255 255 0
-0.0138634 0.0786432 0.0092313 255 255 0
-0.0117739 0.0786425 0.0092316 255 255 0
-0.0096877 0.0786420 0.0092324 255 255 0
-0.0076026 0.0786418 0.0092323 255 255 0
-0.0055195 0.0786413 0.0092323 255 255 0
-0.0034382 0.0786405 0.0092321 255 255 0
-0.0013576 0.0786403 0.0092320 255 255 0
0.0007226 0.0786397 0.0092320 255 255 0
0.0028030 0.0786394 0.0092320 255 255 0
0.0048834 0.0786393 0.0092320 255 255 0
0.0069628 0.0786393 0.0092321 255 255 0
0.0090423 0.0786393 0.0092321 255 255 0
0.0111217 0.0786393 0.0092322 255 255 0
0.0132011 0.0786394 0.0092323 255 255 0
0.0152806 0.0786396 0.0092324 255 255 0
0.0173600 0.0786401 0.0092326 255 255 0
0.0194416 0.0786402 0.0092328 255 255 0
0.0215266 0.0786409 0.0092331 255 255 0
0.0236064 0.0786413 0.0092334 255 255 0
0.0256935 0.0786424 0.0092338 255 255 0
0.0277810 0.0786429 0.0092341 255 255 0
0.0298754 0.0786439 0.0092334 255 255 0
-0.0138642 0.0807255 0.0092321 255 255 0
-0.0117752 0.0807250 0.0092323 255 255 0
-0.0096878 0.0807247 0.0092331 255 255 0
-0.0076041 0.0807243 0.0092330 255 255 0
-0.0055212 0.0807225 0.0092331 255 255 0
-0.0034395 0.0807214 0.0092327 255 255 0
-0.0013588 0.0807211 0.0092325 255 255 0
0.0007217 0.0807208 0.0092324 255 255 0
0.0028021 0.0807201 0.0092324 255 255 0
0.0048815 0.0807199 0.0092324 255 255 0
0.0069628 0.0807200 0.0092324 255 255 0
0.0090423 0.0807199 0.0092324 255 255 0
0.0111218 0.0807200 0.0092325 255 255 0
0.0132012 0.0807200 0.0092326 255 255 0
0.0152813 0.0807204 0.0092329 255 255 0
0.0173602 0.0807210 0.0092332 255 255 0
0.0194461 0.0807212 0.0092335 255 255 0
0.0215268 0.0807218 0.0092339 255 255 0
0.0236086 0.0807228 0.0092340 255 255 0
0.0256939 0.0807232 0.0092344 255 255 0
0.0277845 0.0807235 0.0092346 255 255 0
-0.0138648 0.0828306 0.0092333 255 255 0
-0.0117765 0.0828162 0.0092332 255 255 0
-0.0096902 0.0828069 0.0092334 255 255 0
-0.0076059 0.0828058 0.0092340 255 255 0
-0.0055233 0.0828049 0.0092336 255 255 0
-0.0034414 0.0828041 0.0092335 255 255 0
-0.0013605 0.0828034 0.0092335 255 255 0
0.0007202 0.0828021 0.0092335 255 255 0
0.0028010 0.0828012 0.0092335 255 255 0
0.0048815 0.0828011 0.0092335 255 255 0
0.0069610 0.0828011 0.0092336 255 255 0
0.0090423 0.0828013 0.0092336 255 255 0
0.0111218 0.0828014 0.0092337 255 255 0
0.0132012 0.0828015 0.0092339 255 255 0
0.0152839 0.0828019 0.0092341 255 255 0
0.0173608 0.0828028 0.0092346 255 255 0
0.0194472 0.0828038 0.0092349 255 255 0
0.0215269 0.0828044 0.0092353 255 255 0
0.0236130 0.0828047 0.0092353 255 255 0
0.0256983 0.0828053 0.0092354 255 255 0
0.0277881 0.0828058 0.0092354 255 255 0
-0.0096920 0.0849121 0.0092342 255 255 0
-0.0076085 0.0849107 0.0092340 255 255 0
-0.0055256 0.0849064 0.0092341 255 255 0
-0.0034439 0.0848862 0.0092347 255 255 0
-0.0013627 0.0848851 0.0092347 255 255 0
0.0007183 0.0848845 0.0092351 255 255 0
0.0027992 0.0848838 0.0092354 255 255 0
0.0048798 0.0848836 0.0092356 255 255 0
0.0069609 0.0848836 0.0092357 255 255 0
0.0090422 0.0848838 0.0092357 255 255 0
0.0111217 0.0848840 0.0092358 255 255 0
0.0132015 0.0848842 0.0092360 255 255 0
0.0152845 0.0848843 0.0092362 255 255 0
0.0173667 0.0848848 0.0092369 255 255 0
0.0194475 0.0848854 0.0092372 255 255 0
0.0215271 0.0848863 0.0092372 255 255 0
0.0236144 0.0848870 0.0092368 255 255 0
0.0257007 0.0848876 0.0092368 255 255 0
0.0277897 0.0848955 0.0092363 255 255 0
-0.0034473 0.0869913 0.0092350 255 255 0
-0.0013655 0.0869897 0.0092362 255 255 0
0.0007159 0.0869752 0.0092365 255 255 0
0.0027974 0.0869659 0.0092373 255 255 0
0.0048793 0.0869652 0.0092382 255 255 0
0.0069608 0.0869649 0.0092382 255 255 0
0.0090422 0.0869651 0.0092380 255 255 0
0.0111218 0.0869652 0.0092380 255 255 0
0.0132045 0.0869656 0.0092378 255 255 0
0.0152846 0.0869661 0.0092376 255 255 0
0.0173679 0.0869672 0.0092381 255 255 0
0.0194477 0.0869788 0.0092382 255 255 0
0.0215293 0.0869905 0.0092380 255 255 0
0.0236146 0.0869918 0.0092382 255 255 0
0.0257022 0.0869928 0.0092376 255 255 0
0.0007130 0.0890713 0.0092384 255 255 0
0.0027952 0.0890703 0.0092388 255 255 0
0.0048776 0.0890697 0.0092404 255 255 0
0.0069604 0.0890693 0.0092407 255 255 0
0.0090422 0.0890697 0.0092404 255 255 0
0.0111219 0.0890704 0.0092398 255 255 0
0.0132051 0.0890709 0.0092386 255 255 0
0.0152847 0.0890714 0.0092386 255 255 0
0.0173680 0.0890718 0.0092390 255 255 0
0.0194484 0.0890736 0.0092393 255 255 0
0.0048766 0.0911548 0.0092415 255 255 0
0.0069601 0.0911542 0.0092418 255 255 0
0.0048740 0.0348218 0.0112309 255 255 0
0.0069568 0.0348214 0.0112306 255 255 0
0.0090378 0.0348211 0.0112298 255 255 0
0.0111229 0.0348205 0.0112287 255 255 0
0.0132094 0.0348200 0.0112271 255 255 0
-0.0055335 0.0369006 0.0112271 255 255 0
-0.0034468 0.0369011 0.0112286 255 255 0
-0.0013626 0.0369054 0.0112308 255 255 0
0.0007174 0.0369125 0.0112328 255 255 0
0.0027976 0.0369152 0.0112344 255 255 0
0.0048779 0.0369159 0.0112372 255 255 0
0.0069584 0.0369162 0.0112385 255 255 0
0.0090412 0.0369161 0.0112381 255 255 0
0.0111208 0.0369156 0.0112371 255 255 0
0.0132052 0.0369150 0.0112349 255 255 0
0.0152891 0.0369142 0.0112328 255 255 0
0.0173735 0.0369005 0.0112294 255 255 0
-0.0097037 0.0389862 0.0112278 255 255 0
-0.0076158 0.0389947 0.0112322 255 255 0
-0.0055298 0.0389962 0.0112359 255 255 0
-0.0034446 0.0389965 0.0112376 255 255 0
-0.0013611 0.0389969 0.0112390 255 255 0
0.0007194 0.0389993 0.0112405 255 255 0
0.0027997 0.0390084 0.0112419 255 255 0
0.0048798 0.0390107 0.0112434 255 255 0
0.0069601 0.0390110 0.0112441 255 255 0
0.0090413 0.0390109 0.0112440 255 255 0
0.0111208 0.0390106 0.0112433 255 255 0
0.0132037 0.0390101 0.0112421 255 255 0
0.0152854 0.0389990 0.0112398 255 255 0
0.0173663 0.0389956 0.0112373 255 255 0
0.0194524 0.0389945 0.0112339 255 255 0
0.0215323 0.0389930 0.0112308 255 255 0
0.0236157 0.0389803 0.0112269 255 255 0
-0.0097002 0.0410756 0.0112349 255 255 0
-0.0076129 0.0410875 0.0112386 255 255 0
-0.0055271 0.0410905 0.0112418 255 255 0
-0.0034428 0.0410909 0.0112431 255 255 0
-0.0013600 0.0410914 0.0112442 255 255 0
0.0007207 0.0410915 0.0112454 255 255 0
0.0028013 0.0410917 0.0112463 255 255 0
0.0048808 0.0410919 0.0112472 255 255 0
0.0069602 0.0410921 0.0112476 255 255 0
0.0090414 0.0410921 0.0112476 255 255 0
0.0111208 0.0410918 0.0112471 255 255 0
0.0132018 0.0410914 0.0112462 255 255 0
0.0152831 0.0410909 0.0112445 255 255 0
0.0173661 0.0410901 0.0112427 255 255 0
0.0194456 0.0410892 0.0112403 255 255 0
0.0215251 0.0410772 0.0112375 255 255 0
0.0236118 0.0410744 0.0112346 255 255 0
0.0256913 0.0410726 0.0112303 255 255 0
0.0277821 0.0410674 0.0112265 255 255 0
-0.0117887 0.0431586 0.0112352 255 255 0
-0.0096961 0.0431697 0.0112397 255 255 0
-0.0076098 0.0431710 0.0112426 255 255 0
-0.0055254 0.0431718 0.0112450 255 255 0
-0.0034415 0.0431720 0.0112462 255 255 0
-0.0013591 0.0431721 0.0112470 255 255 0
0.0007214 0.0431722 0.0112476 255 255 0
0.0028013 0.0431724 0.0112480 255 255 0
0.0048808 0.0431725 0.0112485 255 255 0
0.0069619 0.0431726 0.0112487 255 255 0
0.0090413 0.0431726 0.0112486 255 255 0
0.0111207 0.0431725 0.0112484 255 255 0
0.0132002 0.0431722 0.0112480 255 255 0
0.0152831 0.0431718 0.0112473 255 255 0
0.0173591 0.0431714 0.0112462 255 255 0
0.0194455 0.0431709 0.0112446 255 255 0
0.0215250 0.0431703 0.0112429 255 255 0
0.0236047 0.0431695 0.0112410 255 255 0
0.0256913 0.0431666 0.0112380 255 255 0
0.0277782 0.0431550 0.0112354 255 255 0
0.0298693 0.0431531 0.0112309 255 255 0
-0.0117849 0.0452488 0.0112388 255 255 0
-0.0096928 0.0452506 0.0112423 255 255 0
-0.0076075 0.0452518 0.0112450 255 255 0
-0.0055237 0.0452525 0.0112467 255 255 0
-0.0034405 0.0452527 0.0112474 255 255 0
-0.0013584 0.0452613 0.0112479 255 255 0
0.0007219 0.0452652 0.0112483 255 255 0
0.0028022 0.0452652 0.0112486 255 255 0
0.0048825 0.0452652 0.0112488 255 255 0
0.0069619 0.0452652 0.0112490 255 255 0
0.0090413 0.0452652 0.0112489 255 255 0
0.0111208 0.0452652 0.0112488 255 255 0
0.0132002 0.0452650 0.0112486 255 255 0
0.0152797 0.0452628 0.0112482 255 255 0
0.0173590 0.0452523 0.0112478 255 255 0
0.0194384 0.0452520 0.0112471 255 255 0
0.0215249 0.0452517 0.0112463 255 255 0
0.0236046 0.0452512 0.0112448 255 255 0
0.0256842 0.0452505 0.0112430 255 255 0
0.0277740 0.0452499 0.0112412 255 255 0
0.0298650 0.0452487 0.0112378 255 255 0
0.0319594 0.0452360 0.0112355 255 255 0
-0.0117811 0.0473293 0.0112395 255 255 0
-0.0096909 0.0473312 0.0112438 255 255 0
-0.0076055 0.0473320 0.0112456 255 255 0
-0.0055219 0.0473407 0.0112467 255 255 0
-0.0034396 0.0473448 0.0112473 255 255 0
-0.0013580 0.0473449 0.0112477 255 255 0
0.0007223 0.0473450 0.0112480 255 255 0
0.0028022 0.0473451 0.0112482 255 255 0
0.0048825 0.0473451 0.0112484 255 255 0
0.0069619 0.0473451 0.0112485 255 255 0
0.0090414 0.0473451 0.0112485 255 255 0
0.0111208 0.0473450 0.0112484 255 255 0
0.0132002 0.0473449 0.0112482 255 255 0
0.0152796 0.0473447 0.0112481 255 255 0
0.0173590 0.0473446 0.0112478 255 255 0
0.0194385 0.0473445 0.0112474 255 255 0
0.0215180 0.0473394 0.0112470 255 255 0
0.0236045 0.0473319 0.0112464 255 255 0
0.0256841 0.0473315 0.0112455 255 255 0
0.0277711 0.0473312 0.0112444 255 255 0
0.0298595 0.0473308 0.0112422 255 255 0
0.0319594 0.0473301 0.0112410 255 255 0
-0.0138707 0.0494071 0.0112344 255 255 0
-0.0117780 0.0494096 0.0112403 255 255 0
-0.0096883 0.0494116 0.0112445 255 255 0
-0.0076037 0.0494236 0.0112456 255 255 0
-0.0055201 0.0494247 0.0112465 255 255 0
-0.0034388 0.0494251 0.0112470 255 255 0
-0.0013575 0.0494251 0.0112475 255 255 0
0.0007226 0.0494251 0.0112477 255 255 0
0.0028022 0.0494251 0.0112479 255 255 0
0.0048825 0.0494250 0.0112480 255 255 0
0.0069619 0.0494249 0.0112481 255 255 0
0.0090414 0.0494249 0.0112481 255 255 0
0.0111208 0.0494249 0.0112481 255 255 0
0.0132002 0.0494249 0.0112479 255 255 0
0.0152796 0.0494248 0.0112478 255 255 0
0.0173590 0.0494248 0.0112476 255 255 0
0.0194385 0.0494248 0.0112472 255 255 0
0.0215180 0.0494248 0.0112470 255 255 0
0.0236046 0.0494247 0.0112466 255 255 0
0.0256842 0.0494245 0.0112461 255 255 0
0.0277711 0.0494196 0.0112455 255 255 0
0.0298581 0.0494119 0.0112447 255 255 0
0.0319531 0.0494117 0.0112438 255 255 0
-0.0138668 0.0514880 0.0112373 255 255 0
-0.0117754 0.0514902 0.0112416 255 255 0
-0.0096881 0.0515037 0.0112444 255 255 0
-0.0076024 0.0515041 0.0112453 255 255 0
-0.0055192 0.0515044 0.0112461 255 255 0
-0.0034379 0.0515045 0.0112465 255 255 0
-0.0013571 0.0515046 0.0112469 255 255 0
0.0007228 0.0515047 0.0112471 255 255 0
0.0028023 0.0515047 0.0112473 255 255 0
0.0048825 0.0515047 0.0112473 255 255 0
0.0069619 0.0515047 0.0112474 255 255 0
0.0090414 0.0515047 0.0112474 255 255 0
0.0111207 0.0515047 0.0112474 255 255 0
0.0132001 0.0515047 0.0112473 255 255 0
0.0152795 0.0515047 0.0112471 255 255 0
0.0173590 0.0515047 0.0112470 255 255 0
0.0194385 0.0515047 0.0112468 255 255 0
0.0215179 0.0515048 0.0112466 255 255 0
0.0236045 0.0515047 0.0112462 255 255 0
0.0256842 0.0515047 0.0112458 255 255 0
0.0277712 0.0515046 0.0112452 255 255 0
0.0298582 0.0515044 0.0112445 255 255 0
0.0319487 0.0515011 0.0112440 255 255 0
-0.0138623 0.0535693 0.0112382 255 255 0
-0.0117726 0.0535756 0.0112418 255 255 0
-0.0096848 0.0535838 0.0112441 255 255 0
-0.0076014 0.0535841 0.0112450 255 255 0
-0.0055182 0.0535846 0.0112457 255 255 0
-0.0034377 0.0535848 0.0112461 255 255 0
-0.0013571 0.0535849 0.0112465 255 255 0
0.0007228 0.0535849 0.0112466 255 255 0
0.0028023 0.0535849 0.0112467 255 255 0
0.0048826 0.0535849 0.0112468 255 255 0
0.0069620 0.0535849 0.0112468 255 255 0
0.0090413 0.0535849 0.0112468 255 255 0
0.0111208 0.0535849 0.0112468 255 255 0
0.0132002 0.0535849 0.0112468 255 255 0
0.0152796 0.0535849 0.0112467 255 255 0
0.0173590 0.0535850 0.0112466 255 255 0
0.0194385 0.0535851 0.0112465 255 255 0
0.0215179 0.0535852 0.0112462 255 255 0
0.0236034 0.0535851 0.0112458 255 255 0
0.0256842 0.0535850 0.0112452 255 255 0
0.0277712 0.0535848 0.0112442 255 255 0
0.0298583 0.0535846 0.0112435 255 255 0
0.0319457 0.0535843 0.0112425 255 255 0
-0.0159519 0.0556475 0.0112334 255 255 0
-0.0138583 0.0556503 0.0112388 255 255 0
-0.0117712 0.0556638 0.0112416 255 255 0
-0.0096847 0.0556645 0.0112437 255 255 0
-0.0076009 0.0556647 0.0112447 255 255 0
-0.0055182 0.0556649 0.0112451 255 255 0
-0.0034370 0.0556651 0.0112452 255 255 0
-0.0013569 0.0556651 0.0112454 255 255 0
0.0007231 0.0556652 0.0112455 255 255 0
0.0028031 0.0556652 0.0112455 255 255 0
0.0048826 0.0556651 0.0112456 255 255 0
0.0069620 0.0556652 0.0112456 255 255 0
0.0090414 0.0556652 0.0112456 255 255 0
0.0111208 0.0556652 0.0112456 255 255 0
0.0132002 0.0556652 0.0112456 255 255 0
0.0152796 0.0556653 0.0112456 255 255 0
0.0173590 0.0556653 0.0112455 255 255 0
0.0194385 0.0556654 0.0112454 255 255 0
0.0215180 0.0556655 0.0112453 255 255 0
0.0235995 0.0556656 0.0112450 255 255 0
0.0256842 0.0556656 0.0112446 255 255 0
0.0277689 0.0556653 0.0112426 255 255 0
0.0298544 0.0556651 0.0112420 255 255 0
0.0319457 0.0556647 0.0112406 255 255 0
-0.0159502 0.0577309 0.0112356 255 255 0
-0.0138560 0.0577436 0.0112386 255 255 0
-0.0117689 0.0577452 0.0112408 255 255 0
-0.0096846 0.0577460 0.0112425 255 255 0
-0.0076000 0.0577464 0.0112430 255 255 0
-0.0055182 0.0577466 0.0112434 255 255 0
-0.0034369 0.0577467 0.0112435 255 255 0
-0.0013566 0.0577467 0.0112437 255 255 0
0.0007231 0.0577467 0.0112439 255 255 0
0.0028032 0.0577467 0.0112440 255 255 0
0.0048826 0.0577468 0.0112441 255 255 0
0.0069620 0.0577468 0.0112441 255 255 0
0.0090414 0.0577468 0.0112441 255 255 0
0.0111209 0.0577468 0.0112440 255 255 0
0.0132003 0.0577469 0.0112440 255 255 0
0.0152797 0.0577470 0.0112440 255 255 0
0.0173591 0.0577471 0.0112439 255 255 0
0.0194385 0.0577472 0.0112438 255 255 0
0.0215180 0.0577474 0.0112436 255 255 0
0.0235978 0.0577475 0.0112433 255 255 0
0.0256842 0.0577475 0.0112429 255 255 0
0.0277660 0.0577470 0.0112416 255 255 0
0.0298514 0.0577469 0.0112408 255 255 0
0.0319458 0.0577465 0.0112388 255 255 0
-0.0159503 0.0598261 0.0112355 255 255 0
-0.0138553 0.0598276 0.0112381 255 255 0
-0.0117681 0.0598283 0.0112397 255 255 0
-0.0096846 0.0598287 0.0112405 255 255 0
-0.0075996 0.0598289 0.0112408 255 255 0
-0.0055181 0.0598292 0.0112410 255 255 0
-0.0034369 0.0598292 0.0112411 255 255 0
-0.0013565 0.0598292 0.0112411 255 255 0
0.0007231 0.0598292 0.0112412 255 255 0
0.0028032 0.0598293 0.0112412 255 255 0
0.0048826 0.0598293 0.0112413 255 255 0
0.0069620 0.0598293 0.0112413 255 255 0
0.0090415 0.0598293 0.0112413 255 255 0
0.0111209 0.0598294 0.0112413 255 255 0
0.0132003 0.0598295 0.0112413 255 255 0
0.0152797 0.0598295 0.0112413 255 255 0
0.0173591 0.0598297 0.0112413 255 255 0
0.0194386 0.0598299 0.0112412 255 255 0
0.0215180 0.0598301 0.0112412 255 255 0
0.0235978 0.0598302 0.0112410 255 255 0
0.0256843 0.0598304 0.0112409 255 255 0
0.0277644 0.0598304 0.0112402 255 255 0
0.0298513 0.0598304 0.0112396 255 255 0
0.0319460 0.0598301 0.0112383 255 255 0
0.0340415 0.0598170 0.0112334 255 255 0
-0.0159504 0.0619118 0.0112339 255 255 0
-0.0138553 0.0619126 0.0112357 255 255 0
-0.0117684 0.0619131 0.0112364 255 255 0
-0.0096847 0.0619136 0.0112368 255 255 0
-0.0075996 0.0619138 0.0112370 255 255 0
-0.0055181 0.0619139 0.0112371 255 255 0
-0.0034368 0.0619140 0.0112371 255 255 0
-0.0013565 0.0619140 0.0112372 255 255 0
0.0007232 0.0619141 0.0112372 255 255 0
0.0028033 0.0619141 0.0112373 255 255 0
0.0048827 0.0619141 0.0112373 255 255 0
0.0069621 0.0619143 0.0112373 255 255 0
0.0090415 0.0619143 0.0112373 255 255 0
0.0111209 0.0619144 0.0112373 255 255 0
0.0132003 0.0619145 0.0112373 255 255 0
0.0152798 0.0619146 0.0112373 255 255 0
0.0173592 0.0619148 0.0112372 255 255 0
0.0194387 0.0619149 0.0112372 255 255 0
0.0215182 0.0619150 0.0112372 255 255 0
0.0235979 0.0619152 0.0112372 255 255 0
0.0256845 0.0619154 0.0112372 255 255 0
0.0277647 0.0619154 0.0112369 255 255 0
0.0298514 0.0619154 0.0112366 255 255 0
0.0319463 0.0619155 0.0112362 255 255 0
0.0340418 0.0619149 0.0112343 255 255 0
-0.0159516 0.0640247 0.0112316 255 255 0
-0.0138561 0.0640254 0.0112323 255 255 0
-0.0117691 0.0640257 0.0112327 255 255 0
-0.0096847 0.0640259 0.0112330 255 255 0
-0.0075999 0.0640260 0.0112331 255 255 0
-0.0055180 0.0640264 0.0112331 255 255 0
-0.0034368 0.0640265 0.0112332 255 255 0
-0.0013564 0.0640264 0.0112332 255 255 0
0.0007233 0.0640265 0.0112332 255 255 0
0.0028033 0.0640265 0.0112332 255 255 0
0.0048828 0.0640266 0.0112333 255 255 0
0.0069622 0.0640267 0.0112333 255 255 0
0.0090416 0.0640268 0.0112332 255 255 0
0.0111210 0.0640269 0.0112332 255 255 0
0.0132005 0.0640269 0.0112332 255 255 0
0.0152799 0.0640271 0.0112332 255 255 0
0.0173593 0.0640273 0.0112332 255 255 0
0.0194388 0.0640275 0.0112332 255 255 0
0.0215184 0.0640279 0.0112332 255 255 0
0.0236001 0.0640282 0.0112333 255 255 0
0.0256846 0.0640283 0.0112334 255 255 0
0.0277676 0.0640284 0.0112334 255 255 0
0.0298520 0.0640282 0.0112334 255 255 0
0.0319466 0.0640286 0.0112334 255 255 0
0.0340433 0.0640283 0.0112332 255 255 0
-0.0159538 0.0661124 0.0112276 255 255 0
-0.0138572 0.0661122 0.0112280 255 255 0
-0.0117704 0.0661120 0.0112283 255 255 0
-0.0096847 0.0661120 0.0112285 255 255 0
-0.0076006 0.0661120 0.0112285 255 255 0
-0.0055180 0.0661124 0.0112285 255 255 0
-0.0034367 0.0661124 0.0112285 255 255 0
-0.0013564 0.0661124 0.0112285 255 255 0
0.0007234 0.0661126 0.0112285 255 255 0
0.0028034 0.0661127 0.0112285 255 255 0
0.0048829 0.0661127 0.0112285 255 255 0
0.0069623 0.0661129 0.0112285 255 255 0
0.0090417 0.0661129 0.0112285 255 255 0
0.0111212 0.0661131 0.0112285 255 255 0
0.0132006 0.0661132 0.0112285 255 255 0
0.0152800 0.0661135 0.0112286 255 255 0
0.0173595 0.0661137 0.0112286 255 255 0
0.0194389 0.0661140 0.0112287 255 255 0
0.0215185 0.0661143 0.0112288 255 255 0
0.0236051 0.0661147 0.0112290 255 255 0
0.0256850 0.0661149 0.0112292 255 255 0
0.0277720 0.0661152 0.0112295 255 255 0
0.0298585 0.0661157 0.0112299 255 255 0
0.0319472 0.0661232 0.0112302 255 255 0
0.0340524 0.0661393 0.0112314 255 255 0
-0.0159571 0.0681995 0.0112231 255 255 0
-0.0138596 0.0681995 0.0112239 255 255 0
-0.0117718 0.0681994 0.0112242 255 255 0
-0.0096848 0.0681998 0.0112244 255 255 0
-0.0076012 0.0681999 0.0112243 255 255 0
-0.0055180 0.0681999 0.0112244 255 255 0
-0.0034367 0.0681999 0.0112243 255 255 0
-0.0013567 0.0681998 0.0112244 255 255 0
0.0007234 0.0681999 0.0112243 255 255 0
0.0028035 0.0681999 0.0112243 255 255 0
0.0048830 0.0682001 0.0112244 255 255 0
0.0069624 0.0682002 0.0112244 255 255 0
0.0090419 0.0682002 0.0112244 255 255 0
0.0111213 0.0682004 0.0112244 255 255 0
0.0132007 0.0682005 0.0112245 255 255 0
0.0152801 0.0682006 0.0112245 255 255 0
0.0173596 0.0682008 0.0112246 255 255 0
0.0194391 0.0682011 0.0112248 255 255 0
0.0215187 0.0682014 0.0112249 255 255 0
0.0236054 0.0682015 0.0112252 255 255 0
0.0256852 0.0682016 0.0112254 255 255 0
0.0277725 0.0682023 0.0112260 255 255 0
0.0298601 0.0682248 0.0112267 255 255 0
0.0319569 0.0682250 0.0112274 255 255 0
-0.0159599 0.0703097 0.0112190 255 255 0
-0.0138618 0.0703028 0.0112202 255 255 0
-0.0117733 0.0702857 0.0112206 255 255 0
-0.0096864 0.0702847 0.0112209 255 255 0
-0.0076014 0.0702845 0.0112209 255 255 0
-0.0055180 0.0702847 0.0112209 255 255 0
-0.0034374 0.0702843 0.0112207 255 255 0
-0.0013566 0.0702842 0.0112205 255 255 0
0.0007233 0.0702843 0.0112205 255 255 0
0.0028028 0.0702844 0.0112205 255 255 0
0.0048831 0.0702844 0.0112205 255 255 0
0.0069625 0.0702845 0.0112206 255 255 0
0.0090419 0.0702846 0.0112206 255 255 0
0.0111213 0.0702846 0.0112206 255 255 0
0.0132008 0.0702847 0.0112207 255 255 0
0.0152803 0.0702850 0.0112208 255 255 0
0.0173597 0.0702852 0.0112210 255 255 0
0.0194394 0.0702855 0.0112212 255 255 0
0.0215189 0.0702861 0.0112214 255 255 0
0.0236057 0.0702866 0.0112219 255 255 0
0.0256856 0.0702871 0.0112223 255 255 0
0.0277739 0.0703099 0.0112230 255 255 0
0.0298671 0.0703107 0.0112246 255 255 0
0.0319633 0.0703113 0.0112252 255 255 0
-0.0159631 0.0723950 0.0112162 255 255 0
-0.0138656 0.0723923 0.0112167 255 255 0
-0.0117756 0.0723920 0.0112171 255 255 0
-0.0096882 0.0723787 0.0112174 255 255 0
-0.0076021 0.0723743 0.0112175 255 255 0
-0.0055180 0.0723686 0.0112174 255 255 0
-0.0034375 0.0723685 0.0112173 255 255 0
-0.0013567 0.0723683 0.0112174 255 255 0
0.0007233 0.0723684 0.0112174 255 255 0
0.0028028 0.0723685 0.0112174 255 255 0
0.0048831 0.0723686 0.0112174 255 255 0
0.0069625 0.0723687 0.0112175 255 255 0
0.0090420 0.0723687 0.0112175 255 255 0
0.0111214 0.0723688 0.0112176 255 255 0
0.0132008 0.0723690 0.0112177 255 255 0
0.0152803 0.0723691 0.0112178 255 255 0
0.0173598 0.0723694 0.0112179 255 255 0
0.0194394 0.0723698 0.0112181 255 255 0
0.0215210 0.0723763 0.0112183 255 255 0
0.0236060 0.0723924 0.0112189 255 255 0
0.0256886 0.0723924 0.0112194 255 255 0
0.0277799 0.0723928 0.0112199 255 255 0
0.0298715 0.0723938 0.0112219 255 255 0
0.0319701 0.0723952 0.0112233 255 255 0
-0.0138705 0.0744758 0.0112149 255 255 0
-0.0117784 0.0744750 0.0112154 255 255 0
-0.0096886 0.0744742 0.0112158 255 255 0
-0.0076031 0.0744741 0.0112157 255 255 0
-0.0055197 0.0744739 0.0112157 255 255 0
-0.0034378 0.0744734 0.0112157 255 255 0
-0.0013571 0.0744731 0.0112157 255 255 0
0.0007230 0.0744616 0.0112157 255 255 0
0.0028028 0.0744606 0.0112157 255 255 0
0.0048831 0.0744605 0.0112158 255 255 0
0.0069626 0.0744605 0.0112159 255 255 0
0.0090420 0.0744605 0.0112160 255 255 0
0.0111215 0.0744606 0.0112161 255 255 0
0.0132010 0.0744610 0.0112161 255 255 0
0.0152804 0.0744672 0.0112163 255 255 0
0.0173599 0.0744741 0.0112165 255 255 0
0.0194395 0.0744744 0.0112167 255 255 0
0.0215260 0.0744747 0.0112171 255 255 0
0.0236062 0.0744754 0.0112176 255 255 0
0.0256933 0.0744753 0.0112180 255 255 0
0.0277824 0.0744756 0.0112184 255 255 0
0.0298790 0.0744777 0.0112204 255 255 0
-0.0138757 0.0765566 0.0112136 255 255 0
-0.0117813 0.0765556 0.0112149 255 255 0
-0.0096909 0.0765549 0.0112154 255 255 0
-0.0076045 0.0765547 0.0112153 255 255 0
-0.0055200 0.0765548 0.0112153 255 255 0
-0.0034385 0.0765547 0.0112152 255 255 0
-0.0013576 0.0765540 0.0112152 255 255 0
0.0007226 0.0765540 0.0112151 255 255 0
0.0028027 0.0765541 0.0112151 255 255 0
0.0048831 0.0765540 0.0112151 255 255 0
0.0069626 0.0765541 0.0112152 255 255 0
0.0090420 0.0765540 0.0112153 255 255 0
0.0111215 0.0765541 0.0112154 255 255 0
0.0132010 0.0765544 0.0112156 255 255 0
0.0152805 0.0765546 0.0112158 255 255 0
0.0173600 0.0765547 0.0112160 255 255 0
0.0194415 0.0765549 0.0112163 255 255 0
0.0215264 0.0765552 0.0112166 255 255 0
0.0236078 0.0765561 0.0112171 255 255 0
0.0256938 0.0765565 0.0112176 255 255 0
0.0277882 0.0765572 0.0112181 255 255 0
0.0298868 0.0765597 0.0112192 255 255 0
-0.0138791 0.0786399 0.0112142 255 255 0
-0.0117846 0.0786393 0.0112155 255 255 0
-0.0096925 0.0786380 0.0112158 255 255 0
-0.0076060 0.0786374 0.0112155 255 255 0
-0.0055217 0.0786370 0.0112153 255 255 0
-0.0034398 0.0786363 0.0112151 255 255 0
-0.0013586 0.0786359 0.0112150 255 255 0
0.0007218 0.0786357 0.0112149 255 255 0
0.0028018 0.0786354 0.0112149 255 255 0
0.0048813 0.0786355 0.0112150 255 255 0
0.0069625 0.0786353 0.0112150 255 255 0
0.0090421 0.0786353 0.0112151 255 255 0
0.0111215 0.0786354 0.0112152 255 255 0
0.0132010 0.0786356 0.0112154 255 255 0
0.0152806 0.0786358 0.0112157 255 255 0
0.0173601 0.0786363 0.0112160 255 255 0
0.0194461 0.0786366 0.0112164 255 255 0
0.0215266 0.0786375 0.0112169 255 255 0
0.0236130 0.0786380 0.0112175 255 255 0
0.0256992 0.0786383 0.0112181 255 255 0
0.0277926 0.0786389 0.0112185 255 255 0
0.0298953 0.0786418 0.0112193 255 255 0
-0.0138809 0.0807406 0.0112172 255 255 0
-0.0117860 0.0807234 0.0112175 255 255 0
-0.0096956 0.0807214 0.0112175 255 255 0
-0.0076085 0.0807199 0.0112168 255 255 0
-0.0055238 0.0807182 0.0112162 255 255 0
-0.0034416 0.0807178 0.0112160 255 255 0
-0.0013602 0.0807164 0.0112158 255 255 0
0.0007205 0.0807156 0.0112155 255 255 0
0.0028009 0.0807153 0.0112154 255 255 0
0.0048812 0.0807148 0.0112154 255 255 0
0.0069625 0.0807146 0.0112154 255 255 0
0.0090420 0.0807145 0.0112155 255 255 0
0.0111215 0.0807149 0.0112157 255 255 0
0.0132010 0.0807152 0.0112160 255 255 0
0.0152838 0.0807155 0.0112163 255 255 0
0.0173602 0.0807161 0.0112169 255 255 0
0.0194471 0.0807168 0.0112175 255 255 0
0.0215269 0.0807180 0.0112180 255 255 0
0.0236143 0.0807192 0.0112187 255 255 0
0.0257021 0.0807201 0.0112192 255 255 0
0.0277977 0.0807213 0.0112198 255 255 0
-0.0138819 0.0828323 0.0112210 255 255 0
-0.0117892 0.0828292 0.0112208 255 255 0
-0.0096984 0.0828271 0.0112202 255 255 0
-0.0076120 0.0828259 0.0112190 255 255 0
-0.0055271 0.0828121 0.0112180 255 255 0
-0.0034448 0.0828014 0.0112176 255 255 0
-0.0013627 0.0827996 0.0112174 255 255 0
0.0007184 0.0827984 0.0112170 255 255 0
0.0027995 0.0827973 0.0112168 255 255 0
0.0048809 0.0827970 0.0112168 255 255 0
0.0069606 0.0827971 0.0112168 255 255 0
0.0090420 0.0827971 0.0112168 255 255 0
0.0111216 0.0827973 0.0112170 255 255 0
0.0132011 0.0827974 0.0112173 255 255 0
0.0152843 0.0827977 0.0112178 255 255 0
0.0173666 0.0827985 0.0112188 255 255 0
0.0194474 0.0827991 0.0112196 255 255 0
0.0215271 0.0828008 0.0112200 255 255 0
0.0236160 0.0828014 0.0112207 255 255 0
0.0257073 0.0828032 0.0112213 255 255 0
0.0278041 0.0828155 0.0112217 255 255 0
-0.0097023 0.0849185 0.0112236 255 255 0
-0.0076165 0.0849138 0.0112219 255 255 0
-0.0055315 0.0849111 0.0112207 255 255 0
-0.0034488 0.0849073 0.0112203 255 255 0
-0.0013664 0.0849050 0.0112200 255 255 0
0.0007153 0.0848818 0.0112195 255 255 0
0.0027971 0.0848805 0.0112192 255 255 0
0.0048790 0.0848797 0.0112191 255 255 0
0.0069605 0.0848790 0.0112190 255 255 0
0.0090420 0.0848795 0.0112190 255 255 0
0.0111216 0.0848800 0.0112192 255 255 0
0.0132043 0.0848804 0.0112196 255 255 0
0.0152845 0.0848809 0.0112202 255 255 0
0.0173679 0.0848820 0.0112219 255 255 0
0.0194478 0.0848880 0.0112232 255 255 0
0.0215335 0.0849054 0.0112235 255 255 0
0.0236212 0.0849063 0.0112237 255 255 0
0.0257109 0.0849077 0.0112245 255 255 0
0.0278082 0.0849097 0.0112248 255 255 0
-0.0034541 0.0869960 0.0112237 255 255 0
-0.0013712 0.0869908 0.0112242 255 255 0
0.0007116 0.0869879 0.0112237 255 255 0
0.0027943 0.0869853 0.0112235 255 255 0
0.0048770 0.0869839 0.0112233 255 255 0
0.0069585 0.0869838 0.0112231 255 255 0
0.0090419 0.0869842 0.0112229 255 255 0
0.0111217 0.0869848 0.0112231 255 255 0
0.0132049 0.0869855 0.0112234 255 255 0
0.0152855 0.0869865 0.0112241 255 255 0
0.0173680 0.0869877 0.0112269 255 255 0
0.0194543 0.0869882 0.0112287 255 255 0
0.0215351 0.0869903 0.0112287 255 255 0
0.0236237 0.0869919 0.0112287 255 255 0
0.0257163 0.0869972 0.0112288 255 255 0
0.0007073 0.0890894 0.0112288 255 255 0
0.0027913 0.0890725 0.0112290 255 255 0
0.0048745 0.0890704 0.0112295 255 255 0
0.0069578 0.0890702 0.0112300 255 255 0
0.0090419 0.0890717 0.0112282 255 255 0
0.0111254 0.0890724 0.0112278 255 255 0
0.0132051 0.0890733 0.0112278 255 255 0
0.0152885 0.0890779 0.0112286 255 255 0
0.0173709 0.0890827 0.0112324 255 255 0
0.0194558 0.0890918 0.0112346 255 255 0
0.0048727 0.0911786 0.0112352 255 255 0
0.0069568 0.0911782 0.0112355 255 255 0
0.0048661 0.0347476 0.0132001 255 255 0
0.0069537 0.0347508 0.0132016 255 255 0
0.0090368 0.0347513 0.0132009 255 255 0
0.0111235 0.0347487 0.0131992 255 255 0
0.0132164 0.0347443 0.0131960 255 255 0
-0.0055475 0.0368296 0.0131970 255 255 0
-0.0034551 0.0368335 0.0131996 255 255 0
-0.0013672 0.0368387 0.0132025 255 255 0
0.0007125 0.0368419 0.0132053 255 255 0
0.0027928 0.0368450 0.0132083 255 255 0
0.0048741 0.0368568 0.0132127 255 255 0
0.0069557 0.0368576 0.0132149 255 255 0
0.0090370 0.0368574 0.0132146 255 255 0
0.0111213 0.0368567 0.0132131 255 255 0
0.0132084 0.0368532 0.0132099 255 255 0
0.0152952 0.0368415 0.0132059 255 255 0
0.0173855 0.0368337 0.0132006 255 255 0
-0.0097243 0.0389177 0.0131987 255 255 0
-0.0076309 0.0389286 0.0132059 255 255 0
-0.0055399 0.0389374 0.0132114 255 255 0
-0.0034506 0.0389381 0.0132140 255 255 0
-0.0013645 0.0389426 0.0132165 255 255 0
0.0007163 0.0389484 0.0132185 255 255 0
0.0027971 0.0389523 0.0132204 255 255 0
0.0048780 0.0389532 0.0132230 255 255 0
0.0069588 0.0389535 0.0132244 255 255 0
0.0090405 0.0389534 0.0132243 255 255 0
0.0111200 0.0389530 0.0132231 255 255 0
0.0132035 0.0389521 0.0132210 255 255 0
0.0152876 0.0389485 0.0132180 255 255 0
0.0173727 0.0389365 0.0132133 255 255 0
0.0194591 0.0389313 0.0132082 255 255 0
0.0215390 0.0389198 0.0132026 255 255 0
0.0236286 0.0389119 0.0131972 255 255 0
-0.0097182 0.0410177 0.0132102 255 255 0
-0.0076250 0.0410320 0.0132164 255 255 0
-0.0055348 0.0410338 0.0132210 255 255 0
-0.0034474 0.0410344 0.0132232 255 255 0
-0.0013625 0.0410402 0.0132250 255 255 0
0.0007187 0.0410466 0.0132264 255 255 0
0.0027995 0.0410479 0.0132276 255 255 0
0.0048799 0.0410483 0.0132291 255 255 0
0.0069594 0.0410485 0.0132299 255 255 0
0.0090406 0.0410486 0.0132298 255 255 0
0.0111200 0.0410483 0.0132291 255 255 0
0.0132030 0.0410476 0.0132278 255 255 0
0.0152825 0.0410429 0.0132255 255 255 0
0.0173656 0.0410329 0.0132223 255 255 0
0.0194461 0.0410311 0.0132182 255 255 0
0.0215317 0.0410252 0.0132146 255 255 0
0.0236176 0.0410150 0.0132099 255 255 0
0.0257020 0.0410046 0.0132030 255 255 0
0.0277998 0.0409978 0.0131977 255 255 0
-0.0118147 0.0431025 0.0132112 255 255 0
-0.0097103 0.0431128 0.0132176 255 255 0
-0.0076198 0.0431189 0.0132224 255 255 0
-0.0055314 0.0431288 0.0132261 255 255 0
-0.0034453 0.0431292 0.0132277 255 255 0
-0.0013611 0.0431295 0.0132288 255 255 0
0.0007198 0.0431296 0.0132295 255 255 0
0.0028004 0.0431297 0.0132302 255 255 0
0.0048799 0.0431299 0.0132310 255 255 0
0.0069611 0.0431299 0.0132315 255 255 0
0.0090406 0.0431299 0.0132315 255 255 0
0.0111201 0.0431298 0.0132310 255 255 0
0.0131995 0.0431294 0.0132302 255 255 0
0.0152825 0.0431289 0.0132292 255 255 0
0.0173654 0.0431281 0.0132277 255 255 0
0.0194450 0.0431271 0.0132253 255 255 0
0.0215245 0.0431157 0.0132229 255 255 0
0.0236113 0.0431119 0.0132199 255 255 0
0.0256950 0.0431104 0.0132154 255 255 0
0.0277901 0.0430984 0.0132114 255 255 0
0.0298913 0.0430914 0.0132052 255 255 0
-0.0118076 0.0451921 0.0132165 255 255 0
-0.0097044 0.0452069 0.0132221 255 255 0
-0.0076155 0.0452089 0.0132260 255 255 0
-0.0055287 0.0452099 0.0132283 255 255 0
-0.0034436 0.0452103 0.0132296 255 255 0
-0.0013601 0.0452106 0.0132305 255 255 0
0.0007206 0.0452106 0.0132312 255 255 0
0.0028012 0.0452107 0.0132317 255 255 0
0.0048816 0.0452107 0.0132322 255 255 0
0.0069611 0.0452107 0.0132324 255 255 0
0.0090406 0.0452108 0.0132324 255 255 0
0.0111200 0.0452106 0.0132321 255 255 0
0.0131995 0.0452104 0.0132317 255 255 0
0.0152790 0.0452100 0.0132310 255 255 0
0.0173584 0.0452097 0.0132301 255 255 0
0.0194449 0.0452091 0.0132287 255 255 0
0.0215245 0.0452084 0.0132277 255 255 0
0.0236042 0.0452076 0.0132259 255 255 0
0.0256909 0.0452062 0.0132230 255 255 0
0.0277844 0.0451933 0.0132204 255 255 0
0.0298787 0.0451911 0.0132151 255 255 0
0.0319877 0.0451802 0.0132115 255 255 0
-0.0118001 0.0472728 0.0132179 255 255 0
-0.0097006 0.0472885 0.0132246 255 255 0
-0.0076123 0.0472896 0.0132267 255 255 0
-0.0055260 0.0472903 0.0132289 255 255 0
-0.0034420 0.0472906 0.0132300 255 255 0
-0.0013595 0.0472909 0.0132308 255 255 0
0.0007210 0.0472910 0.0132312 255 255 0
0.0028013 0.0472930 0.0132315 255 255 0
0.0048817 0.0472959 0.0132317 255 255 0
0.0069611 0.0472970 0.0132319 255 255 0
0.0090406 0.0472970 0.0132319 255 255 0
0.0111200 0.0472954 0.0132318 255 255 0
0.0131995 0.0472909 0.0132316 255 255 0
0.0152789 0.0472907 0.0132313 255 255 0
0.0173584 0.0472906 0.0132308 255 255 0
0.0194379 0.0472901 0.0132301 255 255 0
0.0215244 0.0472898 0.0132293 255 255 0
0.0236042 0.0472893 0.0132278 255 255 0
0.0256890 0.0472888 0.0132264 255 255 0
0.0277805 0.0472886 0.0132251 255 255 0
0.0298741 0.0472852 0.0132221 255 255 0
0.0319807 0.0472752 0.0132202 255 255 0
-0.0138972 0.0493494 0.0132106 255 255 0
-0.0117942 0.0493641 0.0132191 255 255 0
-0.0096975 0.0493688 0.0132253 255 255 0
-0.0076093 0.0493700 0.0132275 255 255 0
-0.0055236 0.0493706 0.0132289 255 255 0
-0.0034408 0.0493773 0.0132297 255 255 0
-0.0013589 0.0493815 0.0132302 255 255 0
0.0007214 0.0493825 0.0132305 255 255 0
0.0028014 0.0493833 0.0132308 255 255 0
0.0048817 0.0493832 0.0132309 255 255 0
0.0069611 0.0493832 0.0132310 255 255 0
0.0090406 0.0493832 0.0132310 255 255 0
0.0111200 0.0493832 0.0132310 255 255 0
0.0131995 0.0493831 0.0132309 255 255 0
0.0152789 0.0493825 0.0132307 255 255 0
0.0173583 0.0493810 0.0132305 255 255 0
0.0194379 0.0493778 0.0132302 255 255 0
0.0215175 0.0493709 0.0132299 255 255 0
0.0236041 0.0493707 0.0132292 255 255 0
0.0256840 0.0493705 0.0132283 255 255 0
0.0277784 0.0493703 0.0132272 255 255 0
0.0298708 0.0493696 0.0132253 255 255 0
0.0319761 0.0493690 0.0132245 255 255 0
-0.0138895 0.0514337 0.0132148 255 255 0
-0.0117896 0.0514471 0.0132213 255 255 0
-0.0096947 0.0514494 0.0132261 255 255 0
-0.0076070 0.0514531 0.0132274 255 255 0
-0.0055215 0.0514614 0.0132283 255 255 0
-0.0034398 0.0514630 0.0132288 255 255 0
-0.0013585 0.0514630 0.0132292 255 255 0
0.0007217 0.0514630 0.0132295 255 255 0
0.0028014 0.0514630 0.0132297 255 255 0
0.0048817 0.0514629 0.0132298 255 255 0
0.0069611 0.0514630 0.0132299 255 255 0
0.0090406 0.0514630 0.0132299 255 255 0
0.0111201 0.0514629 0.0132299 255 255 0
0.0131995 0.0514630 0.0132298 255 255 0
0.0152789 0.0514630 0.0132297 255 255 0
0.0173584 0.0514632 0.0132296 255 255 0
0.0194379 0.0514633 0.0132294 255 255 0
0.0215175 0.0514633 0.0132291 255 255 0
0.0236042 0.0514619 0.0132287 255 255 0
0.0256838 0.0514586 0.0132281 255 255 0
0.0277784 0.0514510 0.0132272 255 255 0
0.0298687 0.0514505 0.0132262 255 255 0
0.0319753 0.0514503 0.0132246 255 255 0
-0.0138815 0.0535255 0.0132171 255 255 0
-0.0117853 0.0535282 0.0132222 255 255 0
-0.0096932 0.0535387 0.0132256 255 255 0
-0.0076054 0.0535428 0.0132265 255 255 0
-0.0055208 0.0535432 0.0132272 255 255 0
-0.0034389 0.0535434 0.0132276 255 255 0
-0.0013581 0.0535435 0.0132279 255 255 0
0.0007219 0.0535435 0.0132282 255 255 0
0.0028014 0.0535434 0.0132284 255 255 0
0.0048817 0.0535434 0.0132285 255 255 0
0.0069612 0.0535435 0.0132286 255 255 0
0.0090406 0.0535434 0.0132286 255 255 0
0.0111200 0.0535435 0.0132286 255 255 0
0.0131995 0.0535435 0.0132285 255 255 0
0.0152789 0.0535435 0.0132283 255 255 0
0.0173584 0.0535436 0.0132282 255 255 0
0.0194379 0.0535438 0.0132280 255 255 0
0.0215174 0.0535440 0.0132278 255 255 0
0.0236041 0.0535440 0.0132274 255 255 0
0.0256839 0.0535439 0.0132268 255 255 0
0.0277757 0.0535415 0.0132254 255 255 0
0.0298667 0.0535384 0.0132246 255 255 0
0.0319731 0.0535308 0.0132228 255 255 0
-0.0159797 0.0555923 0.0132090 255 255 0
-0.0138734 0.0556071 0.0132169 255 255 0
-0.0117811 0.0556097 0.0132217 255 255 0
-0.0096910 0.0556233 0.0132254 255 255 0
-0.0076044 0.0556238 0.0132264 255 255 0
-0.0055196 0.0556242 0.0132271 255 255 0
-0.0034388 0.0556243 0.0132274 255 255 0
-0.0013580 0.0556243 0.0132277 255 255 0
0.0007220 0.0556243 0.0132279 255 255 0
0.0028015 0.0556243 0.0132280 255 255 0
0.0048817 0.0556242 0.0132281 255 255 0
0.0069612 0.0556243 0.0132281 255 255 0
0.0090407 0.0556243 0.0132281 255 255 0
0.0111201 0.0556243 0.0132281 255 255 0
0.0131995 0.0556244 0.0132281 255 255 0
0.0152790 0.0556245 0.0132280 255 255 0
0.0173584 0.0556247 0.0132279 255 255 0
0.0194380 0.0556249 0.0132276 255 255 0
0.0215175 0.0556252 0.0132275 255 255 0
0.0236042 0.0556253 0.0132268 255 255 0
0.0256839 0.0556253 0.0132261 255 255 0
0.0277727 0.0556240 0.0132223 255 255 0
0.0298643 0.0556205 0.0132214 255 255 0
0.0319669 0.0556113 0.0132184 255 255 0
-0.0159760 0.0576892 0.0132130 255 255 0
-0.0138685 0.0576913 0.0132170 255 255 0
-0.0117784 0.0577022 0.0132209 255 255 0
-0.0096899 0.0577064 0.0132230 255 255 0
-0.0076037 0.0577071 0.0132235 255 255 0
-0.0055192 0.0577074 0.0132241 255 255 0
-0.0034384 0.0577074 0.0132245 255 255 0
-0.0013579 0.0577074 0.0132248 255 255 0
0.0007222 0.0577074 0.0132249 255 255 0
0.0028020 0.0577074 0.0132250 255 255 0
0.0048818 0.0577074 0.0132251 255 255 0
0.0069612 0.0577075 0.0132252 255 255 0
0.0090407 0.0577075 0.0132252 255 255 0
0.0111201 0.0577076 0.0132253 255 255 0
0.0131996 0.0577077 0.0132253 255 255 0
0.0152790 0.0577078 0.0132253 255 255 0
0.0173585 0.0577081 0.0132252 255 255 0
0.0194380 0.0577083 0.0132250 255 255 0
0.0215176 0.0577086 0.0132248 255 255 0
0.0236042 0.0577087 0.0132239 255 255 0
0.0256840 0.0577089 0.0132234 255 255 0
0.0277714 0.0577078 0.0132206 255 255 0
0.0298609 0.0577055 0.0132194 255 255 0
0.0319619 0.0576952 0.0132157 255 255 0
-0.0159749 0.0597765 0.0132138 255 255 0
-0.0138673 0.0597814 0.0132167 255 255 0
-0.0117780 0.0597913 0.0132187 255 255 0
-0.0096897 0.0597923 0.0132199 255 255 0
-0.0076034 0.0597925 0.0132205 255 255 0
-0.0055192 0.0597927 0.0132209 255 255 0
-0.0034381 0.0597929 0.0132211 255 255 0
-0.0013578 0.0597929 0.0132213 255 255 0
0.0007223 0.0597930 0.0132214 255 255 0
0.0028023 0.0597930 0.0132215 255 255 0
0.0048819 0.0597930 0.0132216 255 255 0
0.0069613 0.0597931 0.0132218 255 255 0
0.0090408 0.0597932 0.0132218 255 255 0
0.0111202 0.0597933 0.0132217 255 255 0
0.0131997 0.0597935 0.0132217 255 255 0
0.0152791 0.0597937 0.0132217 255 255 0
0.0173587 0.0597941 0.0132216 255 255 0
0.0194382 0.0597944 0.0132215 255 255 0
0.0215177 0.0597948 0.0132215 255 255 0
0.0236043 0.0597950 0.0132210 255 255 0
0.0256841 0.0597952 0.0132206 255 255 0
0.0277715 0.0597949 0.0132189 255 255 0
0.0298588 0.0597935 0.0132178 255 255 0
0.0319615 0.0597845 0.0132158 255 255 0
0.0340771 0.0597785 0.0132035 255 255 0
-0.0159760 0.0618700 0.0132113 255 255 0
-0.0138672 0.0618720 0.0132129 255 255 0
-0.0117781 0.0618752 0.0132145 255 255 0
-0.0096896 0.0618786 0.0132154 255 255 0
-0.0076034 0.0618799 0.0132157 255 255 0
-0.0055191 0.0618807 0.0132160 255 255 0
-0.0034380 0.0618811 0.0132161 255 255 0
-0.0013577 0.0618813 0.0132162 255 255 0
0.0007224 0.0618810 0.0132164 255 255 0
0.0028024 0.0618809 0.0132165 255 255 0
0.0048820 0.0618812 0.0132166 255 255 0
0.0069615 0.0618815 0.0132166 255 255 0
0.0090409 0.0618814 0.0132166 255 255 0
0.0111203 0.0618814 0.0132166 255 255 0
0.0131998 0.0618815 0.0132165 255 255 0
0.0152793 0.0618818 0.0132165 255 255 0
0.0173588 0.0618827 0.0132165 255 255 0
0.0194383 0.0618836 0.0132164 255 255 0
0.0215178 0.0618846 0.0132165 255 255 0
0.0236045 0.0618848 0.0132164 255 255 0
0.0256843 0.0618855 0.0132162 255 255 0
0.0277717 0.0618820 0.0132152 255 255 0
0.0298590 0.0618804 0.0132141 255 255 0
0.0319618 0.0618774 0.0132129 255 255 0
0.0340751 0.0618726 0.0132079 255 255 0
-0.0159795 0.0640002 0.0132065 255 255 0
-0.0138684 0.0640007 0.0132075 255 255 0
-0.0117787 0.0640008 0.0132081 255 255 0
-0.0096903 0.0640009 0.0132086 255 255 0
-0.0076041 0.0640011 0.0132087 255 255 0
-0.0055189 0.0640013 0.0132087 255 255 0
-0.0034384 0.0640014 0.0132087 255 255 0
-0.0013576 0.0640015 0.0132087 255 255 0
0.0007225 0.0640016 0.0132088 255 255 0
0.0028026 0.0640018 0.0132088 255 255 0
0.0048822 0.0640020 0.0132089 255 255 0
0.0069616 0.0640021 0.0132089 255 255 0
0.0090411 0.0640023 0.0132089 255 255 0
0.0111206 0.0640026 0.0132088 255 255 0
0.0132000 0.0640029 0.0132088 255 255 0
0.0152795 0.0640033 0.0132088 255 255 0
0.0173589 0.0640038 0.0132088 255 255 0
0.0194385 0.0640042 0.0132089 255 255 0
0.0215181 0.0640048 0.0132090 255 255 0
0.0236048 0.0640054 0.0132091 255 255 0
0.0256847 0.0640059 0.0132091 255 255 0
0.0277722 0.0640065 0.0132091 255 255 0
0.0298601 0.0640068 0.0132091 255 255 0
0.0319627 0.0640072 0.0132089 255 255 0
0.0340791 0.0640077 0.0132071 255 255 0
-0.0159826 0.0660955 0.0131999 255 255 0
-0.0138709 0.0660956 0.0132003 255 255 0
-0.0117800 0.0660957 0.0132007 255 255 0
-0.0096911 0.0660956 0.0132009 255 255 0
-0.0076041 0.0660958 0.0132010 255 255 0
-0.0055188 0.0660960 0.0132010 255 255 0
-0.0034383 0.0660960 0.0132011 255 255 0
-0.0013574 0.0660962 0.0132011 255 255 0
0.0007226 0.0660962 0.0132012 255 255 0
0.0028026 0.0660965 0.0132012 255 255 0
0.0048823 0.0660967 0.0132013 255 255 0
0.0069618 0.0660970 0.0132013 255 255 0
0.0090413 0.0660972 0.0132013 255 255 0
0.0111208 0.0660974 0.0132012 255 255 0
0.0132002 0.0660977 0.0132013 255 255 0
0.0152797 0.0660981 0.0132013 255 255 0
0.0173592 0.0660986 0.0132013 255 255 0
0.0194388 0.0660990 0.0132014 255 255 0
0.0215184 0.0660997 0.0132015 255 255 0
0.0236052 0.0661002 0.0132018 255 255 0
0.0256850 0.0661010 0.0132021 255 255 0
0.0277748 0.0661014 0.0132026 255 255 0
0.0298666 0.0661021 0.0132030 255 255 0
0.0319690 0.0661030 0.0132028 255 255 0
0.0340923 0.0661266 0.0132052 255 255 0
-0.0159876 0.0681903 0.0131917 255 255 0
-0.0138738 0.0681899 0.0131921 255 255 0
-0.0117821 0.0681897 0.0131927 255 255 0
-0.0096927 0.0681896 0.0131932 255 255 0
-0.0076046 0.0681898 0.0131934 255 255 0
-0.0055190 0.0681898 0.0131935 255 255 0
-0.0034382 0.0681896 0.0131936 255 255 0
-0.0013573 0.0681898 0.0131936 255 255 0
0.0007227 0.0681898 0.0131936 255 255 0
0.0028025 0.0681896 0.0131937 255 255 0
0.0048826 0.0681899 0.0131937 255 255 0
0.0069620 0.0681901 0.0131937 255 255 0
0.0090415 0.0681902 0.0131936 255 255 0
0.0111210 0.0681904 0.0131936 255 255 0
0.0132005 0.0681907 0.0131935 255 255 0
0.0152800 0.0681911 0.0131935 255 255 0
0.0173595 0.0681917 0.0131934 255 255 0
0.0194391 0.0681926 0.0131936 255 255 0
0.0215188 0.0681932 0.0131938 255 255 0
0.0236057 0.0681938 0.0131942 255 255 0
0.0256858 0.0681945 0.0131946 255 255 0
0.0277805 0.0681950 0.0131955 255 255 0
0.0298723 0.0681962 0.0131967 255 255 0
0.0319821 0.0682110 0.0131972 255 255 0
-0.0159925 0.0702975 0.0131860 255 255 0
-0.0138786 0.0702837 0.0131861 255 255 0
-0.0117847 0.0702823 0.0131866 255 255 0
-0.0096940 0.0702817 0.0131873 255 255 0
-0.0076054 0.0702813 0.0131877 255 255 0
-0.0055201 0.0702813 0.0131878 255 255 0
-0.0034381 0.0702810 0.0131878 255 255 0
-0.0013572 0.0702810 0.0131879 255 255 0
0.0007228 0.0702812 0.0131880 255 255 0
0.0028024 0.0702813 0.0131881 255 255 0
0.0048827 0.0702814 0.0131882 255 255 0
0.0069622 0.0702816 0.0131883 255 255 0
0.0090417 0.0702816 0.0131881 255 255 0
0.0111211 0.0702817 0.0131880 255 255 0
0.0132006 0.0702819 0.0131880 255 255 0
0.0152801 0.0702824 0.0131879 255 255 0
0.0173596 0.0702829 0.0131881 255 255 0
0.0194393 0.0702835 0.0131881 255 255 0
0.0215205 0.0702841 0.0131881 255 255 0
0.0236060 0.0702849 0.0131885 255 255 0
0.0256921 0.0702851 0.0131888 255 255 0
0.0277841 0.0702860 0.0131896 255 255 0
0.0298812 0.0703098 0.0131906 255 255 0
0.0319937 0.0703117 0.0131917 255 255 0
-0.0159994 0.0723997 0.0131809 255 255 0
-0.0138855 0.0723962 0.0131817 255 255 0
-0.0117885 0.0723764 0.0131823 255 255 0
-0.0096952 0.0723699 0.0131827 255 255 0
-0.0076064 0.0723697 0.0131829 255 255 0
-0.0055204 0.0723694 0.0131829 255 255 0
-0.0034383 0.0723690 0.0131830 255 255 0
-0.0013576 0.0723688 0.0131830 255 255 0
0.0007227 0.0723688 0.0131830 255 255 0
0.0028024 0.0723687 0.0131830 255 255 0
0.0048828 0.0723687 0.0131830 255 255 0
0.0069623 0.0723687 0.0131830 255 255 0
0.0090418 0.0723690 0.0131830 255 255 0
0.0111213 0.0723694 0.0131830 255 255 0
0.0132008 0.0723696 0.0131831 255 255 0
0.0152803 0.0723700 0.0131832 255 255 0
0.0173599 0.0723706 0.0131832 255 255 0
0.0194396 0.0723711 0.0131835 255 255 0
0.0215262 0.0723718 0.0131836 255 255 0
0.0236067 0.0723729 0.0131842 255 255 0
0.0256937 0.0723729 0.0131848 255 255 0
0.0277912 0.0723844 0.0131850 255 255 0
0.0298923 0.0723999 0.0131872 255 255 0
0.0320082 0.0724023 0.0131887 255 255 0
-0.0138945 0.0744819 0.0131777 255 255 0
-0.0117935 0.0744796 0.0131794 255 255 0
-0.0096978 0.0744634 0.0131799 255 255 0
-0.0076079 0.0744554 0.0131797 255 255 0
-0.0055207 0.0744549 0.0131795 255 255 0
-0.0034391 0.0744544 0.0131794 255 255 0
-0.0013580 0.0744543 0.0131793 255 255 0
