ply
format ascii 1.0
element vertex 1139
property float x
property float y
property float z
property uchar red
property uchar green
property uchar blue
end_header
-0.0409704 0.0550421 -0.1323632 255 131 0
-0.0388846 0.0550579 -0.1323818 255 128 0
-0.0367891 0.0550941 -0.1324213 255 123 0
-0.0784881 0.0570181 -0.1322002 255 147 0
-0.0764016 0.0571036 -0.1322463 255 140 0
-0.0743072 0.0571123 -0.1322881 255 135 0
-0.0722157 0.0571171 -0.1323179 255 131 0
-0.0701260 0.0571158 -0.1323264 255 128 0
-0.0680381 0.0571151 -0.1323332 255 127 0
-0.0659552 0.0571133 -0.1323401 255 125 0
-0.0638687 0.0571140 -0.1323432 255 123 0
-0.0617858 0.0571203 -0.1323419 255 122 0
-0.0597027 0.0571248 -0.1323401 255 121 1
-0.0576194 0.0571232 -0.1323307 255 121 1
-0.0555367 0.0571228 -0.1323245 255 121 1
-0.0534551 0.0571216 -0.1323175 255 121 1
-0.0513738 0.0571207 -0.1323140 255 121 1
-0.0492930 0.0571170 -0.1323114 255 120 1
-0.0472123 0.0571135 -0.1323075 255 120 1
-0.0451334 0.0571119 -0.1323025 255 119 1
-0.0430513 0.0571161 -0.1323059 255 118 1
-0.0409704 0.0571191 -0.1323095 255 117 2
-0.0388833 0.0571361 -0.1323307 255 114 2
-0.0367890 0.0571743 -0.1323770 255 108 3
-0.0784969 0.0591581 -0.1321846 255 126 0
-0.0764160 0.0592872 -0.1322515 255 117 1
-0.0743146 0.0592597 -0.1323034 255 111 3
-0.0722171 0.0592395 -0.1323405 255 106 4
-0.0701279 0.0592300 -0.1323496 255 104 4
-0.0680393 0.0592256 -0.1323558 255 102 5
-0.0659552 0.0592197 -0.1323584 255 101 5
-0.0638686 0.0592178 -0.1323592 255 99 5
-0.0617849 0.0592259 -0.1323584 255 98 5
-0.0597014 0.0592305 -0.1323549 255 98 5
-0.0576180 0.0592285 -0.1323491 255 98 5
-0.0555354 0.0592269 -0.1323444 255 99 5
-0.0534537 0.0592257 -0.1323416 255 99 5
-0.0513725 0.0592233 -0.1323380 255 99 5
-0.0492918 0.0592175 -0.1323357 255 99 5
-0.0472111 0.0592151 -0.1323354 255 99 5
-0.0451332 0.0592125 -0.1323309 255 100 5
-0.0430514 0.0592190 -0.1323382 255 99 5
-0.0409677 0.0592244 -0.1323449 255 98 5
-0.0388783 0.0592459 -0.1323697 255 95 6
-0.0367849 0.0592881 -0.1324217 255 89 7
-0.0743246 0.0614724 -0.1322888 255 104 4
-0.0722246 0.0614298 -0.1323163 255 101 5
-0.0701359 0.0613933 -0.1323222 255 100 5
-0.0680473 0.0613708 -0.1323250 255 99 5
-0.0659581 0.0613681 -0.1323237 255 99 5
-0.0638729 0.0613665 -0.1323217 255 99 5
-0.0617874 0.0613702 -0.1323184 255 98 5
-0.0597023 0.0613705 -0.1323134 255 99 5
-0.0576188 0.0613655 -0.1323075 255 99 5
-0.0555361 0.0613599 -0.1323017 255 100 5
-0.0534543 0.0613564 -0.1322977 255 100 5
-0.0513731 0.0613506 -0.1322937 255 101 5
-0.0492925 0.0613411 -0.1322884 255 101 5
-0.0472119 0.0613370 -0.1322864 255 101 5
-0.0451341 0.0613342 -0.1322805 255 102 5
-0.0430513 0.0613421 -0.1322882 255 101 5
-0.0409658 0.0613508 -0.1322981 255 100 5
-0.0388743 0.0613771 -0.1323254 255 97 5
-0.0722395 0.0636850 -0.1322140 255 109 3
-0.0701446 0.0636760 -0.1322090 255 109 3
-0.0680523 0.0636742 -0.1322004 255 110 3
-0.0659624 0.0636752 -0.1321917 255 111 3
-0.0638735 0.0636801 -0.1321843 255 112 3
-0.0617882 0.0636944 -0.1321784 255 112 2
-0.0597029 0.0636978 -0.1321738 255 113 2
-0.0576185 0.0636803 -0.1321647 255 114 2
-0.0555345 0.0636688 -0.1321610 255 114 2
-0.0534526 0.0636652 -0.1321544 255 115 2
-0.0513714 0.0636626 -0.1321511 255 115 2
-0.0492920 0.0636508 -0.1321436 255 116 2
-0.0472115 0.0636478 -0.1321435 255 116 2
-0.0451316 0.0636459 -0.1321380 255 116 2
-0.0430471 0.0636568 -0.1321494 255 115 2
-0.0409590 0.0636710 -0.1321728 255 113 2
-0.0680660 0.0658936 -0.1320394 255 127 0
-0.0659726 0.0659171 -0.1320355 255 127 0
-0.0638802 0.0659335 -0.1320361 255 127 0
-0.0617917 0.0659270 -0.1320401 255 126 0
-0.0597051 0.0659214 -0.1320436 255 126 0
-0.0576184 0.0659210 -0.1320380 255 127 0
-0.0555346 0.0659218 -0.1320357 255 127 0
-0.0534527 0.0659228 -0.1320299 255 127 0
-0.0513712 0.0659245 -0.1320292 255 128 0
-0.0492931 0.0659169 -0.1320232 255 128 0
-0.0472120 0.0659174 -0.1320249 255 128 0
-0.0451301 0.0659214 -0.1320242 255 128 0
-0.0430442 0.0659367 -0.1320405 255 126 0
-0.0409538 0.0659605 -0.1320737 255 123 0
-0.0659921 0.0681942 -0.1319772 255 255 0
-0.0638901 0.0682433 -0.1320021 255 255 0
-0.0617965 0.0682081 -0.1320229 255 255 0
-0.0597064 0.0681915 -0.1320403 255 255 0
-0.0576165 0.0682110 -0.1320404 255 255 0
-0.0555310 0.0682366 -0.1320368 255 255 0
-0.0534499 0.0682434 -0.1320347 255 255 0
-0.0513688 0.0682509 -0.1320349 255 255 0
-0.0492907 0.0682536 -0.1320328 255 255 0
-0.0472086 0.0682588 -0.1320360 255 255 0
-0.0451264 0.0682667 -0.1320370 255 255 0
-0.0430387 0.0682835 -0.1320536 255 255 0
-0.0617573 0.0391478 -0.1313969 255 255 0
-0.0596696 0.0391822 -0.1314379 255 255 0
-0.0575860 0.0392215 -0.1314911 255 255 0
-0.0555014 0.0392525 -0.1315307 255 255 0
-0.0534156 0.0392743 -0.1315573 255 255 0
-0.0513313 0.0392919 -0.1315773 255 255 0
-0.0492509 0.0393019 -0.1315887 255 255 0
-0.0471683 0.0393136 -0.1316034 255 255 0
-0.0680071 0.0412343 -0.1314106 255 255 0
-0.0659222 0.0412424 -0.1314217 255 255 0
-0.0638366 0.0412559 -0.1314376 255 255 0
-0.0617521 0.0412790 -0.1314628 255 255 0
-0.0596676 0.0412999 -0.1314850 255 255 0
-0.0575848 0.0413189 -0.1315063 255 255 0
-0.0555009 0.0413348 -0.1315233 255 255 0
-0.0534171 0.0413478 -0.1315363 255 255 0
-0.0513354 0.0413576 -0.1315454 255 255 0
-0.0492547 0.0413618 -0.1315484 255 255 0
-0.0471723 0.0413682 -0.1315563 255 255 0
-0.0450918 0.0413722 -0.1315609 255 255 0
-0.0430083 0.0413864 -0.1315783 255 255 0
-0.0409205 0.0414071 -0.1316048 255 255 0
-0.0388295 0.0414384 -0.1316430 255 255 0
-0.0367330 0.0414925 -0.1317128 255 255 0
-0.0742625 0.0431732 -0.1311955 255 255 0
-0.0721725 0.0432700 -0.1313363 255 255 0
-0.0700848 0.0433274 -0.1314220 255 255 0
-0.0680013 0.0433652 -0.1314790 255 255 0
-0.0659159 0.0433767 -0.1314938 255 255 0
-0.0638316 0.0433885 -0.1315077 255 255 0
-0.0617487 0.0434022 -0.1315207 255 255 0
-0.0596651 0.0434139 -0.1315309 255 255 0
-0.0575828 0.0434236 -0.1315384 255 255 0
-0.0555009 0.0434310 -0.1315439 255 255 0
-0.0534177 0.0434371 -0.1315428 255 255 0
-0.0513363 0.0434416 -0.1315434 255 255 0
-0.0492557 0.0434423 -0.1315398 255 255 0
-0.0471749 0.0434448 -0.1315412 255 255 0
-0.0450947 0.0434453 -0.1315380 255 255 0
-0.0430115 0.0434571 -0.1315520 255 255 0
-0.0409254 0.0434756 -0.1315765 255 255 0
-0.0388349 0.0435066 -0.1316206 255 255 0
-0.0367395 0.0435649 -0.1316946 255 255 0
-0.0763591 0.0452506 -0.1311733 255 255 0
-0.0742631 0.0452699 -0.1312256 255 255 0
-0.0721686 0.0453827 -0.1313720 255 255 0
-0.0700835 0.0454293 -0.1314406 255 255 0
-0.0679976 0.0454612 -0.1314847 255 255 0
-0.0659123 0.0454723 -0.1315004 255 255 0
-0.0638300 0.0454821 -0.1315116 255 255 0
-0.0617464 0.0454899 -0.1315185 255 255 0
-0.0596643 0.0454973 -0.1315234 255 255 0
-0.0575822 0.0455042 -0.1315264 255 255 0
-0.0555005 0.0455095 -0.1315280 255 255 0
-0.0534177 0.0455137 -0.1315256 255 255 0
-0.0513368 0.0455163 -0.1315250 255 255 0
-0.0492563 0.0455170 -0.1315214 255 255 0
-0.0471757 0.0455195 -0.1315223 255 255 0
-0.0450957 0.0455189 -0.1315171 255 255 0
-0.0430135 0.0455306 -0.1315305 255 255 0
-0.0409288 0.0455471 -0.1315518 255 255 0
-0.0388379 0.0455797 -0.1315933 255 255 0
-0.0367442 0.0456468 -0.1316822 255 255 0
-0.0763570 0.0473506 -0.1311794 255 255 0
-0.0742586 0.0474260 -0.1313083 255 255 0
-0.0721675 0.0475001 -0.1314100 255 255 0
-0.0700800 0.0475356 -0.1314627 255 255 0
-0.0679965 0.0475601 -0.1314992 255 255 0
-0.0659113 0.0475687 -0.1315112 255 255 0
-0.0638294 0.0475764 -0.1315204 255 255 0
-0.0617455 0.0475812 -0.1315250 255 255 0
-0.0596635 0.0475862 -0.1315280 255 255 0
-0.0575802 0.0475921 -0.1315297 255 255 0
-0.0554987 0.0475962 -0.1315302 255 255 0
-0.0534178 0.0475982 -0.1315286 255 255 0
-0.0513371 0.0475995 -0.1315271 255 255 0
-0.0492566 0.0475999 -0.1315255 255 255 0
-0.0471759 0.0476016 -0.1315251 255 255 0
-0.0450968 0.0476011 -0.1315193 255 255 0
-0.0430146 0.0476111 -0.1315302 255 255 0
-0.0409296 0.0476225 -0.1315439 255 255 0
-0.0388424 0.0476517 -0.1315835 255 255 0
-0.0367473 0.0477131 -0.1316703 255 255 0
-0.0763550 0.0494271 -0.1311650 255 255 0
-0.0742591 0.0495283 -0.1313291 255 255 0
-0.0721682 0.0495902 -0.1314133 255 255 0
-0.0700807 0.0496178 -0.1314525 255 255 0
-0.0679940 0.0496374 -0.1314795 255 255 0
-0.0659119 0.0496445 -0.1314911 255 255 0
-0.0638290 0.0496505 -0.1314985 255 255 0
-0.0617464 0.0496536 -0.1315008 255 255 0
-0.0596629 0.0496570 -0.1315026 255 255 0
-0.0575809 0.0496633 -0.1315033 255 255 0
-0.0554994 0.0496676 -0.1315033 255 255 0
-0.0534183 0.0496688 -0.1315010 255 255 0
-0.0513376 0.0496698 -0.1314988 255 255 0
-0.0492571 0.0496702 -0.1314979 255 255 0
-0.0471765 0.0496720 -0.1314975 255 255 0
-0.0450974 0.0496723 -0.1314932 255 255 0
-0.0430153 0.0496811 -0.1315009 255 255 0
-0.0409326 0.0496882 -0.1315089 255 255 0
-0.0388458 0.0497142 -0.1315428 255 255 0
-0.0367524 0.0497693 -0.1316193 255 255 0
-0.0346563 0.0498222 -0.1316907 255 252 0
-0.0784448 0.0515272 -0.1311844 255 255 0
-0.0763511 0.0515308 -0.1311963 255 255 0
-0.0742584 0.0516423 -0.1313638 255 255 0
-0.0721679 0.0516938 -0.1314366 255 255 0
-0.0700804 0.0517149 -0.1314691 255 255 0
-0.0679935 0.0517302 -0.1314920 255 255 0
-0.0659117 0.0517360 -0.1315011 255 255 0
-0.0638266 0.0517409 -0.1315073 255 255 0
-0.0617447 0.0517442 -0.1315095 255 255 0
-0.0596628 0.0517480 -0.1315109 255 255 0
-0.0575808 0.0517540 -0.1315106 255 255 0
-0.0554993 0.0517577 -0.1315096 255 255 0
-0.0534183 0.0517578 -0.1315065 255 255 0
-0.0513375 0.0517581 -0.1315040 255 255 0
-0.0492570 0.0517577 -0.1315028 255 255 0
-0.0471765 0.0517583 -0.1315009 255 255 0
-0.0450970 0.0517590 -0.1314955 255 255 0
-0.0430155 0.0517658 -0.1315004 255 254 0
-0.0409349 0.0517688 -0.1315043 255 253 0
-0.0388483 0.0517906 -0.1315343 255 249 0
-0.0367552 0.0518341 -0.1315961 255 241 0
-0.0346592 0.0518804 -0.1316611 255 233 0
-0.0784456 0.0536124 -0.1311908 255 255 0
-0.0763504 0.0536793 -0.1312880 255 255 0
-0.0742580 0.0537447 -0.1313783 255 255 0
-0.0721681 0.0537897 -0.1314430 255 254 0
-0.0700807 0.0538072 -0.1314707 255 250 0
-0.0679937 0.0538195 -0.1314902 255 247 0
-0.0659120 0.0538234 -0.1314988 255 245 0
-0.0638266 0.0538269 -0.1315043 255 243 0
-0.0617448 0.0538313 -0.1315061 255 241 0
-0.0596628 0.0538343 -0.1315059 255 240 0
-0.0575808 0.0538372 -0.1315033 255 240 0
-0.0554993 0.0538390 -0.1315010 255 239 0
-0.0534182 0.0538384 -0.1314978 255 238 0
-0.0513374 0.0538382 -0.1314942 255 237 0
-0.0492569 0.0538383 -0.1314938 255 236 0
-0.0471765 0.0538386 -0.1314924 255 235 0
-0.0450969 0.0538383 -0.1314868 255 235 0
-0.0430156 0.0538440 -0.1314912 255 233 0
-0.0409353 0.0538458 -0.1314921 255 232 0
-0.0388489 0.0538665 -0.1315200 255 228 0
-0.0367570 0.0539105 -0.1315789 255 221 0
-0.0346614 0.0539594 -0.1316447 255 213 0
-0.0784479 0.0556751 -0.1311738 255 255 0
-0.0763512 0.0557872 -0.1313027 255 250 0
-0.0742581 0.0558461 -0.1313875 255 239 0
-0.0721685 0.0558860 -0.1314481 255 232 0
-0.0700807 0.0559014 -0.1314758 255 227 0
-0.0679938 0.0559122 -0.1314956 255 224 0
-0.0659115 0.0559154 -0.1315050 255 222 0
-0.0638261 0.0559190 -0.1315106 255 220 0
-0.0617444 0.0559246 -0.1315131 255 219 0
-0.0596628 0.0559287 -0.1315130 255 217 0
-0.0575809 0.0559290 -0.1315086 255 217 0
-0.0554992 0.0559291 -0.1315049 255 216 0
-0.0534181 0.0559284 -0.1315009 255 216 0
-0.0513373 0.0559279 -0.1314978 255 215 0
-0.0492568 0.0559272 -0.1314974 255 214 0
-0.0471764 0.0559269 -0.1314963 255 213 0
-0.0450969 0.0559257 -0.1314921 255 212 0
-0.0430152 0.0559300 -0.1314963 255 211 0
-0.0409347 0.0559317 -0.1314986 255 210 0
-0.0388484 0.0559511 -0.1315249 255 206 0
-0.0367571 0.0559928 -0.1315818 255 199 0
-0.0346621 0.0560393 -0.1316450 255 191 0
-0.0325636 0.0561031 -0.1317362 255 180 0
-0.0763537 0.0577434 -0.1312328 255 236 0
-0.0742645 0.0579315 -0.1313513 255 221 0
-0.0721716 0.0579727 -0.1314169 255 213 0
-0.0700831 0.0579857 -0.1314436 255 209 0
-0.0679956 0.0579950 -0.1314624 255 206 0
-0.0659128 0.0579970 -0.1314709 255 203 0
-0.0638271 0.0580001 -0.1314764 255 202 0
-0.0617449 0.0580066 -0.1314786 255 200 0
-0.0596627 0.0580106 -0.1314788 255 200 0
-0.0575807 0.0580108 -0.1314753 255 199 0
-0.0554992 0.0580107 -0.1314727 255 199 0
-0.0534182 0.0580110 -0.1314707 255 199 0
-0.0513375 0.0580111 -0.1314696 255 198 0
-0.0492570 0.0580098 -0.1314682 255 198 0
-0.0471766 0.0580097 -0.1314683 255 197 0
-0.0450975 0.0580084 -0.1314654 255 197 0
-0.0430156 0.0580145 -0.1314738 255 196 0
-0.0409338 0.0580186 -0.1314804 255 195 0
-0.0388475 0.0580419 -0.1315134 255 191 0
-0.0367553 0.0580881 -0.1315774 255 183 0
-0.0346605 0.0581403 -0.1316492 255 175 0
-0.0763577 0.0598476 -0.1311799 255 222 0
-0.0742703 0.0600350 -0.1313146 255 207 0
-0.0721776 0.0600852 -0.1313998 255 197 0
-0.0700870 0.0600982 -0.1314262 255 193 0
-0.0680002 0.0601075 -0.1314451 255 190 0
-0.0659136 0.0601104 -0.1314527 255 188 0
-0.0638303 0.0601141 -0.1314578 255 187 0
-0.0617462 0.0601215 -0.1314606 255 186 0
-0.0596626 0.0601262 -0.1314611 255 186 0
-0.0575803 0.0601260 -0.1314588 255 186 0
-0.0554986 0.0601258 -0.1314562 255 186 0
-0.0534178 0.0601258 -0.1314555 255 186 0
-0.0513371 0.0601251 -0.1314548 255 186 0
-0.0492568 0.0601220 -0.1314534 255 186 0
-0.0471763 0.0601208 -0.1314541 255 186 0
-0.0450974 0.0601195 -0.1314518 255 186 0
-0.0430152 0.0601260 -0.1314619 255 185 0
-0.0409314 0.0601328 -0.1314745 255 184 0
-0.0388436 0.0601575 -0.1315121 255 180 0
-0.0367515 0.0602047 -0.1315801 255 173 0
-0.0346569 0.0602549 -0.1316504 255 166 0
-0.0742801 0.0622111 -0.1312839 255 205 0
-0.0721851 0.0622452 -0.1313596 255 197 0
-0.0700939 0.0622615 -0.1313833 255 194 0
-0.0680035 0.0622735 -0.1313983 255 192 0
-0.0659179 0.0622760 -0.1313980 255 192 0
-0.0638322 0.0622788 -0.1313982 255 192 0
-0.0617477 0.0622829 -0.1313987 255 192 0
-0.0596640 0.0622853 -0.1313981 255 192 0
-0.0575811 0.0622847 -0.1313941 255 192 0
-0.0554993 0.0622833 -0.1313908 255 193 0
-0.0534181 0.0622835 -0.1313884 255 193 0
-0.0513372 0.0622827 -0.1313871 255 193 0
-0.0492570 0.0622782 -0.1313836 255 193 0
-0.0471764 0.0622771 -0.1313846 255 193 0
-0.0450964 0.0622764 -0.1313835 255 193 0
-0.0430139 0.0622867 -0.1313980 255 192 0
-0.0409277 0.0623004 -0.1314241 255 189 0
-0.0388385 0.0623321 -0.1314692 255 185 0
-0.0367445 0.0623943 -0.1315491 255 177 0
-0.0721970 0.0644208 -0.1312768 255 204 0
-0.0701050 0.0644416 -0.1313064 255 201 0
-0.0680138 0.0644607 -0.1313252 255 199 0
-0.0659232 0.0644791 -0.1313272 255 199 0
-0.0638344 0.0644944 -0.1313303 255 199 0
-0.0617509 0.0645041 -0.1313304 255 199 0
-0.0596662 0.0645087 -0.1313296 255 199 0
-0.0575813 0.0645019 -0.1313283 255 199 0
-0.0554992 0.0644976 -0.1313263 255 199 0
-0.0534178 0.0644979 -0.1313235 255 200 0
-0.0513368 0.0644976 -0.1313213 255 200 0
-0.0492572 0.0644928 -0.1313175 255 200 0
-0.0471758 0.0644920 -0.1313205 255 200 0
-0.0450952 0.0644919 -0.1313191 255 200 0
-0.0430112 0.0645043 -0.1313383 255 198 0
-0.0409235 0.0645218 -0.1313771 255 194 0
-0.0388327 0.0645531 -0.1314278 255 189 0
-0.0367377 0.0646204 -0.1315092 255 181 0
-0.0680303 0.0666526 -0.1312667 255 205 0
-0.0659358 0.0666694 -0.1312713 255 205 0
-0.0638424 0.0666982 -0.1312770 255 204 0
-0.0617539 0.0667043 -0.1312857 255 203 0
-0.0596677 0.0667075 -0.1312912 255 203 0
-0.0575822 0.0667062 -0.1312896 255 203 0
-0.0554978 0.0667053 -0.1312891 255 203 0
-0.0534166 0.0667068 -0.1312879 255 203 0
-0.0513358 0.0667085 -0.1312878 255 203 0
-0.0492564 0.0667076 -0.1312849 255 203 0
-0.0471747 0.0667120 -0.1312906 255 203 0
-0.0450938 0.0667154 -0.1312928 255 203 0
-0.0430088 0.0667328 -0.1313187 255 200 0
-0.0409187 0.0667595 -0.1313671 255 195 0
-0.0388265 0.0667989 -0.1314254 255 189 0
-0.0638543 0.0688627 -0.1312493 255 255 0
-0.0617592 0.0689110 -0.1312727 255 255 0
-0.0596687 0.0689243 -0.1312991 255 255 0
-0.0575814 0.0689098 -0.1313171 255 255 0
-0.0554971 0.0688987 -0.1313263 255 255 0
-0.0534161 0.0688955 -0.1313262 255 255 0
-0.0513354 0.0688927 -0.1313282 255 255 0
-0.0492556 0.0688892 -0.1313266 255 255 0
-0.0471743 0.0688863 -0.1313321 255 255 0
-0.0450931 0.0688854 -0.1313368 255 255 0
-0.0430065 0.0688851 -0.1313620 255 255 0
-0.0409177 0.0689151 -0.1314052 255 255 0
-0.0388239 0.0689722 -0.1314479 255 255 0
-0.0575870 0.0711181 -0.1313492 255 255 0
-0.0554992 0.0711030 -0.1313435 255 255 0
-0.0534174 0.0711015 -0.1313469 255 255 0
-0.0513352 0.0711017 -0.1313512 255 255 0
-0.0492559 0.0711040 -0.1313530 255 255 0
-0.0471732 0.0711091 -0.1313650 255 255 0
-0.0450918 0.0711150 -0.1313759 255 255 0
-0.0430054 0.0711298 -0.1314012 255 255 0
-0.0409119 0.0711512 -0.1314503 255 255 0
-0.0554617 0.0381474 -0.1307574 255 255 0
-0.0533733 0.0381888 -0.1308137 255 255 0
-0.0617147 0.0400846 -0.1305575 255 255 0
-0.0596292 0.0401241 -0.1306096 255 255 0
-0.0575469 0.0401627 -0.1306593 255 255 0
-0.0554633 0.0401959 -0.1307026 255 255 0
-0.0533779 0.0402225 -0.1307384 255 255 0
-0.0512948 0.0402446 -0.1307692 255 255 0
-0.0492139 0.0402602 -0.1307907 255 255 0
-0.0471320 0.0402776 -0.1308152 255 255 0
-0.0450505 0.0402934 -0.1308365 255 255 0
-0.0429670 0.0403168 -0.1308701 255 255 0
-0.0408795 0.0403440 -0.1309097 255 255 0
-0.0387910 0.0403831 -0.1309663 255 255 0
-0.0679619 0.0421566 -0.1305477 255 255 0
-0.0658783 0.0421751 -0.1305706 255 255 0
-0.0637934 0.0421950 -0.1305946 255 255 0
-0.0617094 0.0422214 -0.1306295 255 255 0
-0.0596259 0.0422456 -0.1306591 255 255 0
-0.0575444 0.0422661 -0.1306838 255 255 0
-0.0554615 0.0422833 -0.1307055 255 255 0
-0.0533803 0.0422972 -0.1307229 255 255 0
-0.0512979 0.0423086 -0.1307369 255 255 0
-0.0492175 0.0423150 -0.1307450 255 255 0
-0.0471353 0.0423242 -0.1307563 255 255 0
-0.0450549 0.0423322 -0.1307675 255 255 0
-0.0429717 0.0423526 -0.1307964 255 255 0
-0.0408859 0.0423799 -0.1308358 255 255 0
-0.0387972 0.0424246 -0.1308978 255 255 0
-0.0367029 0.0424987 -0.1310026 255 255 0
-0.0346111 0.0425569 -0.1310855 255 255 0
-0.0721276 0.0441314 -0.1303902 255 255 0
-0.0700420 0.0442242 -0.1305192 255 255 0
-0.0679544 0.0442850 -0.1306046 255 255 0
-0.0658724 0.0443052 -0.1306313 255 255 0
-0.0637873 0.0443228 -0.1306537 255 255 0
-0.0617061 0.0443367 -0.1306713 255 255 0
-0.0596234 0.0443483 -0.1306853 255 255 0
-0.0575424 0.0443576 -0.1306941 255 255 0
-0.0554617 0.0443645 -0.1307001 255 255 0
-0.0533812 0.0443693 -0.1307036 255 255 0
-0.0513008 0.0443728 -0.1307057 255 255 0
-0.0492192 0.0443736 -0.1307056 255 255 0
-0.0471387 0.0443785 -0.1307111 255 255 0
-0.0450587 0.0443791 -0.1307114 255 255 0
-0.0429757 0.0443955 -0.1307345 255 255 0
-0.0408903 0.0444227 -0.1307724 255 255 0
-0.0388016 0.0444703 -0.1308407 255 255 0
-0.0367082 0.0445562 -0.1309626 255 255 0
-0.0346157 0.0446256 -0.1310612 255 255 0
-0.0742174 0.0461600 -0.1303113 255 255 0
-0.0721251 0.0462703 -0.1304615 255 255 0
-0.0700368 0.0463428 -0.1305643 255 255 0
-0.0679530 0.0463922 -0.1306334 255 255 0
-0.0658680 0.0464090 -0.1306578 255 255 0
-0.0637867 0.0464217 -0.1306741 255 255 0
-0.0617038 0.0464297 -0.1306831 255 255 0
-0.0596227 0.0464377 -0.1306910 255 255 0
-0.0575419 0.0464438 -0.1306961 255 255 0
-0.0554614 0.0464475 -0.1306985 255 255 0
-0.0533810 0.0464522 -0.1307024 255 255 0
-0.0513008 0.0464548 -0.1307036 255 255 0
-0.0492203 0.0464560 -0.1307020 255 255 0
-0.0471389 0.0464591 -0.1307049 255 255 0
-0.0450589 0.0464586 -0.1307037 255 255 0
-0.0429761 0.0464738 -0.1307251 255 255 0
-0.0408927 0.0464927 -0.1307518 255 255 0
-0.0388042 0.0465376 -0.1308157 255 255 0
-0.0367117 0.0466240 -0.1309421 255 255 0
-0.0346199 0.0466950 -0.1310464 255 255 0
-0.0742151 0.0482947 -0.1303774 255 255 0
-0.0721237 0.0483906 -0.1305108 255 255 0
-0.0700359 0.0484477 -0.1305913 255 255 0
-0.0679494 0.0484858 -0.1306459 255 255 0
-0.0658674 0.0484999 -0.1306651 255 255 0
-0.0637859 0.0485098 -0.1306786 255 255 0
-0.0617037 0.0485134 -0.1306826 255 255 0
-0.0596230 0.0485175 -0.1306863 255 255 0
-0.0575422 0.0485214 -0.1306879 255 255 0
-0.0554617 0.0485243 -0.1306893 255 255 0
-0.0533816 0.0485266 -0.1306898 255 255 0
-0.0513014 0.0485294 -0.1306903 255 255 0
-0.0492214 0.0485311 -0.1306898 255 255 0
-0.0471396 0.0485332 -0.1306917 255 255 0
-0.0450597 0.0485320 -0.1306884 255 255 0
-0.0429769 0.0485434 -0.1307061 255 255 0
-0.0408938 0.0485572 -0.1307252 255 255 0
-0.0388073 0.0485981 -0.1307835 255 255 0
-0.0367156 0.0486824 -0.1309078 255 255 0
-0.0346230 0.0487562 -0.1310160 255 255 0
-0.0325323 0.0488288 -0.1311200 255 255 0
-0.0742134 0.0504152 -0.1304292 255 255 0
-0.0721229 0.0505010 -0.1305485 255 255 0
-0.0700352 0.0505442 -0.1306092 255 255 0
-0.0679492 0.0505734 -0.1306507 255 255 0
-0.0658675 0.0505846 -0.1306674 255 255 0
-0.0637864 0.0505932 -0.1306799 255 255 0
-0.0617035 0.0505969 -0.1306835 255 255 0
-0.0596227 0.0506002 -0.1306860 255 255 0
-0.0575406 0.0506032 -0.1306875 255 255 0
-0.0554602 0.0506053 -0.1306870 255 255 0
-0.0533801 0.0506068 -0.1306855 255 255 0
-0.0513008 0.0506089 -0.1306856 255 255 0
-0.0492215 0.0506101 -0.1306856 255 255 0
-0.0471402 0.0506117 -0.1306860 255 255 0
-0.0450599 0.0506089 -0.1306808 255 255 0
-0.0429790 0.0506186 -0.1306944 255 255 0
-0.0408964 0.0506276 -0.1307066 255 255 0
-0.0388101 0.0506630 -0.1307560 255 255 0
-0.0367190 0.0507315 -0.1308575 255 255 0
-0.0346259 0.0508007 -0.1309597 255 255 0
-0.0325339 0.0508884 -0.1310868 255 255 0
-0.0763177 0.0523836 -0.1302470 255 255 0
-0.0742121 0.0525241 -0.1304636 255 255 0
-0.0721227 0.0526023 -0.1305692 255 255 0
-0.0700355 0.0526361 -0.1306173 255 255 0
-0.0679492 0.0526595 -0.1306509 255 255 0
-0.0658675 0.0526698 -0.1306648 255 255 0
-0.0637832 0.0526761 -0.1306732 255 255 0
-0.0617039 0.0526796 -0.1306766 255 255 0
-0.0596216 0.0526833 -0.1306800 255 255 0
-0.0575409 0.0526852 -0.1306800 255 255 0
-0.0554605 0.0526868 -0.1306795 255 255 0
-0.0533804 0.0526874 -0.1306781 255 255 0
-0.0513003 0.0526888 -0.1306783 255 255 0
-0.0492218 0.0526900 -0.1306760 255 255 0
-0.0471414 0.0526912 -0.1306754 255 255 0
-0.0450602 0.0526887 -0.1306715 255 255 0
-0.0429793 0.0526956 -0.1306817 255 255 0
-0.0408969 0.0527009 -0.1306887 255 255 0
-0.0388126 0.0527314 -0.1307324 255 255 0
-0.0367201 0.0527889 -0.1308186 255 255 0
-0.0346288 0.0528542 -0.1309141 255 255 0
-0.0325351 0.0529507 -0.1310575 255 255 0
-0.0763286 0.0545840 -0.1303431 255 255 0
-0.0742253 0.0546488 -0.1304712 255 255 0
-0.0721238 0.0547026 -0.1305837 255 255 0
-0.0700360 0.0547306 -0.1306269 255 255 0
-0.0679495 0.0547510 -0.1306573 255 255 0
-0.0658677 0.0547597 -0.1306710 255 255 0
-0.0637834 0.0547652 -0.1306786 255 255 0
-0.0617034 0.0547686 -0.1306816 255 255 0
-0.0596212 0.0547711 -0.1306830 255 255 0
-0.0575405 0.0547733 -0.1306835 255 255 0
-0.0554600 0.0547741 -0.1306824 255 255 0
-0.0533799 0.0547754 -0.1306822 255 255 0
-0.0512999 0.0547757 -0.1306796 255 255 0
-0.0492214 0.0547768 -0.1306780 255 255 0
-0.0471411 0.0547777 -0.1306778 255 255 0
-0.0450599 0.0547764 -0.1306757 255 255 0
-0.0429792 0.0547817 -0.1306835 255 255 0
-0.0408968 0.0547846 -0.1306878 255 255 0
-0.0388126 0.0548120 -0.1307283 255 255 0
-0.0367221 0.0548667 -0.1308104 255 255 0
-0.0346310 0.0549301 -0.1309032 255 255 0
-0.0325376 0.0550226 -0.1310423 255 255 0
-0.0763389 0.0567914 -0.1304604 255 255 0
-0.0742280 0.0567667 -0.1304964 255 255 0
-0.0721252 0.0567938 -0.1305787 255 255 0
-0.0700370 0.0568210 -0.1306207 255 255 0
-0.0679502 0.0568395 -0.1306482 255 255 0
-0.0658681 0.0568479 -0.1306601 255 255 0
-0.0637852 0.0568541 -0.1306672 255 255 0
-0.0617037 0.0568575 -0.1306706 255 255 0
-0.0596213 0.0568596 -0.1306725 255 255 0
-0.0575406 0.0568600 -0.1306711 255 255 0
-0.0554602 0.0568617 -0.1306695 255 255 0
-0.0533801 0.0568619 -0.1306683 255 255 0
-0.0513000 0.0568623 -0.1306672 255 255 0
-0.0492214 0.0568635 -0.1306665 255 255 0
-0.0471405 0.0568644 -0.1306652 255 255 0
-0.0450598 0.0568636 -0.1306634 255 255 0
-0.0429789 0.0568690 -0.1306734 255 255 0
-0.0408966 0.0568715 -0.1306798 255 255 0
-0.0388122 0.0568968 -0.1307198 255 255 0
-0.0367216 0.0569496 -0.1308035 255 255 0
-0.0346305 0.0570139 -0.1308994 255 255 0
-0.0325381 0.0571025 -0.1310357 255 243 0
-0.0304479 0.0571616 -0.1311247 255 233 0
-0.0763438 0.0589593 -0.1305518 255 255 0
-0.0742328 0.0589187 -0.1305614 255 255 0
-0.0721285 0.0588853 -0.1305664 255 255 0
-0.0700387 0.0589121 -0.1306091 255 255 0
-0.0679522 0.0589304 -0.1306371 255 255 0
-0.0658686 0.0589385 -0.1306489 255 255 0
-0.0637864 0.0589446 -0.1306566 255 255 0
-0.0617040 0.0589481 -0.1306594 255 255 0
-0.0596220 0.0589503 -0.1306611 255 255 0
-0.0575409 0.0589516 -0.1306608 255 255 0
-0.0554604 0.0589518 -0.1306596 255 255 0
-0.0533802 0.0589532 -0.1306606 255 255 0
-0.0513001 0.0589535 -0.1306586 255 255 0
-0.0492211 0.0589543 -0.1306570 255 255 0
-0.0471400 0.0589554 -0.1306570 255 255 0
-0.0450597 0.0589537 -0.1306556 255 255 0
-0.0429782 0.0589610 -0.1306675 255 255 0
-0.0408958 0.0589669 -0.1306801 255 255 0
-0.0388093 0.0589965 -0.1307287 255 255 0
-0.0367194 0.0590534 -0.1308201 255 254 0
-0.0346291 0.0591167 -0.1309206 255 243 0
-0.0325385 0.0592030 -0.1310521 255 229 0
-0.0304489 0.0592599 -0.1311423 255 220 0
-0.0742333 0.0609937 -0.1305423 255 255 0
-0.0721332 0.0609717 -0.1305452 255 255 0
-0.0700441 0.0610042 -0.1305937 255 255 0
-0.0679568 0.0610271 -0.1306269 255 255 0
-0.0658704 0.0610356 -0.1306361 255 255 0
-0.0637881 0.0610426 -0.1306435 255 255 0
-0.0617049 0.0610462 -0.1306477 255 255 0
-0.0596237 0.0610485 -0.1306489 255 255 0
-0.0575423 0.0610490 -0.1306489 255 255 0
-0.0554607 0.0610489 -0.1306464 255 255 0
-0.0533805 0.0610494 -0.1306450 255 255 0
-0.0513002 0.0610506 -0.1306454 255 255 0
-0.0492209 0.0610508 -0.1306442 255 255 0
-0.0471398 0.0610521 -0.1306457 255 255 0
-0.0450597 0.0610502 -0.1306432 255 255 0
-0.0429767 0.0610598 -0.1306602 255 255 0
-0.0408929 0.0610697 -0.1306836 255 255 0
-0.0388076 0.0611028 -0.1307401 255 255 0
-0.0367164 0.0611645 -0.1308459 255 248 0
-0.0346273 0.0612275 -0.1309496 255 238 0
-0.0325377 0.0613054 -0.1310737 255 225 0
-0.0742373 0.0630412 -0.1304716 255 255 0
-0.0721408 0.0630766 -0.1305220 255 255 0
-0.0700516 0.0631224 -0.1305794 255 255 0
-0.0679628 0.0631535 -0.1306143 255 255 0
-0.0658754 0.0631645 -0.1306172 255 255 0
-0.0637895 0.0631734 -0.1306197 255 255 0
-0.0617059 0.0631782 -0.1306241 255 255 0
-0.0596239 0.0631806 -0.1306251 255 255 0
-0.0575427 0.0631811 -0.1306253 255 255 0
-0.0554604 0.0631823 -0.1306245 255 255 0
-0.0533807 0.0631818 -0.1306222 255 255 0
-0.0512999 0.0631820 -0.1306212 255 255 0
-0.0492198 0.0631832 -0.1306192 255 255 0
-0.0471392 0.0631858 -0.1306229 255 255 0
-0.0450590 0.0631835 -0.1306212 255 255 0
-0.0429753 0.0631962 -0.1306485 255 255 0
-0.0408894 0.0632122 -0.1306966 255 255 0
-0.0388029 0.0632456 -0.1307723 255 255 0
-0.0367113 0.0633058 -0.1308949 255 243 0
-0.0346222 0.0633579 -0.1310007 255 232 0
-0.0325350 0.0634125 -0.1310943 255 223 0
-0.0700566 0.0652272 -0.1305641 255 255 0
-0.0679675 0.0652665 -0.1306007 255 255 0
-0.0658788 0.0652804 -0.1306012 255 255 0
-0.0637942 0.0652908 -0.1306034 255 255 0
-0.0617083 0.0652981 -0.1306131 255 255 0
-0.0596244 0.0653022 -0.1306182 255 255 0
-0.0575429 0.0653027 -0.1306168 255 255 0
-0.0554618 0.0653032 -0.1306166 255 255 0
-0.0533815 0.0653033 -0.1306169 255 255 0
-0.0513005 0.0653048 -0.1306169 255 255 0
-0.0492195 0.0653048 -0.1306136 255 255 0
-0.0471389 0.0653082 -0.1306200 255 255 0
-0.0450584 0.0653094 -0.1306221 255 255 0
-0.0429746 0.0653233 -0.1306575 255 255 0
-0.0408868 0.0653436 -0.1307234 255 255 0
-0.0387984 0.0653790 -0.1308136 255 252 0
-0.0367084 0.0654359 -0.1309457 255 238 0
-0.0346191 0.0654806 -0.1310489 255 228 0
-0.0679752 0.0673920 -0.1306152 255 255 0
-0.0658877 0.0674081 -0.1306129 255 255 0
-0.0638017 0.0674216 -0.1306174 255 255 0
-0.0617136 0.0674340 -0.1306395 255 255 0
-0.0596270 0.0674411 -0.1306536 255 255 0
-0.0575432 0.0674404 -0.1306526 255 255 0
-0.0554614 0.0674411 -0.1306521 255 255 0
-0.0533809 0.0674412 -0.1306521 255 255 0
-0.0513002 0.0674421 -0.1306525 255 255 0
-0.0492186 0.0674431 -0.1306511 255 255 0
-0.0471378 0.0674473 -0.1306616 255 255 0
-0.0450569 0.0674496 -0.1306698 255 255 0
-0.0429721 0.0674630 -0.1307091 255 255 0
-0.0408837 0.0674855 -0.1307882 255 255 0
-0.0387951 0.0675154 -0.1308768 255 255 0
-0.0367050 0.0675599 -0.1310009 255 255 0
-0.0346159 0.0675899 -0.1310903 255 255 0
-0.0638058 0.0695455 -0.1306400 255 255 0
-0.0617172 0.0695693 -0.1306770 255 255 0
-0.0596293 0.0695811 -0.1307017 255 255 0
-0.0575448 0.0695747 -0.1307030 255 255 0
-0.0554608 0.0695726 -0.1307068 255 255 0
-0.0533800 0.0695732 -0.1307092 255 255 0
-0.0512993 0.0695736 -0.1307122 255 255 0
-0.0492175 0.0695753 -0.1307123 255 255 0
-0.0471366 0.0695800 -0.1307249 255 255 0
-0.0450557 0.0695818 -0.1307378 255 255 0
-0.0429708 0.0695943 -0.1307782 255 255 0
-0.0408823 0.0696151 -0.1308566 255 255 0
-0.0387935 0.0696399 -0.1309412 255 255 0
-0.0367024 0.0696739 -0.1310516 255 255 0
-0.0617182 0.0716715 -0.1307728 255 255 0
-0.0596310 0.0716911 -0.1308185 255 255 0
-0.0575451 0.0717012 -0.1308214 255 255 0
-0.0554611 0.0717076 -0.1308232 255 255 0
-0.0533781 0.0717092 -0.1308272 255 255 0
-0.0512974 0.0717111 -0.1308331 255 255 0
-0.0492176 0.0717137 -0.1308406 255 255 0
-0.0471372 0.0717155 -0.1308549 255 255 0
-0.0450547 0.0717154 -0.1308685 255 255 0
-0.0429718 0.0717212 -0.1309030 255 255 0
-0.0408834 0.0717332 -0.1309668 255 255 0
-0.0387948 0.0717473 -0.1310280 255 255 0
-0.0367040 0.0717698 -0.1310995 255 255 0
-0.0450556 0.0738390 -0.1309707 255 255 0
-0.0429717 0.0738421 -0.1309946 255 255 0
-0.0408838 0.0738476 -0.1310403 255 255 0
-0.0387954 0.0738581 -0.1310867 255 255 0
-0.0554443 0.0385668 -0.1292158 255 255 0
-0.0533589 0.0386016 -0.1292646 255 255 0
-0.0512755 0.0386329 -0.1293074 255 255 0
-0.0491941 0.0386608 -0.1293460 255 255 0
-0.0471120 0.0386868 -0.1293813 255 255 0
-0.0450311 0.0387124 -0.1294156 255 255 0
-0.0616917 0.0405355 -0.1290589 255 255 0
-0.0596078 0.0405708 -0.1291074 255 255 0
-0.0575263 0.0406062 -0.1291543 255 255 0
-0.0554434 0.0406360 -0.1291932 255 255 0
-0.0533606 0.0406577 -0.1292222 255 255 0
-0.0512794 0.0406769 -0.1292485 255 255 0
-0.0491980 0.0406908 -0.1292678 255 255 0
-0.0471168 0.0407062 -0.1292895 255 255 0
-0.0450363 0.0407222 -0.1293122 255 255 0
-0.0429535 0.0407436 -0.1293428 255 255 0
-0.0408686 0.0407630 -0.1293720 255 255 0
-0.0387830 0.0407978 -0.1294238 255 255 0
-0.0366942 0.0408567 -0.1295066 255 255 0
-0.0679400 0.0425677 -0.1289918 255 255 0
-0.0658544 0.0426069 -0.1290445 255 255 0
-0.0637724 0.0426397 -0.1290911 255 255 0
-0.0616876 0.0426653 -0.1291231 255 255 0
-0.0596062 0.0426875 -0.1291533 255 255 0
-0.0575238 0.0427070 -0.1291779 255 255 0
-0.0554430 0.0427228 -0.1291987 255 255 0
-0.0533624 0.0427344 -0.1292131 255 255 0
-0.0512804 0.0427443 -0.1292258 255 255 0
-0.0492003 0.0427513 -0.1292339 255 255 0
-0.0471200 0.0427602 -0.1292457 255 255 0
-0.0450383 0.0427673 -0.1292551 255 255 0
-0.0429557 0.0427852 -0.1292806 255 255 0
-0.0408726 0.0428061 -0.1293126 255 255 0
-0.0387868 0.0428460 -0.1293680 255 255 0
-0.0366973 0.0429158 -0.1294685 255 255 0
-0.0346093 0.0429819 -0.1295648 255 255 0
-0.0325229 0.0430642 -0.1296756 255 255 0
-0.0700223 0.0446148 -0.1289415 255 255 0
-0.0679341 0.0447020 -0.1290613 255 255 0
-0.0658486 0.0447348 -0.1291094 255 255 0
-0.0637669 0.0447604 -0.1291429 255 255 0
-0.0616858 0.0447767 -0.1291630 255 255 0
-0.0596038 0.0447895 -0.1291791 255 255 0
-0.0575233 0.0447988 -0.1291895 255 255 0
-0.0554431 0.0448063 -0.1291978 255 255 0
-0.0533628 0.0448118 -0.1292033 255 255 0
-0.0512812 0.0448163 -0.1292078 255 255 0
-0.0492013 0.0448190 -0.1292104 255 255 0
-0.0471212 0.0448237 -0.1292166 255 255 0
-0.0450413 0.0448259 -0.1292192 255 255 0
-0.0429589 0.0448411 -0.1292408 255 255 0
-0.0408759 0.0448614 -0.1292704 255 255 0
-0.0387899 0.0449026 -0.1293277 255 255 0
-0.0367001 0.0449780 -0.1294392 255 255 0
-0.0346123 0.0450498 -0.1295428 255 255 0
-0.0325249 0.0451374 -0.1296621 255 255 0
-0.0721062 0.0466438 -0.1288626 255 255 0
-0.0700170 0.0467450 -0.1290033 255 255 0
-0.0679326 0.0468138 -0.1291006 255 255 0
-0.0658477 0.0468400 -0.1291373 255 255 0
-0.0637664 0.0468596 -0.1291648 255 255 0
-0.0616839 0.0468695 -0.1291775 255 255 0
-0.0596034 0.0468780 -0.1291871 255 255 0
-0.0575231 0.0468838 -0.1291932 255 255 0
-0.0554429 0.0468887 -0.1291977 255 255 0
-0.0533628 0.0468923 -0.1292002 255 255 0
-0.0512814 0.0468954 -0.1292021 255 255 0
-0.0492016 0.0468974 -0.1292030 255 255 0
-0.0471215 0.0469008 -0.1292067 255 255 0
-0.0450417 0.0469019 -0.1292073 255 255 0
-0.0429593 0.0469151 -0.1292265 255 255 0
-0.0408765 0.0469311 -0.1292508 255 255 0
-0.0387918 0.0469696 -0.1293058 255 255 0
-0.0367026 0.0470439 -0.1294170 255 255 0
-0.0346149 0.0471167 -0.1295229 255 255 0
-0.0325269 0.0472063 -0.1296465 255 255 0
-0.0304413 0.0472727 -0.1297403 255 255 0
-0.0721036 0.0487814 -0.1289353 255 255 0
-0.0700151 0.0488607 -0.1290483 255 255 0
-0.0679282 0.0489148 -0.1291250 255 255 0
-0.0658466 0.0489359 -0.1291555 255 255 0
-0.0637656 0.0489508 -0.1291756 255 255 0
-0.0616836 0.0489574 -0.1291833 255 255 0
-0.0596032 0.0489625 -0.1291891 255 255 0
-0.0575230 0.0489663 -0.1291924 255 255 0
-0.0554414 0.0489693 -0.1291947 255 255 0
-0.0533615 0.0489717 -0.1291959 255 255 0
-0.0512816 0.0489738 -0.1291966 255 255 0
-0.0492019 0.0489754 -0.1291963 255 255 0
-0.0471219 0.0489779 -0.1291993 255 255 0
-0.0450421 0.0489781 -0.1291988 255 255 0
-0.0429598 0.0489893 -0.1292153 255 255 0
-0.0408775 0.0490015 -0.1292318 255 255 0
-0.0387933 0.0490366 -0.1292822 255 255 0
-0.0367053 0.0491043 -0.1293843 255 255 0
-0.0346163 0.0491743 -0.1294881 255 255 0
-0.0325290 0.0492694 -0.1296209 255 255 0
-0.0304418 0.0493406 -0.1297229 255 255 0
-0.0741941 0.0507231 -0.1287602 255 255 0
-0.0721009 0.0508968 -0.1289815 255 255 0
-0.0700146 0.0509619 -0.1290735 255 255 0
-0.0679279 0.0510064 -0.1291367 255 255 0
-0.0658467 0.0510234 -0.1291610 255 255 0
-0.0637656 0.0510356 -0.1291780 255 255 0
-0.0616834 0.0510411 -0.1291845 255 255 0
-0.0596030 0.0510454 -0.1291893 255 255 0
-0.0575215 0.0510482 -0.1291913 255 255 0
-0.0554415 0.0510505 -0.1291924 255 255 0
-0.0533615 0.0510522 -0.1291929 255 255 0
-0.0512816 0.0510537 -0.1291932 255 255 0
-0.0492019 0.0510550 -0.1291929 255 255 0
-0.0471220 0.0510571 -0.1291941 255 255 0
-0.0450423 0.0510567 -0.1291931 255 255 0
-0.0429617 0.0510655 -0.1292058 255 255 0
-0.0408794 0.0510748 -0.1292187 255 255 0
-0.0387957 0.0511055 -0.1292627 255 255 0
-0.0367065 0.0511610 -0.1293469 255 255 0
-0.0346186 0.0512255 -0.1294415 255 255 0
-0.0325293 0.0513278 -0.1295880 255 255 0
-0.0304420 0.0514049 -0.1296988 255 255 0
-0.0741866 0.0528454 -0.1288312 255 255 0
-0.0720982 0.0530024 -0.1290106 255 255 0
-0.0700140 0.0530577 -0.1290893 255 255 0
-0.0679277 0.0530957 -0.1291423 255 255 0
-0.0658466 0.0531100 -0.1291632 255 255 0
-0.0637626 0.0531203 -0.1291772 255 255 0
-0.0616836 0.0531252 -0.1291829 255 255 0
-0.0596017 0.0531286 -0.1291866 255 255 0
-0.0575215 0.0531310 -0.1291879 255 255 0
-0.0554415 0.0531327 -0.1291888 255 255 0
-0.0533615 0.0531338 -0.1291888 255 255 0
-0.0512818 0.0531348 -0.1291881 255 255 0
-0.0492020 0.0531360 -0.1291865 255 255 0
-0.0471221 0.0531376 -0.1291873 255 255 0
-0.0450421 0.0531371 -0.1291871 255 255 0
-0.0429618 0.0531444 -0.1291975 255 255 0
-0.0408796 0.0531514 -0.1292069 255 255 0
-0.0387961 0.0531790 -0.1292482 255 255 0
-0.0367086 0.0532267 -0.1293213 255 255 0
-0.0346203 0.0532874 -0.1294108 255 255 0
-0.0325302 0.0533901 -0.1295598 255 255 0
-0.0304427 0.0534690 -0.1296763 255 255 0
-0.0741748 0.0549225 -0.1288445 255 255 0
-0.0720994 0.0550972 -0.1290215 255 255 0
-0.0700140 0.0551486 -0.1290943 255 255 0
-0.0679278 0.0551838 -0.1291446 255 255 0
-0.0658467 0.0551964 -0.1291631 255 255 0
-0.0637626 0.0552053 -0.1291761 255 255 0
-0.0616835 0.0552098 -0.1291814 255 255 0
-0.0596017 0.0552129 -0.1291845 255 255 0
-0.0575214 0.0552146 -0.1291853 255 255 0
-0.0554413 0.0552161 -0.1291851 255 255 0
-0.0533615 0.0552170 -0.1291846 255 255 0
-0.0512816 0.0552178 -0.1291846 255 255 0
-0.0492020 0.0552188 -0.1291837 255 255 0
-0.0471221 0.0552201 -0.1291845 255 255 0
-0.0450423 0.0552202 -0.1291847 255 255 0
-0.0429617 0.0552271 -0.1291955 255 255 0
-0.0408796 0.0552325 -0.1292035 255 255 0
-0.0387960 0.0552584 -0.1292409 255 255 0
-0.0367087 0.0553041 -0.1293121 255 255 0
-0.0346210 0.0553633 -0.1294014 255 255 0
-0.0325319 0.0554593 -0.1295419 255 255 0
-0.0304446 0.0555363 -0.1296572 255 255 0
-0.0283592 0.0555952 -0.1297382 255 255 0
-0.0741720 0.0569693 -0.1287990 255 255 0
-0.0721022 0.0571894 -0.1290212 255 255 0
-0.0700148 0.0572396 -0.1290933 255 255 0
-0.0679284 0.0572735 -0.1291414 255 255 0
-0.0658472 0.0572854 -0.1291584 255 255 0
-0.0637642 0.0572939 -0.1291707 255 255 0
-0.0616836 0.0572979 -0.1291750 255 255 0
-0.0596017 0.0573010 -0.1291776 255 255 0
-0.0575215 0.0573024 -0.1291782 255 255 0
-0.0554414 0.0573032 -0.1291786 255 255 0
-0.0533615 0.0573039 -0.1291781 255 255 0
-0.0512816 0.0573047 -0.1291774 255 255 0
-0.0492020 0.0573056 -0.1291760 255 255 0
-0.0471221 0.0573071 -0.1291777 255 255 0
-0.0450421 0.0573073 -0.1291773 255 255 0
-0.0429615 0.0573146 -0.1291891 255 255 0
-0.0408791 0.0573204 -0.1292007 255 255 0
-0.0387955 0.0573462 -0.1292414 255 255 0
-0.0367082 0.0573927 -0.1293150 255 255 0
-0.0346205 0.0574525 -0.1294084 255 255 0
-0.0325326 0.0575459 -0.1295493 255 255 0
-0.0304454 0.0576215 -0.1296611 255 255 0
-0.0283614 0.0576843 -0.1297483 255 255 0
-0.0741782 0.0590182 -0.1287372 255 255 0
-0.0721044 0.0592815 -0.1290116 255 255 0
-0.0700164 0.0593320 -0.1290855 255 255 0
-0.0679298 0.0593661 -0.1291360 255 255 0
-0.0658476 0.0593778 -0.1291519 255 255 0
-0.0637662 0.0593860 -0.1291631 255 255 0
-0.0616839 0.0593902 -0.1291678 255 255 0
-0.0596033 0.0593933 -0.1291710 255 255 0
-0.0575217 0.0593944 -0.1291713 255 255 0
-0.0554416 0.0593953 -0.1291712 255 255 0
-0.0533617 0.0593958 -0.1291699 255 255 0
-0.0512817 0.0593964 -0.1291699 255 255 0
-0.0492020 0.0593970 -0.1291695 255 255 0
-0.0471218 0.0593987 -0.1291714 255 255 0
-0.0450420 0.0593988 -0.1291722 255 255 0
-0.0429598 0.0594072 -0.1291858 255 255 0
-0.0408785 0.0594160 -0.1292031 255 255 0
-0.0387937 0.0594448 -0.1292527 255 255 0
-0.0367069 0.0594961 -0.1293370 255 255 0
-0.0346190 0.0595580 -0.1294331 255 255 0
-0.0325324 0.0596504 -0.1295760 255 255 0
-0.0304455 0.0597240 -0.1296861 255 255 0
-0.0283624 0.0597786 -0.1297633 255 255 0
-0.0721103 0.0613780 -0.1290041 255 255 0
-0.0700219 0.0614302 -0.1290804 255 255 0
-0.0679344 0.0614657 -0.1291299 255 255 0
-0.0658489 0.0614773 -0.1291440 255 255 0
-0.0637674 0.0614860 -0.1291541 255 255 0
-0.0616843 0.0614903 -0.1291584 255 255 0
-0.0596035 0.0614932 -0.1291615 255 255 0
-0.0575227 0.0614944 -0.1291616 255 255 0
-0.0554415 0.0614953 -0.1291617 255 255 0
-0.0533616 0.0614957 -0.1291620 255 255 0
-0.0512816 0.0614963 -0.1291619 255 255 0
-0.0492018 0.0614970 -0.1291607 255 255 0
-0.0471216 0.0614990 -0.1291645 255 255 0
-0.0450414 0.0614997 -0.1291662 255 255 0
-0.0429589 0.0615098 -0.1291848 255 255 0
-0.0408754 0.0615223 -0.1292129 255 255 0
-0.0387911 0.0615546 -0.1292714 255 255 0
-0.0367032 0.0616112 -0.1293710 255 255 0
-0.0346173 0.0616742 -0.1294780 255 255 0
-0.0325308 0.0617609 -0.1296101 255 255 0
-0.0304450 0.0618281 -0.1297163 255 255 0
-0.0721146 0.0634902 -0.1290037 255 255 0
-0.0700246 0.0635437 -0.1290787 255 255 0
-0.0679373 0.0635810 -0.1291262 255 255 0
-0.0658538 0.0635935 -0.1291352 255 255 0
-0.0637682 0.0636023 -0.1291410 255 255 0
-0.0616851 0.0636072 -0.1291467 255 255 0
-0.0596039 0.0636099 -0.1291503 255 255 0
-0.0575233 0.0636108 -0.1291509 255 255 0
-0.0554412 0.0636122 -0.1291512 255 255 0
-0.0533612 0.0636128 -0.1291505 255 255 0
-0.0512812 0.0636136 -0.1291508 255 255 0
-0.0492013 0.0636139 -0.1291492 255 255 0
-0.0471212 0.0636169 -0.1291541 255 255 0
-0.0450410 0.0636185 -0.1291584 255 255 0
-0.0429579 0.0636310 -0.1291863 255 255 0
-0.0408738 0.0636481 -0.1292313 255 255 0
-0.0387875 0.0636823 -0.1293036 255 255 0
-0.0367004 0.0637438 -0.1294235 255 255 0
-0.0346142 0.0638052 -0.1295356 255 255 0
-0.0325289 0.0638785 -0.1296542 255 255 0
-0.0304442 0.0639346 -0.1297452 255 255 0
-0.0700295 0.0656600 -0.1290929 255 255 0
-0.0679418 0.0656968 -0.1291360 255 255 0
-0.0658554 0.0657095 -0.1291416 255 255 0
-0.0637727 0.0657186 -0.1291479 255 255 0
-0.0616873 0.0657243 -0.1291574 255 255 0
-0.0596039 0.0657283 -0.1291630 255 255 0
-0.0575232 0.0657289 -0.1291614 255 255 0
-0.0554426 0.0657294 -0.1291611 255 255 0
-0.0533617 0.0657302 -0.1291603 255 255 0
-0.0512807 0.0657311 -0.1291615 255 255 0
-0.0492007 0.0657316 -0.1291602 255 255 0
-0.0471205 0.0657355 -0.1291684 255 255 0
-0.0450401 0.0657379 -0.1291756 255 255 0
-0.0429569 0.0657520 -0.1292088 255 255 0
-0.0408704 0.0657730 -0.1292692 255 255 0
-0.0387849 0.0658093 -0.1293500 255 255 0
-0.0366972 0.0658724 -0.1294818 255 255 0
-0.0346113 0.0659298 -0.1295953 255 255 0
-0.0325260 0.0659913 -0.1296960 255 255 0
-0.0679472 0.0678181 -0.1291613 255 255 0
-0.0658607 0.0678320 -0.1291688 255 255 0
-0.0637742 0.0678433 -0.1291784 255 255 0
-0.0616896 0.0678517 -0.1291953 255 255 0
-0.0596056 0.0678567 -0.1292057 255 255 0
-0.0575228 0.0678568 -0.1292031 255 255 0
-0.0554420 0.0678563 -0.1292023 255 255 0
-0.0533618 0.0678571 -0.1292028 255 255 0
-0.0512800 0.0678584 -0.1292045 255 255 0
-0.0491999 0.0678594 -0.1292045 255 255 0
-0.0471195 0.0678629 -0.1292141 255 255 0
-0.0450385 0.0678660 -0.1292229 255 255 0
-0.0429557 0.0678801 -0.1292619 255 255 0
-0.0408690 0.0679032 -0.1293287 255 255 0
-0.0387826 0.0679382 -0.1294160 255 255 0
-0.0366952 0.0679980 -0.1295450 255 255 0
-0.0346093 0.0680509 -0.1296534 255 255 0
-0.0325243 0.0681022 -0.1297365 255 255 0
-0.0637787 0.0699661 -0.1292295 255 255 0
-0.0616914 0.0699805 -0.1292601 255 255 0
-0.0596068 0.0699897 -0.1292802 255 255 0
-0.0575234 0.0699917 -0.1292799 255 255 0
-0.0554405 0.0699932 -0.1292809 255 255 0
-0.0533601 0.0699941 -0.1292837 255 255 0
-0.0512788 0.0699961 -0.1292871 255 255 0
-0.0491981 0.0699972 -0.1292894 255 255 0
-0.0471178 0.0700008 -0.1293012 255 255 0
-0.0450374 0.0700007 -0.1293095 255 255 0
-0.0429541 0.0700127 -0.1293461 255 255 0
-0.0408679 0.0700340 -0.1294140 255 255 0
-0.0387815 0.0700658 -0.1294938 255 255 0
-0.0366936 0.0701207 -0.1296138 255 255 0
-0.0346079 0.0701665 -0.1297065 255 255 0
-0.0596060 0.0721226 -0.1293889 255 255 0
-0.0575214 0.0721314 -0.1293956 255 255 0
-0.0554388 0.0721375 -0.1294009 255 255 0
-0.0533574 0.0721406 -0.1294078 255 255 0
-0.0512771 0.0721426 -0.1294143 255 255 0
-0.0491975 0.0721448 -0.1294206 255 255 0
-0.0471156 0.0721462 -0.1294329 255 255 0
-0.0450354 0.0721422 -0.1294391 255 255 0
-0.0429533 0.0721491 -0.1294677 255 255 0
-0.0408672 0.0721655 -0.1295251 255 255 0
-0.0387811 0.0721906 -0.1295897 255 255 0
-0.0366948 0.0722385 -0.1296819 255 255 0
-0.0346085 0.0722765 -0.1297543 255 255 0
-0.0575203 0.0742585 -0.1294813 255 255 0
-0.0554365 0.0742725 -0.1295036 255 255 0
-0.0533549 0.0742771 -0.1295154 255 255 0
-0.0512746 0.0742809 -0.1295260 255 255 0
-0.0491952 0.0742848 -0.1295375 255 255 0
-0.0471152 0.0742847 -0.1295493 255 255 0
-0.0450341 0.0742747 -0.1295439 255 255 0
-0.0429527 0.0742767 -0.1295609 255 255 0
-0.0408676 0.0742874 -0.1296036 255 255 0
-0.0387828 0.0743090 -0.1296542 255 255 0
-0.0366951 0.0743497 -0.1297310 255 255 0
-0.0554332 0.0387936 -0.1274288 255 255 0
-0.0533504 0.0388175 -0.1274638 255 255 0
-0.0512696 0.0388394 -0.1274931 255 255 0
-0.0491875 0.0388604 -0.1275222 255 255 0
-0.0471070 0.0388786 -0.1275491 255 255 0
-0.0450268 0.0388934 -0.1275701 255 255 0
-0.0429446 0.0389095 -0.1275936 255 255 0
-0.0408623 0.0389227 -0.1276119 255 255 0
-0.0616780 0.0407952 -0.1273174 255 255 0
-0.0595966 0.0408218 -0.1273540 255 255 0
-0.0575143 0.0408473 -0.1273899 255 255 0
-0.0554336 0.0408688 -0.1274192 255 255 0
-0.0533515 0.0408848 -0.1274406 255 255 0
-0.0512709 0.0408994 -0.1274604 255 255 0
-0.0491907 0.0409116 -0.1274775 255 255 0
-0.0471089 0.0409236 -0.1274951 255 255 0
-0.0450287 0.0409345 -0.1275119 255 255 0
-0.0429466 0.0409488 -0.1275325 255 255 0
-0.0408641 0.0409630 -0.1275548 255 255 0
-0.0387812 0.0409852 -0.1275853 255 255 0
-0.0366979 0.0410200 -0.1276375 255 255 0
-0.0346147 0.0410537 -0.1276838 255 255 0
-0.0325318 0.0410934 -0.1277378 255 255 0
-0.0658426 0.0428492 -0.1272784 255 255 0
-0.0637575 0.0428867 -0.1273303 255 255 0
-0.0616763 0.0429072 -0.1273602 255 255 0
-0.0595941 0.0429250 -0.1273841 255 255 0
-0.0575137 0.0429399 -0.1274029 255 255 0
-0.0554333 0.0429521 -0.1274184 255 255 0
-0.0533517 0.0429612 -0.1274303 255 255 0
-0.0512716 0.0429693 -0.1274422 255 255 0
-0.0491916 0.0429757 -0.1274508 255 255 0
-0.0471116 0.0429833 -0.1274610 255 255 0
-0.0450301 0.0429892 -0.1274698 255 255 0
-0.0429496 0.0430017 -0.1274879 255 255 0
-0.0408671 0.0430173 -0.1275106 255 255 0
-0.0387842 0.0430426 -0.1275480 255 255 0
-0.0366988 0.0430838 -0.1276106 255 255 0
-0.0346154 0.0431233 -0.1276671 255 255 0
-0.0325336 0.0431682 -0.1277287 255 255 0
-0.0304519 0.0432019 -0.1277762 255 255 0
-0.0700095 0.0448222 -0.1271236 255 255 0
-0.0679227 0.0449238 -0.1272682 255 255 0
-0.0658376 0.0449645 -0.1273263 255 255 0
-0.0637561 0.0449935 -0.1273668 255 255 0
-0.0616742 0.0450077 -0.1273853 255 255 0
-0.0595935 0.0450191 -0.1274009 255 255 0
-0.0575133 0.0450273 -0.1274113 255 255 0
-0.0554333 0.0450338 -0.1274194 255 255 0
-0.0533519 0.0450388 -0.1274253 255 255 0
-0.0512720 0.0450429 -0.1274303 255 255 0
-0.0491921 0.0450460 -0.1274339 255 255 0
-0.0471122 0.0450506 -0.1274401 255 255 0
-0.0450323 0.0450541 -0.1274441 255 255 0
-0.0429503 0.0450650 -0.1274598 255 255 0
-0.0408679 0.0450798 -0.1274814 255 255 0
-0.0387851 0.0451059 -0.1275202 255 255 0
-0.0367010 0.0451504 -0.1275889 255 255 0
-0.0346166 0.0451932 -0.1276504 255 255 0
-0.0325339 0.0452413 -0.1277184 255 255 0
-0.0304522 0.0452775 -0.1277691 255 255 0
-0.0700060 0.0469504 -0.1271870 255 255 0
-0.0679186 0.0470316 -0.1273050 255 255 0
-0.0658368 0.0470640 -0.1273495 255 255 0
-0.0637553 0.0470870 -0.1273829 255 255 0
-0.0616735 0.0470971 -0.1273966 255 255 0
-0.0595933 0.0471050 -0.1274071 255 255 0
-0.0575133 0.0471104 -0.1274130 255 255 0
-0.0554325 0.0471148 -0.1274176 255 255 0
-0.0533520 0.0471181 -0.1274207 255 255 0
-0.0512722 0.0471209 -0.1274238 255 255 0
-0.0491924 0.0471227 -0.1274261 255 255 0
-0.0471126 0.0471264 -0.1274302 255 255 0
-0.0450328 0.0471285 -0.1274333 255 255 0
-0.0429508 0.0471383 -0.1274477 255 255 0
-0.0408685 0.0471505 -0.1274645 255 255 0
-0.0387862 0.0471751 -0.1275023 255 255 0
-0.0367015 0.0472198 -0.1275712 255 255 0
-0.0346176 0.0472629 -0.1276336 255 255 0
-0.0325340 0.0473131 -0.1277068 255 255 0
-0.0304528 0.0473515 -0.1277606 255 255 0
-0.0283712 0.0473711 -0.1277898 255 255 0
-0.0700043 0.0490659 -0.1272335 255 255 0
-0.0679175 0.0491318 -0.1273280 255 255 0
-0.0658362 0.0491575 -0.1273656 255 255 0
-0.0637550 0.0491756 -0.1273913 255 255 0
-0.0616732 0.0491832 -0.1274019 255 255 0
-0.0595931 0.0491889 -0.1274094 255 255 0
-0.0575124 0.0491926 -0.1274129 255 255 0
-0.0554317 0.0491955 -0.1274156 255 255 0
-0.0533519 0.0491976 -0.1274174 255 255 0
-0.0512720 0.0491994 -0.1274193 255 255 0
-0.0491923 0.0492007 -0.1274200 255 255 0
-0.0471127 0.0492032 -0.1274231 255 255 0
-0.0450330 0.0492047 -0.1274247 255 255 0
-0.0429511 0.0492133 -0.1274359 255 255 0
-0.0408706 0.0492228 -0.1274512 255 255 0
-0.0387877 0.0492457 -0.1274850 255 255 0
-0.0367019 0.0492871 -0.1275478 255 255 0
-0.0346181 0.0493294 -0.1276119 255 255 0
-0.0325359 0.0493826 -0.1276907 255 255 0
-0.0304526 0.0494234 -0.1277501 255 255 0
-0.0283710 0.0494463 -0.1277829 255 255 0
-0.0720880 0.0510870 -0.1271454 255 255 0
-0.0700035 0.0511691 -0.1272630 255 255 0
-0.0679172 0.0512247 -0.1273433 255 255 0
-0.0658357 0.0512454 -0.1273728 255 255 0
-0.0637529 0.0512603 -0.1273937 255 255 0
