ply
format ascii 1.0
element vertex 1156
property float x
property float y
property float z
property uchar red
property uchar green
property uchar blue
end_header
-0.0159097 0.0724042 -0.0322563 255 255 0
-0.0138306 0.0724051 -0.0322557 255 255 0
-0.0117512 0.0724054 -0.0322552 255 255 0
-0.0096718 0.0724057 -0.0322549 255 255 0
-0.0075925 0.0724060 -0.0322548 255 255 0
-0.0055131 0.0724061 -0.0322548 255 255 0
-0.0034338 0.0724061 -0.0322548 255 255 0
-0.0013544 0.0724061 -0.0322547 255 255 0
0.0007249 0.0724061 -0.0322547 255 255 0
0.0028043 0.0724061 -0.0322547 255 255 0
0.0048836 0.0724061 -0.0322547 255 255 0
0.0069630 0.0724063 -0.0322546 255 255 0
0.0090425 0.0724064 -0.0322545 255 255 0
0.0111218 0.0724066 -0.0322545 255 255 0
0.0132012 0.0724066 -0.0322544 255 255 0
0.0152805 0.0724067 -0.0322543 255 255 0
0.0173599 0.0724068 -0.0322540 255 255 0
0.0194392 0.0724073 -0.0322537 255 255 0
0.0215186 0.0724079 -0.0322533 255 255 0
0.0235979 0.0724085 -0.0322528 255 255 0
0.0256773 0.0724092 -0.0322527 255 255 0
0.0277566 0.0724094 -0.0322525 255 255 0
-0.0179891 0.0744829 -0.0322573 255 255 0
-0.0159097 0.0744838 -0.0322564 255 255 0
-0.0138305 0.0744846 -0.0322556 255 255 0
-0.0117512 0.0744853 -0.0322553 255 255 0
-0.0096718 0.0744854 -0.0322551 255 255 0
-0.0075925 0.0744856 -0.0322550 255 255 0
-0.0055131 0.0744857 -0.0322549 255 255 0
-0.0034338 0.0744858 -0.0322549 255 255 0
-0.0013544 0.0744858 -0.0322549 255 255 0
0.0007249 0.0744858 -0.0322548 255 255 0
0.0028043 0.0744858 -0.0322548 255 255 0
0.0048836 0.0744858 -0.0322546 255 255 0
0.0069630 0.0744858 -0.0322546 255 255 0
0.0090425 0.0744859 -0.0322545 255 255 0
0.0111218 0.0744859 -0.0322544 255 255 0
0.0132012 0.0744860 -0.0322543 255 255 0
0.0152805 0.0744862 -0.0322542 255 255 0
0.0173599 0.0744866 -0.0322539 255 255 0
0.0194392 0.0744868 -0.0322536 255 255 0
0.0215186 0.0744873 -0.0322530 255 255 0
0.0235979 0.0744883 -0.0322527 255 255 0
0.0256773 0.0744887 -0.0322527 255 255 0
0.0277566 0.0744888 -0.0322524 255 255 0
-0.0179891 0.0765621 -0.0322576 255 255 0
-0.0159097 0.0765633 -0.0322565 255 255 0
-0.0138306 0.0765642 -0.0322556 255 255 0
-0.0117512 0.0765645 -0.0322551 255 255 0
-0.0096718 0.0765645 -0.0322549 255 255 0
-0.0075925 0.0765647 -0.0322548 255 255 0
-0.0055131 0.0765648 -0.0322548 255 255 0
-0.0034338 0.0765649 -0.0322548 255 255 0
-0.0013544 0.0765649 -0.0322547 255 255 0
0.0007249 0.0765649 -0.0322547 255 255 0
0.0028043 0.0765651 -0.0322546 255 255 0
0.0048836 0.0765654 -0.0322546 255 255 0
0.0069630 0.0765656 -0.0322545 255 255 0
0.0090425 0.0765657 -0.0322545 255 255 0
0.0111218 0.0765657 -0.0322544 255 255 0
0.0132012 0.0765658 -0.0322542 255 255 0
0.0152805 0.0765659 -0.0322539 255 255 0
0.0173599 0.0765661 -0.0322537 255 255 0
0.0194392 0.0765666 -0.0322533 255 255 0
0.0215186 0.0765671 -0.0322529 255 255 0
0.0235979 0.0765679 -0.0322528 255 255 0
0.0256773 0.0765683 -0.0322526 255 255 0
0.0277566 0.0765684 -0.0322525 255 255 0
-0.0179891 0.0786416 -0.0322577 255 255 0
-0.0159097 0.0786425 -0.0322565 255 255 0
-0.0138305 0.0786431 -0.0322556 255 255 0
-0.0117512 0.0786436 -0.0322552 255 255 0
-0.0096718 0.0786441 -0.0322549 255 255 0
-0.0075925 0.0786444 -0.0322548 255 255 0
-0.0055131 0.0786445 -0.0322547 255 255 0
-0.0034338 0.0786446 -0.0322547 255 255 0
-0.0013544 0.0786446 -0.0322546 255 255 0
0.0007249 0.0786447 -0.0322546 255 255 0
0.0028043 0.0786447 -0.0322545 255 255 0
0.0048836 0.0786448 -0.0322544 255 255 0
0.0069630 0.0786448 -0.0322543 255 255 0
0.0090425 0.0786450 -0.0322543 255 255 0
0.0111218 0.0786452 -0.0322542 255 255 0
0.0132012 0.0786453 -0.0322541 255 255 0
0.0152805 0.0786456 -0.0322540 255 255 0
0.0173599 0.0786457 -0.0322534 255 255 0
0.0194392 0.0786461 -0.0322529 255 255 0
0.0215186 0.0786471 -0.0322528 255 255 0
0.0235979 0.0786474 -0.0322527 255 255 0
0.0256773 0.0786476 -0.0322524 255 255 0
-0.0159097 0.0807216 -0.0322564 255 255 0
-0.0138306 0.0807225 -0.0322556 255 255 0
-0.0117512 0.0807231 -0.0322552 255 255 0
-0.0096718 0.0807236 -0.0322548 255 255 0
-0.0075925 0.0807239 -0.0322547 255 255 0
-0.0055131 0.0807241 -0.0322546 255 255 0
-0.0034338 0.0807243 -0.0322546 255 255 0
-0.0013544 0.0807243 -0.0322545 255 255 0
0.0007249 0.0807243 -0.0322544 255 255 0
0.0028043 0.0807243 -0.0322544 255 255 0
0.0048836 0.0807244 -0.0322543 255 255 0
0.0069630 0.0807244 -0.0322542 255 255 0
0.0090425 0.0807245 -0.0322541 255 255 0
0.0111218 0.0807246 -0.0322540 255 255 0
0.0132012 0.0807250 -0.0322539 255 255 0
0.0152805 0.0807252 -0.0322537 255 255 0
0.0173599 0.0807256 -0.0322533 255 255 0
0.0194392 0.0807261 -0.0322528 255 255 0
0.0215186 0.0807269 -0.0322526 255 255 0
0.0235979 0.0807270 -0.0322526 255 255 0
0.0256773 0.0807271 -0.0322525 255 255 0
-0.0159097 0.0828008 -0.0322565 255 255 0
-0.0138306 0.0828016 -0.0322557 255 255 0
-0.0117512 0.0828021 -0.0322553 255 255 0
-0.0096718 0.0828028 -0.0322548 255 255 0
-0.0075925 0.0828031 -0.0322548 255 255 0
-0.0055131 0.0828034 -0.0322547 255 255 0
-0.0034338 0.0828036 -0.0322546 255 255 0
-0.0013544 0.0828037 -0.0322545 255 255 0
0.0007249 0.0828038 -0.0322543 255 255 0
0.0028043 0.0828039 -0.0322542 255 255 0
0.0048837 0.0828042 -0.0322541 255 255 0
0.0069630 0.0828042 -0.0322540 255 255 0
0.0090425 0.0828042 -0.0322540 255 255 0
0.0111218 0.0828042 -0.0322539 255 255 0
0.0132012 0.0828044 -0.0322538 255 255 0
0.0152805 0.0828048 -0.0322533 255 255 0
0.0173599 0.0828054 -0.0322529 255 255 0
0.0194392 0.0828060 -0.0322528 255 255 0
0.0215186 0.0828065 -0.0322526 255 255 0
0.0235979 0.0828065 -0.0322525 255 255 0
0.0256773 0.0828066 -0.0322524 255 255 0
-0.0117512 0.0848813 -0.0322558 255 255 0
-0.0096718 0.0848819 -0.0322553 255 255 0
-0.0075925 0.0848825 -0.0322550 255 255 0
-0.0055131 0.0848829 -0.0322548 255 255 0
-0.0034338 0.0848832 -0.0322546 255 255 0
-0.0013544 0.0848833 -0.0322545 255 255 0
0.0007249 0.0848834 -0.0322543 255 255 0
0.0028043 0.0848835 -0.0322541 255 255 0
0.0048836 0.0848835 -0.0322539 255 255 0
0.0069630 0.0848837 -0.0322538 255 255 0
0.0090425 0.0848840 -0.0322536 255 255 0
0.0111218 0.0848840 -0.0322535 255 255 0
0.0132012 0.0848841 -0.0322533 255 255 0
0.0152805 0.0848846 -0.0322530 255 255 0
0.0173599 0.0848853 -0.0322528 255 255 0
0.0194392 0.0848857 -0.0322527 255 255 0
0.0215186 0.0848859 -0.0322525 255 255 0
0.0235979 0.0848860 -0.0322525 255 255 0
-0.0055131 0.0869622 -0.0322549 255 255 0
-0.0034338 0.0869625 -0.0322546 255 255 0
-0.0013544 0.0869629 -0.0322544 255 255 0
0.0007249 0.0869630 -0.0322542 255 255 0
0.0028043 0.0869630 -0.0322540 255 255 0
0.0048836 0.0869631 -0.0322538 255 255 0
0.0069630 0.0869632 -0.0322536 255 255 0
0.0090425 0.0869636 -0.0322534 255 255 0
0.0111218 0.0869638 -0.0322532 255 255 0
0.0132012 0.0869639 -0.0322531 255 255 0
0.0152805 0.0869642 -0.0322529 255 255 0
0.0173599 0.0869650 -0.0322527 255 255 0
0.0194392 0.0869653 -0.0322527 255 255 0
0.0215186 0.0869654 -0.0322524 255 255 0
-0.0013544 0.0890423 -0.0322544 255 255 0
0.0007249 0.0890424 -0.0322541 255 255 0
0.0028043 0.0890427 -0.0322539 255 255 0
0.0048836 0.0890428 -0.0322536 255 255 0
0.0069630 0.0890430 -0.0322533 255 255 0
0.0090425 0.0890434 -0.0322531 255 255 0
0.0111218 0.0890435 -0.0322530 255 255 0
0.0132012 0.0890436 -0.0322528 255 255 0
0.0028043 0.0911224 -0.0322537 255 255 0
0.0048836 0.0911225 -0.0322534 255 255 0
0.0028043 0.0349574 -0.0301739 255 255 0
0.0048837 0.0349577 -0.0301738 255 255 0
0.0069631 0.0349579 -0.0301736 255 255 0
0.0090425 0.0349581 -0.0301734 255 255 0
0.0111218 0.0349582 -0.0301733 255 255 0
0.0132012 0.0349586 -0.0301732 255 255 0
-0.0055131 0.0370363 -0.0301741 255 255 0
-0.0034337 0.0370364 -0.0301740 255 255 0
-0.0013544 0.0370367 -0.0301740 255 255 0
0.0007250 0.0370368 -0.0301739 255 255 0
0.0028043 0.0370369 -0.0301738 255 255 0
0.0048837 0.0370371 -0.0301737 255 255 0
0.0069631 0.0370372 -0.0301736 255 255 0
0.0090425 0.0370373 -0.0301734 255 255 0
0.0111218 0.0370375 -0.0301733 255 255 0
0.0132012 0.0370376 -0.0301733 255 255 0
0.0152805 0.0370378 -0.0301732 255 255 0
0.0173599 0.0370380 -0.0301731 255 255 0
-0.0117511 0.0391147 -0.0301749 255 255 0
-0.0096717 0.0391156 -0.0301744 255 255 0
-0.0075924 0.0391158 -0.0301740 255 255 0
-0.0055131 0.0391159 -0.0301740 255 255 0
-0.0034337 0.0391161 -0.0301739 255 255 0
-0.0013544 0.0391163 -0.0301738 255 255 0
0.0007250 0.0391164 -0.0301738 255 255 0
0.0028043 0.0391165 -0.0301738 255 255 0
0.0048837 0.0391165 -0.0301737 255 255 0
0.0069631 0.0391166 -0.0301736 255 255 0
0.0090425 0.0391167 -0.0301735 255 255 0
0.0111218 0.0391168 -0.0301734 255 255 0
0.0132012 0.0391169 -0.0301734 255 255 0
0.0152805 0.0391170 -0.0301733 255 255 0
0.0173599 0.0391173 -0.0301732 255 255 0
0.0194392 0.0391175 -0.0301732 255 255 0
0.0215186 0.0391175 -0.0301731 255 255 0
-0.0117511 0.0411945 -0.0301747 255 255 0
-0.0096717 0.0411951 -0.0301742 255 255 0
-0.0075924 0.0411954 -0.0301739 255 255 0
-0.0055131 0.0411956 -0.0301738 255 255 0
-0.0034337 0.0411957 -0.0301738 255 255 0
-0.0013544 0.0411958 -0.0301737 255 255 0
0.0007250 0.0411959 -0.0301737 255 255 0
0.0028043 0.0411959 -0.0301737 255 255 0
0.0048837 0.0411960 -0.0301736 255 255 0
0.0069631 0.0411961 -0.0301736 255 255 0
0.0090425 0.0411962 -0.0301735 255 255 0
0.0111218 0.0411962 -0.0301734 255 255 0
0.0132012 0.0411963 -0.0301733 255 255 0
0.0152805 0.0411964 -0.0301733 255 255 0
0.0173599 0.0411966 -0.0301732 255 255 0
0.0194392 0.0411968 -0.0301732 255 255 0
0.0215186 0.0411969 -0.0301731 255 255 0
0.0235979 0.0411969 -0.0301729 255 255 0
0.0256773 0.0411971 -0.0301727 255 255 0
-0.0138304 0.0432737 -0.0301754 255 255 0
-0.0117510 0.0432742 -0.0301744 255 255 0
-0.0096717 0.0432748 -0.0301740 255 255 0
-0.0075924 0.0432750 -0.0301739 255 255 0
-0.0055131 0.0432751 -0.0301738 255 255 0
-0.0034337 0.0432751 -0.0301738 255 255 0
-0.0013544 0.0432752 -0.0301737 255 255 0
0.0007250 0.0432753 -0.0301737 255 255 0
0.0028043 0.0432753 -0.0301736 255 255 0
0.0048837 0.0432754 -0.0301735 255 255 0
0.0069631 0.0432754 -0.0301735 255 255 0
0.0090425 0.0432755 -0.0301734 255 255 0
0.0111218 0.0432756 -0.0301733 255 255 0
0.0132012 0.0432756 -0.0301733 255 255 0
0.0152805 0.0432757 -0.0301732 255 255 0
0.0173599 0.0432759 -0.0301732 255 255 0
0.0194392 0.0432761 -0.0301731 255 255 0
0.0215186 0.0432762 -0.0301730 255 255 0
0.0235979 0.0432763 -0.0301729 255 255 0
0.0256773 0.0432764 -0.0301727 255 255 0
0.0277566 0.0432766 -0.0301726 255 255 0
-0.0138304 0.0453533 -0.0301749 255 255 0
-0.0117510 0.0453539 -0.0301742 255 255 0
-0.0096717 0.0453544 -0.0301739 255 255 0
-0.0075924 0.0453545 -0.0301739 255 255 0
-0.0055131 0.0453546 -0.0301738 255 255 0
-0.0034337 0.0453546 -0.0301737 255 255 0
-0.0013544 0.0453546 -0.0301737 255 255 0
0.0007250 0.0453546 -0.0301736 255 255 0
0.0028043 0.0453547 -0.0301736 255 255 0
0.0048838 0.0453547 -0.0301735 255 255 0
0.0069631 0.0453547 -0.0301735 255 255 0
0.0090425 0.0453548 -0.0301735 255 255 0
0.0111218 0.0453548 -0.0301734 255 255 0
0.0132012 0.0453549 -0.0301734 255 255 0
0.0152805 0.0453550 -0.0301734 255 255 0
0.0173599 0.0453552 -0.0301733 255 255 0
0.0194392 0.0453554 -0.0301733 255 255 0
0.0215186 0.0453555 -0.0301731 255 255 0
0.0235979 0.0453557 -0.0301730 255 255 0
0.0256773 0.0453558 -0.0301727 255 255 0
0.0277566 0.0453560 -0.0301726 255 255 0
0.0298360 0.0453565 -0.0301726 255 255 0
-0.0159097 0.0474322 -0.0301757 255 255 0
-0.0138304 0.0474330 -0.0301745 255 255 0
-0.0117510 0.0474335 -0.0301741 255 255 0
-0.0096717 0.0474336 -0.0301740 255 255 0
-0.0075924 0.0474338 -0.0301738 255 255 0
-0.0055130 0.0474340 -0.0301736 255 255 0
-0.0034337 0.0474341 -0.0301735 255 255 0
-0.0013544 0.0474342 -0.0301735 255 255 0
0.0007250 0.0474342 -0.0301735 255 255 0
0.0028043 0.0474342 -0.0301735 255 255 0
0.0048838 0.0474343 -0.0301734 255 255 0
0.0069631 0.0474343 -0.0301734 255 255 0
0.0090425 0.0474343 -0.0301734 255 255 0
0.0111218 0.0474344 -0.0301734 255 255 0
0.0132012 0.0474344 -0.0301733 255 255 0
0.0152805 0.0474345 -0.0301733 255 255 0
0.0173599 0.0474346 -0.0301733 255 255 0
0.0194392 0.0474348 -0.0301732 255 255 0
0.0215186 0.0474349 -0.0301731 255 255 0
0.0235979 0.0474349 -0.0301730 255 255 0
0.0256773 0.0474352 -0.0301727 255 255 0
0.0277566 0.0474354 -0.0301727 255 255 0
0.0298360 0.0474359 -0.0301726 255 255 0
-0.0159097 0.0495120 -0.0301753 255 255 0
-0.0138304 0.0495129 -0.0301742 255 255 0
-0.0117510 0.0495132 -0.0301740 255 255 0
-0.0096717 0.0495133 -0.0301738 255 255 0
-0.0075924 0.0495133 -0.0301737 255 255 0
-0.0055131 0.0495134 -0.0301736 255 255 0
-0.0034337 0.0495135 -0.0301735 255 255 0
-0.0013544 0.0495135 -0.0301735 255 255 0
0.0007250 0.0495135 -0.0301735 255 255 0
0.0028043 0.0495135 -0.0301735 255 255 0
0.0048838 0.0495136 -0.0301735 255 255 0
0.0069631 0.0495136 -0.0301735 255 255 0
0.0090425 0.0495136 -0.0301735 255 255 0
0.0111218 0.0495137 -0.0301735 255 255 0
0.0132012 0.0495137 -0.0301734 255 255 0
0.0152805 0.0495139 -0.0301734 255 255 0
0.0173599 0.0495140 -0.0301733 255 255 0
0.0194392 0.0495141 -0.0301732 255 255 0
0.0215186 0.0495143 -0.0301732 255 255 0
0.0235979 0.0495143 -0.0301729 255 255 0
0.0256773 0.0495145 -0.0301727 255 255 0
0.0277566 0.0495147 -0.0301727 255 255 0
0.0298360 0.0495153 -0.0301726 255 255 0
-0.0159097 0.0515917 -0.0301749 255 255 0
-0.0138304 0.0515924 -0.0301742 255 255 0
-0.0117510 0.0515925 -0.0301740 255 255 0
-0.0096717 0.0515927 -0.0301738 255 255 0
-0.0075924 0.0515929 -0.0301735 255 255 0
-0.0055130 0.0515930 -0.0301735 255 255 0
-0.0034337 0.0515931 -0.0301735 255 255 0
-0.0013544 0.0515932 -0.0301735 255 255 0
0.0007250 0.0515932 -0.0301734 255 255 0
0.0028043 0.0515932 -0.0301734 255 255 0
0.0048838 0.0515933 -0.0301734 255 255 0
0.0069631 0.0515933 -0.0301734 255 255 0
0.0090425 0.0515933 -0.0301734 255 255 0
0.0111218 0.0515933 -0.0301733 255 255 0
0.0132012 0.0515934 -0.0301733 255 255 0
0.0152805 0.0515934 -0.0301733 255 255 0
0.0173599 0.0515936 -0.0301733 255 255 0
0.0194392 0.0515936 -0.0301733 255 255 0
0.0215186 0.0515937 -0.0301731 255 255 0
0.0235979 0.0515937 -0.0301730 255 255 0
0.0256773 0.0515939 -0.0301728 255 255 0
0.0277566 0.0515940 -0.0301727 255 255 0
0.0298360 0.0515946 -0.0301726 255 255 0
-0.0179891 0.0536709 -0.0301756 255 255 0
-0.0159097 0.0536716 -0.0301746 255 255 0
-0.0138304 0.0536720 -0.0301741 255 255 0
-0.0117510 0.0536721 -0.0301738 255 255 0
-0.0096717 0.0536722 -0.0301737 255 255 0
-0.0075924 0.0536723 -0.0301736 255 255 0
-0.0055130 0.0536724 -0.0301736 255 255 0
-0.0034337 0.0536724 -0.0301735 255 255 0
-0.0013544 0.0536724 -0.0301735 255 255 0
0.0007250 0.0536725 -0.0301735 255 255 0
0.0028043 0.0536725 -0.0301735 255 255 0
0.0048838 0.0536725 -0.0301735 255 255 0
0.0069631 0.0536725 -0.0301735 255 255 0
0.0090425 0.0536726 -0.0301735 255 255 0
0.0111218 0.0536727 -0.0301735 255 255 0
0.0132012 0.0536727 -0.0301735 255 255 0
0.0152805 0.0536728 -0.0301734 255 255 0
0.0173599 0.0536729 -0.0301733 255 255 0
0.0194392 0.0536729 -0.0301732 255 255 0
0.0215186 0.0536731 -0.0301732 255 255 0
0.0235979 0.0536732 -0.0301729 255 255 0
0.0256773 0.0536733 -0.0301727 255 255 0
0.0277566 0.0536735 -0.0301727 255 255 0
0.0298360 0.0536739 -0.0301726 255 255 0
-0.0179891 0.0557506 -0.0301753 255 255 0
-0.0159097 0.0557514 -0.0301745 255 255 0
-0.0138304 0.0557515 -0.0301741 255 255 0
-0.0117510 0.0557516 -0.0301738 255 255 0
-0.0096717 0.0557518 -0.0301736 255 255 0
-0.0075924 0.0557521 -0.0301735 255 255 0
-0.0055130 0.0557521 -0.0301735 255 255 0
-0.0034337 0.0557521 -0.0301735 255 255 0
-0.0013544 0.0557522 -0.0301735 255 255 0
0.0007250 0.0557522 -0.0301735 255 255 0
0.0028043 0.0557522 -0.0301735 255 255 0
0.0048838 0.0557522 -0.0301735 255 255 0
0.0069631 0.0557522 -0.0301734 255 255 0
0.0090425 0.0557523 -0.0301734 255 255 0
0.0111218 0.0557523 -0.0301734 255 255 0
0.0132012 0.0557523 -0.0301734 255 255 0
0.0152805 0.0557524 -0.0301733 255 255 0
0.0173599 0.0557525 -0.0301733 255 255 0
0.0194392 0.0557524 -0.0301733 255 255 0
0.0215186 0.0557524 -0.0301731 255 255 0
0.0235979 0.0557525 -0.0301730 255 255 0
0.0256773 0.0557527 -0.0301728 255 255 0
0.0277566 0.0557528 -0.0301727 255 255 0
0.0298360 0.0557534 -0.0301726 255 255 0
-0.0179891 0.0578300 -0.0301752 255 255 0
-0.0159097 0.0578309 -0.0301744 255 255 0
-0.0138304 0.0578312 -0.0301739 255 255 0
-0.0117510 0.0578313 -0.0301738 255 255 0
-0.0096717 0.0578313 -0.0301736 255 255 0
-0.0075924 0.0578314 -0.0301736 255 255 0
-0.0055130 0.0578315 -0.0301736 255 255 0
-0.0034337 0.0578315 -0.0301736 255 255 0
-0.0013544 0.0578316 -0.0301735 255 255 0
0.0007250 0.0578316 -0.0301735 255 255 0
0.0028043 0.0578316 -0.0301735 255 255 0
0.0048838 0.0578316 -0.0301735 255 255 0
0.0069631 0.0578317 -0.0301735 255 255 0
0.0090425 0.0578317 -0.0301735 255 255 0
0.0111218 0.0578318 -0.0301735 255 255 0
0.0132012 0.0578318 -0.0301735 255 255 0
0.0152805 0.0578319 -0.0301734 255 255 0
0.0173599 0.0578319 -0.0301734 255 255 0
0.0194392 0.0578320 -0.0301732 255 255 0
0.0215186 0.0578320 -0.0301731 255 255 0
0.0235979 0.0578320 -0.0301729 255 255 0
0.0256773 0.0578320 -0.0301727 255 255 0
0.0277566 0.0578323 -0.0301727 255 255 0
0.0298360 0.0578328 -0.0301726 255 255 0
0.0319153 0.0578328 -0.0301725 255 255 0
-0.0200684 0.0599086 -0.0301762 255 255 0
-0.0179891 0.0599097 -0.0301750 255 255 0
-0.0159097 0.0599103 -0.0301745 255 255 0
-0.0138304 0.0599104 -0.0301741 255 255 0
-0.0117510 0.0599106 -0.0301738 255 255 0
-0.0096717 0.0599108 -0.0301736 255 255 0
-0.0075924 0.0599110 -0.0301735 255 255 0
-0.0055130 0.0599110 -0.0301735 255 255 0
-0.0034337 0.0599111 -0.0301735 255 255 0
-0.0013544 0.0599111 -0.0301735 255 255 0
0.0007250 0.0599111 -0.0301735 255 255 0
0.0028043 0.0599111 -0.0301735 255 255 0
0.0048838 0.0599111 -0.0301734 255 255 0
0.0069631 0.0599111 -0.0301734 255 255 0
0.0090425 0.0599112 -0.0301734 255 255 0
0.0111218 0.0599112 -0.0301734 255 255 0
0.0132012 0.0599112 -0.0301734 255 255 0
0.0152805 0.0599114 -0.0301734 255 255 0
0.0173599 0.0599114 -0.0301733 255 255 0
0.0194392 0.0599114 -0.0301733 255 255 0
0.0215186 0.0599115 -0.0301731 255 255 0
0.0235979 0.0599115 -0.0301729 255 255 0
0.0256773 0.0599116 -0.0301727 255 255 0
0.0277566 0.0599116 -0.0301727 255 255 0
0.0298360 0.0599122 -0.0301726 255 255 0
0.0319153 0.0599122 -0.0301725 255 255 0
-0.0200684 0.0619878 -0.0301761 255 255 0
-0.0179891 0.0619892 -0.0301750 255 255 0
-0.0159097 0.0619897 -0.0301744 255 255 0
-0.0138304 0.0619901 -0.0301740 255 255 0
-0.0117510 0.0619902 -0.0301738 255 255 0
-0.0096717 0.0619903 -0.0301737 255 255 0
-0.0075924 0.0619903 -0.0301737 255 255 0
-0.0055130 0.0619904 -0.0301736 255 255 0
-0.0034337 0.0619905 -0.0301736 255 255 0
-0.0013544 0.0619905 -0.0301736 255 255 0
0.0007250 0.0619905 -0.0301736 255 255 0
0.0028043 0.0619905 -0.0301736 255 255 0
0.0048838 0.0619905 -0.0301736 255 255 0
0.0069631 0.0619906 -0.0301736 255 255 0
0.0090425 0.0619906 -0.0301736 255 255 0
0.0111218 0.0619907 -0.0301735 255 255 0
0.0132012 0.0619907 -0.0301735 255 255 0
0.0152805 0.0619907 -0.0301734 255 255 0
0.0173599 0.0619908 -0.0301733 255 255 0
0.0194392 0.0619909 -0.0301732 255 255 0
0.0215186 0.0619909 -0.0301731 255 255 0
0.0235979 0.0619910 -0.0301729 255 255 0
0.0256773 0.0619911 -0.0301727 255 255 0
0.0277566 0.0619912 -0.0301727 255 255 0
0.0298360 0.0619916 -0.0301726 255 255 0
0.0319153 0.0619916 -0.0301725 255 255 0
-0.0179891 0.0640896 -0.0301751 255 255 0
-0.0159097 0.0640905 -0.0301745 255 255 0
-0.0138304 0.0640913 -0.0301741 255 255 0
-0.0117510 0.0640914 -0.0301739 255 255 0
-0.0096717 0.0640914 -0.0301737 255 255 0
-0.0075924 0.0640915 -0.0301736 255 255 0
-0.0055130 0.0640915 -0.0301736 255 255 0
-0.0034337 0.0640915 -0.0301736 255 255 0
-0.0013544 0.0640915 -0.0301736 255 255 0
0.0007250 0.0640915 -0.0301736 255 255 0
0.0028043 0.0640915 -0.0301735 255 255 0
0.0048838 0.0640915 -0.0301735 255 255 0
0.0069631 0.0640916 -0.0301735 255 255 0
0.0090425 0.0640916 -0.0301735 255 255 0
0.0111218 0.0640916 -0.0301734 255 255 0
0.0132012 0.0640918 -0.0301734 255 255 0
0.0152805 0.0640920 -0.0301734 255 255 0
0.0173599 0.0640920 -0.0301733 255 255 0
0.0194392 0.0640921 -0.0301733 255 255 0
0.0215186 0.0640921 -0.0301731 255 255 0
0.0235979 0.0640923 -0.0301728 255 255 0
0.0256773 0.0640924 -0.0301727 255 255 0
0.0277566 0.0640928 -0.0301727 255 255 0
0.0298360 0.0640930 -0.0301725 255 255 0
0.0319153 0.0640933 -0.0301725 255 255 0
-0.0179891 0.0661689 -0.0301751 255 255 0
-0.0159097 0.0661699 -0.0301745 255 255 0
-0.0138304 0.0661709 -0.0301741 255 255 0
-0.0117510 0.0661709 -0.0301739 255 255 0
-0.0096717 0.0661709 -0.0301738 255 255 0
-0.0075924 0.0661710 -0.0301737 255 255 0
-0.0055130 0.0661710 -0.0301737 255 255 0
-0.0034337 0.0661710 -0.0301737 255 255 0
-0.0013544 0.0661710 -0.0301737 255 255 0
0.0007250 0.0661710 -0.0301737 255 255 0
0.0028043 0.0661710 -0.0301737 255 255 0
0.0048838 0.0661710 -0.0301736 255 255 0
0.0069631 0.0661710 -0.0301736 255 255 0
0.0090425 0.0661711 -0.0301736 255 255 0
0.0111218 0.0661711 -0.0301736 255 255 0
0.0132012 0.0661711 -0.0301735 255 255 0
0.0152805 0.0661711 -0.0301734 255 255 0
0.0173599 0.0661712 -0.0301733 255 255 0
0.0194392 0.0661713 -0.0301732 255 255 0
0.0215186 0.0661717 -0.0301731 255 255 0
0.0235979 0.0661718 -0.0301729 255 255 0
0.0256773 0.0661719 -0.0301727 255 255 0
0.0277566 0.0661720 -0.0301726 255 255 0
0.0298360 0.0661725 -0.0301726 255 255 0
0.0319153 0.0661727 -0.0301724 255 255 0
-0.0179891 0.0682482 -0.0301751 255 255 0
-0.0159097 0.0682492 -0.0301746 255 255 0
-0.0138304 0.0682501 -0.0301742 255 255 0
-0.0117510 0.0682501 -0.0301739 255 255 0
-0.0096717 0.0682502 -0.0301737 255 255 0
-0.0075924 0.0682502 -0.0301737 255 255 0
-0.0055130 0.0682502 -0.0301737 255 255 0
-0.0034337 0.0682503 -0.0301736 255 255 0
-0.0013544 0.0682503 -0.0301736 255 255 0
0.0007250 0.0682503 -0.0301736 255 255 0
0.0028043 0.0682503 -0.0301736 255 255 0
0.0048838 0.0682503 -0.0301736 255 255 0
0.0069631 0.0682503 -0.0301736 255 255 0
0.0090425 0.0682504 -0.0301735 255 255 0
0.0111218 0.0682506 -0.0301735 255 255 0
0.0132012 0.0682506 -0.0301735 255 255 0
0.0152805 0.0682507 -0.0301734 255 255 0
0.0173599 0.0682507 -0.0301733 255 255 0
0.0194392 0.0682508 -0.0301732 255 255 0
0.0215186 0.0682508 -0.0301730 255 255 0
0.0235979 0.0682510 -0.0301727 255 255 0
0.0256773 0.0682514 -0.0301727 255 255 0
0.0277566 0.0682515 -0.0301726 255 255 0
0.0298360 0.0682519 -0.0301725 255 255 0
0.0319153 0.0682522 -0.0301724 255 255 0
-0.0179891 0.0703278 -0.0301752 255 255 0
-0.0159097 0.0703285 -0.0301745 255 255 0
-0.0138304 0.0703295 -0.0301741 255 255 0
-0.0117510 0.0703297 -0.0301740 255 255 0
-0.0096717 0.0703297 -0.0301738 255 255 0
-0.0075924 0.0703297 -0.0301738 255 255 0
-0.0055130 0.0703297 -0.0301738 255 255 0
-0.0034337 0.0703297 -0.0301737 255 255 0
-0.0013544 0.0703298 -0.0301737 255 255 0
0.0007250 0.0703298 -0.0301737 255 255 0
0.0028043 0.0703298 -0.0301737 255 255 0
0.0048838 0.0703298 -0.0301737 255 255 0
0.0069631 0.0703298 -0.0301736 255 255 0
0.0090425 0.0703298 -0.0301736 255 255 0
0.0111218 0.0703298 -0.0301735 255 255 0
0.0132012 0.0703299 -0.0301735 255 255 0
0.0152805 0.0703299 -0.0301734 255 255 0
0.0173599 0.0703300 -0.0301733 255 255 0
0.0194392 0.0703303 -0.0301731 255 255 0
0.0215186 0.0703304 -0.0301729 255 255 0
0.0235979 0.0703305 -0.0301728 255 255 0
0.0256773 0.0703306 -0.0301727 255 255 0
0.0277566 0.0703311 -0.0301726 255 255 0
0.0298360 0.0703312 -0.0301725 255 255 0
-0.0179891 0.0724068 -0.0301752 255 255 0
-0.0159097 0.0724077 -0.0301745 255 255 0
-0.0138304 0.0724089 -0.0301742 255 255 0
-0.0117510 0.0724090 -0.0301739 255 255 0
-0.0096717 0.0724090 -0.0301738 255 255 0
-0.0075924 0.0724090 -0.0301737 255 255 0
-0.0055130 0.0724090 -0.0301737 255 255 0
-0.0034337 0.0724090 -0.0301737 255 255 0
-0.0013544 0.0724090 -0.0301737 255 255 0
0.0007250 0.0724092 -0.0301736 255 255 0
0.0028043 0.0724093 -0.0301736 255 255 0
0.0048838 0.0724093 -0.0301736 255 255 0
0.0069631 0.0724093 -0.0301735 255 255 0
0.0090425 0.0724094 -0.0301735 255 255 0
0.0111218 0.0724094 -0.0301735 255 255 0
0.0132012 0.0724094 -0.0301734 255 255 0
0.0152805 0.0724094 -0.0301734 255 255 0
0.0173599 0.0724094 -0.0301733 255 255 0
0.0194392 0.0724095 -0.0301731 255 255 0
0.0215186 0.0724096 -0.0301729 255 255 0
0.0235979 0.0724100 -0.0301727 255 255 0
0.0256773 0.0724101 -0.0301726 255 255 0
0.0277566 0.0724103 -0.0301726 255 255 0
0.0298360 0.0724108 -0.0301725 255 255 0
-0.0179891 0.0744860 -0.0301755 255 255 0
-0.0159097 0.0744870 -0.0301747 255 255 0
-0.0138304 0.0744881 -0.0301742 255 255 0
-0.0117510 0.0744884 -0.0301740 255 255 0
-0.0096717 0.0744884 -0.0301739 255 255 0
-0.0075924 0.0744884 -0.0301738 255 255 0
-0.0055130 0.0744884 -0.0301737 255 255 0
-0.0034337 0.0744885 -0.0301737 255 255 0
-0.0013544 0.0744885 -0.0301737 255 255 0
0.0007250 0.0744885 -0.0301737 255 255 0
0.0028043 0.0744885 -0.0301737 255 255 0
0.0048838 0.0744885 -0.0301736 255 255 0
0.0069631 0.0744885 -0.0301735 255 255 0
0.0090425 0.0744886 -0.0301735 255 255 0
0.0111218 0.0744886 -0.0301734 255 255 0
0.0132012 0.0744889 -0.0301734 255 255 0
0.0152805 0.0744890 -0.0301733 255 255 0
0.0173599 0.0744890 -0.0301732 255 255 0
0.0194392 0.0744891 -0.0301730 255 255 0
0.0215186 0.0744892 -0.0301728 255 255 0
0.0235979 0.0744892 -0.0301727 255 255 0
0.0256773 0.0744897 -0.0301726 255 255 0
0.0277566 0.0744898 -0.0301725 255 255 0
-0.0159097 0.0765663 -0.0301748 255 255 0
-0.0138304 0.0765674 -0.0301742 255 255 0
-0.0117510 0.0765679 -0.0301739 255 255 0
-0.0096717 0.0765679 -0.0301738 255 255 0
-0.0075924 0.0765680 -0.0301737 255 255 0
-0.0055130 0.0765680 -0.0301737 255 255 0
-0.0034337 0.0765681 -0.0301737 255 255 0
-0.0013544 0.0765681 -0.0301736 255 255 0
0.0007250 0.0765681 -0.0301736 255 255 0
0.0028043 0.0765681 -0.0301736 255 255 0
0.0048838 0.0765681 -0.0301736 255 255 0
0.0069631 0.0765681 -0.0301736 255 255 0
0.0090425 0.0765681 -0.0301735 255 255 0
0.0111218 0.0765681 -0.0301734 255 255 0
0.0132012 0.0765682 -0.0301733 255 255 0
0.0152805 0.0765682 -0.0301732 255 255 0
0.0173599 0.0765685 -0.0301731 255 255 0
0.0194392 0.0765686 -0.0301729 255 255 0
0.0215186 0.0765687 -0.0301727 255 255 0
0.0235979 0.0765688 -0.0301727 255 255 0
0.0256773 0.0765690 -0.0301726 255 255 0
0.0277566 0.0765693 -0.0301725 255 255 0
-0.0159097 0.0786457 -0.0301748 255 255 0
-0.0138304 0.0786468 -0.0301743 255 255 0
-0.0117510 0.0786474 -0.0301740 255 255 0
-0.0096717 0.0786475 -0.0301738 255 255 0
-0.0075924 0.0786475 -0.0301737 255 255 0
-0.0055130 0.0786475 -0.0301737 255 255 0
-0.0034337 0.0786475 -0.0301736 255 255 0
-0.0013544 0.0786476 -0.0301736 255 255 0
0.0007250 0.0786476 -0.0301736 255 255 0
0.0028043 0.0786476 -0.0301735 255 255 0
0.0048838 0.0786476 -0.0301735 255 255 0
0.0069631 0.0786476 -0.0301734 255 255 0
0.0090425 0.0786477 -0.0301734 255 255 0
0.0111218 0.0786477 -0.0301734 255 255 0
0.0132012 0.0786477 -0.0301733 255 255 0
0.0152805 0.0786478 -0.0301732 255 255 0
0.0173599 0.0786478 -0.0301730 255 255 0
0.0194392 0.0786480 -0.0301727 255 255 0
0.0215186 0.0786482 -0.0301727 255 255 0
0.0235979 0.0786483 -0.0301727 255 255 0
0.0256773 0.0786485 -0.0301725 255 255 0
0.0277566 0.0786489 -0.0301725 255 255 0
-0.0159097 0.0807252 -0.0301748 255 255 0
-0.0138304 0.0807260 -0.0301743 255 255 0
-0.0117510 0.0807266 -0.0301740 255 255 0
-0.0096717 0.0807270 -0.0301738 255 255 0
-0.0075924 0.0807268 -0.0301737 255 255 0
-0.0055130 0.0807268 -0.0301736 255 255 0
-0.0034337 0.0807268 -0.0301736 255 255 0
-0.0013544 0.0807269 -0.0301735 255 255 0
0.0007250 0.0807270 -0.0301735 255 255 0
0.0028043 0.0807271 -0.0301735 255 255 0
0.0048838 0.0807272 -0.0301734 255 255 0
0.0069631 0.0807272 -0.0301734 255 255 0
0.0090425 0.0807272 -0.0301733 255 255 0
0.0111218 0.0807272 -0.0301732 255 255 0
0.0132012 0.0807272 -0.0301732 255 255 0
0.0152805 0.0807273 -0.0301731 255 255 0
0.0173599 0.0807273 -0.0301728 255 255 0
0.0194392 0.0807274 -0.0301727 255 255 0
0.0215186 0.0807278 -0.0301726 255 255 0
0.0235979 0.0807279 -0.0301726 255 255 0
0.0256773 0.0807280 -0.0301725 255 255 0
-0.0159097 0.0828045 -0.0301750 255 255 0
-0.0138304 0.0828053 -0.0301744 255 255 0
-0.0117510 0.0828056 -0.0301741 255 255 0
-0.0096717 0.0828059 -0.0301738 255 255 0
-0.0075924 0.0828061 -0.0301737 255 255 0
-0.0055130 0.0828062 -0.0301737 255 255 0
-0.0034337 0.0828062 -0.0301736 255 255 0
-0.0013544 0.0828063 -0.0301735 255 255 0
0.0007250 0.0828063 -0.0301734 255 255 0
0.0028044 0.0828064 -0.0301734 255 255 0
0.0048838 0.0828066 -0.0301734 255 255 0
0.0069631 0.0828068 -0.0301733 255 255 0
0.0090425 0.0828068 -0.0301733 255 255 0
0.0111218 0.0828068 -0.0301732 255 255 0
0.0132012 0.0828068 -0.0301731 255 255 0
0.0152805 0.0828069 -0.0301729 255 255 0
0.0173599 0.0828069 -0.0301727 255 255 0
0.0194392 0.0828069 -0.0301727 255 255 0
0.0215186 0.0828070 -0.0301726 255 255 0
0.0235979 0.0828074 -0.0301726 255 255 0
0.0256773 0.0828075 -0.0301725 255 255 0
-0.0096717 0.0848851 -0.0301742 255 255 0
-0.0075924 0.0848854 -0.0301739 255 255 0
-0.0055130 0.0848857 -0.0301737 255 255 0
-0.0034337 0.0848858 -0.0301736 255 255 0
-0.0013544 0.0848859 -0.0301735 255 255 0
0.0007250 0.0848859 -0.0301735 255 255 0
0.0028043 0.0848859 -0.0301734 255 255 0
0.0048838 0.0848859 -0.0301733 255 255 0
0.0069631 0.0848861 -0.0301732 255 255 0
0.0090425 0.0848863 -0.0301731 255 255 0
0.0111218 0.0848863 -0.0301730 255 255 0
0.0132012 0.0848863 -0.0301728 255 255 0
0.0152805 0.0848863 -0.0301727 255 255 0
0.0173599 0.0848863 -0.0301727 255 255 0
0.0194392 0.0848864 -0.0301727 255 255 0
0.0215186 0.0848865 -0.0301726 255 255 0
0.0235979 0.0848869 -0.0301725 255 255 0
0.0256773 0.0848870 -0.0301725 255 255 0
-0.0055130 0.0869651 -0.0301738 255 255 0
-0.0034337 0.0869652 -0.0301736 255 255 0
-0.0013544 0.0869653 -0.0301735 255 255 0
0.0007250 0.0869653 -0.0301734 255 255 0
0.0028044 0.0869653 -0.0301733 255 255 0
0.0048838 0.0869654 -0.0301732 255 255 0
0.0069631 0.0869654 -0.0301731 255 255 0
0.0090425 0.0869657 -0.0301730 255 255 0
0.0111218 0.0869657 -0.0301729 255 255 0
0.0132012 0.0869657 -0.0301728 255 255 0
0.0152805 0.0869658 -0.0301727 255 255 0
0.0173599 0.0869658 -0.0301727 255 255 0
0.0194392 0.0869658 -0.0301726 255 255 0
0.0215186 0.0869659 -0.0301725 255 255 0
-0.0013544 0.0890446 -0.0301736 255 255 0
0.0007250 0.0890447 -0.0301734 255 255 0
0.0028044 0.0890448 -0.0301732 255 255 0
0.0048838 0.0890448 -0.0301731 255 255 0
0.0069631 0.0890449 -0.0301729 255 255 0
0.0090425 0.0890452 -0.0301728 255 255 0
0.0111218 0.0890452 -0.0301728 255 255 0
0.0132012 0.0890452 -0.0301727 255 255 0
0.0028044 0.0911242 -0.0301732 255 255 0
0.0048838 0.0911243 -0.0301729 255 255 0
0.0028044 0.0349588 -0.0280938 255 255 0
0.0048838 0.0349588 -0.0280937 255 255 0
0.0069631 0.0349589 -0.0280935 255 255 0
0.0090425 0.0349591 -0.0280933 255 255 0
0.0111218 0.0349592 -0.0280932 255 255 0
0.0132012 0.0349593 -0.0280932 255 255 0
-0.0055130 0.0370380 -0.0280939 255 255 0
-0.0034337 0.0370381 -0.0280938 255 255 0
-0.0013544 0.0370382 -0.0280938 255 255 0
0.0007250 0.0370382 -0.0280938 255 255 0
0.0028044 0.0370382 -0.0280937 255 255 0
0.0048838 0.0370382 -0.0280936 255 255 0
0.0069631 0.0370382 -0.0280935 255 255 0
0.0090425 0.0370383 -0.0280934 255 255 0
0.0111218 0.0370384 -0.0280933 255 255 0
0.0132012 0.0370385 -0.0280933 255 255 0
0.0152805 0.0370387 -0.0280933 255 255 0
0.0173599 0.0370388 -0.0280932 255 255 0
-0.0117510 0.0391166 -0.0280943 255 255 0
-0.0096717 0.0391169 -0.0280940 255 255 0
-0.0075923 0.0391173 -0.0280938 255 255 0
-0.0055130 0.0391175 -0.0280938 255 255 0
-0.0034337 0.0391175 -0.0280937 255 255 0
-0.0013543 0.0391175 -0.0280937 255 255 0
0.0007250 0.0391176 -0.0280937 255 255 0
0.0028044 0.0391176 -0.0280936 255 255 0
0.0048838 0.0391176 -0.0280936 255 255 0
0.0069631 0.0391177 -0.0280934 255 255 0
0.0090425 0.0391177 -0.0280934 255 255 0
0.0111218 0.0391178 -0.0280933 255 255 0
0.0132012 0.0391178 -0.0280933 255 255 0
0.0152805 0.0391179 -0.0280933 255 255 0
0.0173599 0.0391180 -0.0280932 255 255 0
0.0194392 0.0391182 -0.0280932 255 255 0
0.0215186 0.0391184 -0.0280932 255 255 0
-0.0117510 0.0411962 -0.0280941 255 255 0
-0.0096717 0.0411965 -0.0280939 255 255 0
-0.0075923 0.0411968 -0.0280938 255 255 0
-0.0055130 0.0411969 -0.0280937 255 255 0
-0.0034337 0.0411970 -0.0280936 255 255 0
-0.0013543 0.0411970 -0.0280936 255 255 0
0.0007250 0.0411970 -0.0280936 255 255 0
0.0028044 0.0411970 -0.0280935 255 255 0
0.0048838 0.0411971 -0.0280934 255 255 0
0.0069631 0.0411971 -0.0280934 255 255 0
0.0090425 0.0411971 -0.0280933 255 255 0
0.0111218 0.0411971 -0.0280933 255 255 0
0.0132012 0.0411972 -0.0280933 255 255 0
0.0152805 0.0411973 -0.0280932 255 255 0
0.0173599 0.0411973 -0.0280932 255 255 0
0.0194392 0.0411974 -0.0280932 255 255 0
0.0215186 0.0411977 -0.0280932 255 255 0
0.0235979 0.0411979 -0.0280931 255 255 0
0.0256773 0.0411979 -0.0280931 255 255 0
-0.0117510 0.0432757 -0.0280939 255 255 0
-0.0096717 0.0432761 -0.0280938 255 255 0
-0.0075923 0.0432762 -0.0280937 255 255 0
-0.0055130 0.0432763 -0.0280937 255 255 0
-0.0034337 0.0432764 -0.0280936 255 255 0
-0.0013543 0.0432764 -0.0280936 255 255 0
0.0007250 0.0432764 -0.0280935 255 255 0
0.0028044 0.0432765 -0.0280935 255 255 0
0.0048838 0.0432765 -0.0280934 255 255 0
0.0069631 0.0432765 -0.0280934 255 255 0
0.0090425 0.0432765 -0.0280934 255 255 0
0.0111218 0.0432766 -0.0280934 255 255 0
0.0132012 0.0432766 -0.0280933 255 255 0
0.0152805 0.0432766 -0.0280933 255 255 0
0.0173599 0.0432767 -0.0280933 255 255 0
0.0194392 0.0432768 -0.0280932 255 255 0
0.0215186 0.0432769 -0.0280931 255 255 0
0.0235979 0.0432772 -0.0280931 255 255 0
0.0256773 0.0432772 -0.0280931 255 255 0
0.0277566 0.0432772 -0.0280930 255 255 0
0.0298360 0.0432772 -0.0280928 255 255 0
-0.0138304 0.0453548 -0.0280942 255 255 0
-0.0117510 0.0453554 -0.0280939 255 255 0
-0.0096717 0.0453556 -0.0280938 255 255 0
-0.0075923 0.0453556 -0.0280936 255 255 0
-0.0055130 0.0453557 -0.0280936 255 255 0
-0.0034337 0.0453557 -0.0280935 255 255 0
-0.0013543 0.0453557 -0.0280935 255 255 0
0.0007250 0.0453557 -0.0280934 255 255 0
0.0028044 0.0453558 -0.0280934 255 255 0
0.0048838 0.0453558 -0.0280934 255 255 0
0.0069631 0.0453558 -0.0280934 255 255 0
0.0090425 0.0453558 -0.0280933 255 255 0
0.0111218 0.0453559 -0.0280933 255 255 0
0.0132012 0.0453559 -0.0280933 255 255 0
0.0152805 0.0453560 -0.0280933 255 255 0
0.0173599 0.0453561 -0.0280933 255 255 0
0.0194392 0.0453562 -0.0280933 255 255 0
0.0215186 0.0453563 -0.0280932 255 255 0
0.0235979 0.0453566 -0.0280932 255 255 0
0.0256773 0.0453566 -0.0280930 255 255 0
0.0277566 0.0453566 -0.0280930 255 255 0
0.0298360 0.0453566 -0.0280928 255 255 0
-0.0138304 0.0474346 -0.0280940 255 255 0
-0.0117510 0.0474348 -0.0280938 255 255 0
-0.0096717 0.0474350 -0.0280937 255 255 0
-0.0075923 0.0474351 -0.0280936 255 255 0
-0.0055130 0.0474351 -0.0280935 255 255 0
-0.0034337 0.0474351 -0.0280934 255 255 0
-0.0013543 0.0474351 -0.0280934 255 255 0
0.0007250 0.0474351 -0.0280934 255 255 0
0.0028044 0.0474351 -0.0280934 255 255 0
0.0048838 0.0474352 -0.0280934 255 255 0
0.0069631 0.0474352 -0.0280934 255 255 0
0.0090425 0.0474352 -0.0280933 255 255 0
0.0111218 0.0474352 -0.0280933 255 255 0
0.0132012 0.0474352 -0.0280933 255 255 0
0.0152805 0.0474353 -0.0280933 255 255 0
0.0173599 0.0474353 -0.0280932 255 255 0
0.0194392 0.0474355 -0.0280932 255 255 0
0.0215186 0.0474357 -0.0280932 255 255 0
0.0235979 0.0474360 -0.0280932 255 255 0
0.0256773 0.0474360 -0.0280931 255 255 0
0.0277566 0.0474360 -0.0280930 255 255 0
0.0298360 0.0474360 -0.0280928 255 255 0
-0.0159097 0.0495135 -0.0280943 255 255 0
-0.0138304 0.0495141 -0.0280940 255 255 0
-0.0117510 0.0495143 -0.0280938 255 255 0
-0.0096717 0.0495143 -0.0280935 255 255 0
-0.0075923 0.0495143 -0.0280934 255 255 0
-0.0055130 0.0495144 -0.0280934 255 255 0
-0.0034337 0.0495145 -0.0280934 255 255 0
-0.0013543 0.0495145 -0.0280934 255 255 0
0.0007250 0.0495145 -0.0280934 255 255 0
0.0028044 0.0495145 -0.0280934 255 255 0
0.0048838 0.0495146 -0.0280934 255 255 0
0.0069631 0.0495146 -0.0280934 255 255 0
0.0090425 0.0495146 -0.0280934 255 255 0
0.0111218 0.0495146 -0.0280933 255 255 0
0.0132012 0.0495147 -0.0280933 255 255 0
0.0152805 0.0495147 -0.0280933 255 255 0
0.0173599 0.0495147 -0.0280933 255 255 0
0.0194392 0.0495148 -0.0280933 255 255 0
0.0215186 0.0495152 -0.0280933 255 255 0
0.0235979 0.0495153 -0.0280931 255 255 0
0.0256773 0.0495153 -0.0280931 255 255 0
0.0277566 0.0495153 -0.0280930 255 255 0
0.0298360 0.0495153 -0.0280928 255 255 0
-0.0159097 0.0515933 -0.0280941 255 255 0
-0.0138304 0.0515936 -0.0280938 255 255 0
-0.0117510 0.0515936 -0.0280937 255 255 0
-0.0096717 0.0515938 -0.0280935 255 255 0
-0.0075923 0.0515938 -0.0280935 255 255 0
-0.0055130 0.0515938 -0.0280934 255 255 0
-0.0034337 0.0515938 -0.0280934 255 255 0
-0.0013543 0.0515939 -0.0280934 255 255 0
0.0007250 0.0515939 -0.0280934 255 255 0
0.0028044 0.0515939 -0.0280934 255 255 0
0.0048838 0.0515939 -0.0280934 255 255 0
0.0069631 0.0515939 -0.0280933 255 255 0
0.0090425 0.0515939 -0.0280933 255 255 0
0.0111218 0.0515939 -0.0280933 255 255 0
0.0132012 0.0515939 -0.0280933 255 255 0
0.0152805 0.0515940 -0.0280933 255 255 0
0.0173599 0.0515941 -0.0280933 255 255 0
0.0194392 0.0515943 -0.0280932 255 255 0
0.0215186 0.0515945 -0.0280932 255 255 0
0.0235979 0.0515946 -0.0280932 255 255 0
0.0256773 0.0515946 -0.0280931 255 255 0
0.0277566 0.0515946 -0.0280930 255 255 0
0.0298360 0.0515946 -0.0280928 255 255 0
-0.0159097 0.0536729 -0.0280940 255 255 0
-0.0138304 0.0536731 -0.0280938 255 255 0
-0.0117510 0.0536731 -0.0280935 255 255 0
-0.0096717 0.0536732 -0.0280934 255 255 0
-0.0075923 0.0536732 -0.0280934 255 255 0
-0.0055130 0.0536733 -0.0280934 255 255 0
-0.0034337 0.0536733 -0.0280934 255 255 0
-0.0013543 0.0536733 -0.0280934 255 255 0
0.0007250 0.0536734 -0.0280934 255 255 0
0.0028044 0.0536734 -0.0280934 255 255 0
0.0048838 0.0536734 -0.0280934 255 255 0
0.0069631 0.0536734 -0.0280934 255 255 0
0.0090425 0.0536734 -0.0280934 255 255 0
0.0111218 0.0536734 -0.0280934 255 255 0
0.0132012 0.0536734 -0.0280933 255 255 0
0.0152805 0.0536735 -0.0280933 255 255 0
0.0173599 0.0536735 -0.0280933 255 255 0
0.0194392 0.0536736 -0.0280933 255 255 0
0.0215186 0.0536739 -0.0280933 255 255 0
0.0235979 0.0536740 -0.0280931 255 255 0
0.0256773 0.0536740 -0.0280931 255 255 0
0.0277566 0.0536740 -0.0280930 255 255 0
0.0298360 0.0536740 -0.0280928 255 255 0
0.0319153 0.0536740 -0.0280926 255 255 0
-0.0179891 0.0557521 -0.0280942 255 255 0
-0.0159097 0.0557524 -0.0280940 255 255 0
-0.0138304 0.0557524 -0.0280937 255 255 0
-0.0117510 0.0557526 -0.0280935 255 255 0
-0.0096717 0.0557527 -0.0280935 255 255 0
-0.0075923 0.0557527 -0.0280934 255 255 0
-0.0055130 0.0557527 -0.0280934 255 255 0
-0.0034337 0.0557528 -0.0280934 255 255 0
-0.0013543 0.0557528 -0.0280934 255 255 0
0.0007250 0.0557528 -0.0280934 255 255 0
0.0028044 0.0557528 -0.0280934 255 255 0
0.0048838 0.0557528 -0.0280933 255 255 0
0.0069631 0.0557528 -0.0280933 255 255 0
0.0090425 0.0557528 -0.0280933 255 255 0
0.0111218 0.0557528 -0.0280933 255 255 0
0.0132012 0.0557528 -0.0280933 255 255 0
0.0152805 0.0557529 -0.0280933 255 255 0
0.0173599 0.0557530 -0.0280933 255 255 0
0.0194392 0.0557532 -0.0280932 255 255 0
0.0215186 0.0557534 -0.0280932 255 255 0
0.0235979 0.0557534 -0.0280932 255 255 0
0.0256773 0.0557534 -0.0280931 255 255 0
0.0277566 0.0557534 -0.0280930 255 255 0
0.0298360 0.0557534 -0.0280928 255 255 0
0.0319153 0.0557534 -0.0280926 255 255 0
-0.0179891 0.0578318 -0.0280942 255 255 0
-0.0159097 0.0578321 -0.0280939 255 255 0
-0.0138304 0.0578320 -0.0280936 255 255 0
-0.0117510 0.0578320 -0.0280934 255 255 0
-0.0096717 0.0578321 -0.0280934 255 255 0
-0.0075923 0.0578321 -0.0280934 255 255 0
-0.0055130 0.0578322 -0.0280934 255 255 0
-0.0034337 0.0578322 -0.0280934 255 255 0
-0.0013543 0.0578322 -0.0280934 255 255 0
0.0007250 0.0578322 -0.0280934 255 255 0
0.0028044 0.0578323 -0.0280934 255 255 0
0.0048838 0.0578323 -0.0280934 255 255 0
0.0069631 0.0578323 -0.0280934 255 255 0
0.0090425 0.0578323 -0.0280934 255 255 0
0.0111218 0.0578323 -0.0280933 255 255 0
0.0132012 0.0578323 -0.0280933 255 255 0
0.0152805 0.0578323 -0.0280933 255 255 0
0.0173599 0.0578324 -0.0280933 255 255 0
0.0194392 0.0578325 -0.0280933 255 255 0
0.0215186 0.0578328 -0.0280932 255 255 0
0.0235979 0.0578328 -0.0280932 255 255 0
0.0256773 0.0578328 -0.0280931 255 255 0
0.0277566 0.0578327 -0.0280931 255 255 0
0.0298360 0.0578327 -0.0280928 255 255 0
0.0319153 0.0578327 -0.0280926 255 255 0
-0.0179891 0.0599114 -0.0280941 255 255 0
-0.0159097 0.0599115 -0.0280938 255 255 0
-0.0138304 0.0599116 -0.0280936 255 255 0
-0.0117510 0.0599118 -0.0280935 255 255 0
-0.0096717 0.0599118 -0.0280934 255 255 0
-0.0075923 0.0599118 -0.0280934 255 255 0
-0.0055130 0.0599118 -0.0280934 255 255 0
-0.0034337 0.0599118 -0.0280934 255 255 0
-0.0013543 0.0599118 -0.0280934 255 255 0
0.0007250 0.0599118 -0.0280934 255 255 0
0.0028044 0.0599118 -0.0280933 255 255 0
0.0048838 0.0599118 -0.0280933 255 255 0
0.0069631 0.0599118 -0.0280933 255 255 0
0.0090425 0.0599118 -0.0280933 255 255 0
0.0111218 0.0599118 -0.0280933 255 255 0
0.0132012 0.0599118 -0.0280933 255 255 0
0.0152805 0.0599118 -0.0280933 255 255 0
0.0173599 0.0599119 -0.0280933 255 255 0
0.0194392 0.0599120 -0.0280933 255 255 0
0.0215186 0.0599122 -0.0280932 255 255 0
0.0235979 0.0599122 -0.0280932 255 255 0
0.0256773 0.0599122 -0.0280931 255 255 0
0.0277566 0.0599121 -0.0280930 255 255 0
0.0298360 0.0599121 -0.0280928 255 255 0
0.0319153 0.0599121 -0.0280926 255 255 0
-0.0179891 0.0619907 -0.0280941 255 255 0
-0.0159097 0.0619909 -0.0280939 255 255 0
-0.0138304 0.0619910 -0.0280935 255 255 0
-0.0117510 0.0619911 -0.0280934 255 255 0
-0.0096717 0.0619911 -0.0280934 255 255 0
-0.0075923 0.0619912 -0.0280934 255 255 0
-0.0055130 0.0619912 -0.0280934 255 255 0
-0.0034337 0.0619912 -0.0280934 255 255 0
-0.0013543 0.0619913 -0.0280934 255 255 0
0.0007250 0.0619913 -0.0280934 255 255 0
0.0028044 0.0619913 -0.0280934 255 255 0
0.0048838 0.0619913 -0.0280934 255 255 0
0.0069631 0.0619913 -0.0280934 255 255 0
0.0090425 0.0619913 -0.0280934 255 255 0
0.0111218 0.0619913 -0.0280934 255 255 0
0.0132012 0.0619914 -0.0280933 255 255 0
0.0152805 0.0619914 -0.0280933 255 255 0
0.0173599 0.0619915 -0.0280933 255 255 0
0.0194392 0.0619916 -0.0280932 255 255 0
0.0215186 0.0619917 -0.0280932 255 255 0
0.0235979 0.0619916 -0.0280932 255 255 0
0.0256773 0.0619916 -0.0280931 255 255 0
0.0277566 0.0619915 -0.0280930 255 255 0
0.0298360 0.0619914 -0.0280928 255 255 0
0.0319153 0.0619914 -0.0280926 255 255 0
-0.0179891 0.0640916 -0.0280942 255 255 0
-0.0159097 0.0640921 -0.0280938 255 255 0
-0.0138304 0.0640922 -0.0280935 255 255 0
-0.0117510 0.0640922 -0.0280935 255 255 0
-0.0096717 0.0640923 -0.0280934 255 255 0
-0.0075923 0.0640923 -0.0280934 255 255 0
-0.0055130 0.0640924 -0.0280934 255 255 0
-0.0034337 0.0640924 -0.0280934 255 255 0
-0.0013543 0.0640924 -0.0280934 255 255 0
0.0007250 0.0640924 -0.0280933 255 255 0
0.0028044 0.0640924 -0.0280933 255 255 0
0.0048838 0.0640924 -0.0280933 255 255 0
0.0069631 0.0640924 -0.0280933 255 255 0
0.0090425 0.0640924 -0.0280933 255 255 0
0.0111218 0.0640924 -0.0280933 255 255 0
0.0132012 0.0640925 -0.0280933 255 255 0
0.0152805 0.0640925 -0.0280933 255 255 0
0.0173599 0.0640928 -0.0280933 255 255 0
0.0194392 0.0640929 -0.0280933 255 255 0
0.0215186 0.0640930 -0.0280932 255 255 0
0.0235979 0.0640931 -0.0280931 255 255 0
0.0256773 0.0640933 -0.0280931 255 255 0
0.0277566 0.0640937 -0.0280930 255 255 0
0.0298360 0.0640942 -0.0280928 255 255 0
0.0319153 0.0640951 -0.0280926 255 255 0
-0.0179891 0.0661711 -0.0280942 255 255 0
-0.0159097 0.0661712 -0.0280939 255 255 0
-0.0138304 0.0661714 -0.0280935 255 255 0
-0.0117510 0.0661714 -0.0280934 255 255 0
-0.0096717 0.0661716 -0.0280934 255 255 0
-0.0075923 0.0661718 -0.0280934 255 255 0
-0.0055130 0.0661719 -0.0280934 255 255 0
-0.0034337 0.0661719 -0.0280934 255 255 0
-0.0013543 0.0661719 -0.0280934 255 255 0
0.0007250 0.0661719 -0.0280934 255 255 0
0.0028044 0.0661719 -0.0280934 255 255 0
0.0048838 0.0661719 -0.0280934 255 255 0
0.0069631 0.0661719 -0.0280934 255 255 0
0.0090425 0.0661720 -0.0280933 255 255 0
0.0111218 0.0661720 -0.0280933 255 255 0
0.0132012 0.0661720 -0.0280933 255 255 0
0.0152805 0.0661720 -0.0280933 255 255 0
0.0173599 0.0661721 -0.0280932 255 255 0
0.0194392 0.0661721 -0.0280932 255 255 0
0.0215186 0.0661724 -0.0280932 255 255 0
0.0235979 0.0661726 -0.0280932 255 255 0
0.0256773 0.0661728 -0.0280930 255 255 0
0.0277566 0.0661731 -0.0280930 255 255 0
0.0298360 0.0661736 -0.0280927 255 255 0
0.0319153 0.0661746 -0.0280926 255 255 0
-0.0179891 0.0682504 -0.0280943 255 255 0
-0.0159097 0.0682507 -0.0280939 255 255 0
-0.0138304 0.0682509 -0.0280936 255 255 0
-0.0117510 0.0682510 -0.0280935 255 255 0
-0.0096717 0.0682510 -0.0280934 255 255 0
-0.0075923 0.0682510 -0.0280934 255 255 0
-0.0055130 0.0682511 -0.0280934 255 255 0
-0.0034337 0.0682511 -0.0280934 255 255 0
-0.0013543 0.0682511 -0.0280933 255 255 0
0.0007250 0.0682511 -0.0280933 255 255 0
0.0028044 0.0682511 -0.0280933 255 255 0
0.0048838 0.0682511 -0.0280933 255 255 0
0.0069631 0.0682511 -0.0280933 255 255 0
0.0090425 0.0682511 -0.0280933 255 255 0
0.0111218 0.0682511 -0.0280933 255 255 0
0.0132012 0.0682512 -0.0280933 255 255 0
0.0152805 0.0682515 -0.0280933 255 255 0
0.0173599 0.0682516 -0.0280933 255 255 0
0.0194392 0.0682516 -0.0280933 255 255 0
0.0215186 0.0682518 -0.0280931 255 255 0
0.0235979 0.0682519 -0.0280931 255 255 0
0.0256773 0.0682523 -0.0280931 255 255 0
0.0277566 0.0682525 -0.0280929 255 255 0
0.0298360 0.0682532 -0.0280927 255 255 0
0.0319153 0.0682541 -0.0280926 255 255 0
-0.0179891 0.0703297 -0.0280944 255 255 0
-0.0159097 0.0703300 -0.0280940 255 255 0
-0.0138304 0.0703301 -0.0280936 255 255 0
-0.0117510 0.0703302 -0.0280934 255 255 0
-0.0096717 0.0703305 -0.0280934 255 255 0
-0.0075923 0.0703305 -0.0280934 255 255 0
-0.0055130 0.0703306 -0.0280934 255 255 0
-0.0034337 0.0703306 -0.0280934 255 255 0
-0.0013543 0.0703306 -0.0280934 255 255 0
0.0007250 0.0703306 -0.0280934 255 255 0
0.0028044 0.0703306 -0.0280934 255 255 0
0.0048838 0.0703306 -0.0280934 255 255 0
0.0069631 0.0703306 -0.0280934 255 255 0
0.0090425 0.0703307 -0.0280934 255 255 0
0.0111218 0.0703307 -0.0280934 255 255 0
0.0132012 0.0703307 -0.0280933 255 255 0
0.0152805 0.0703308 -0.0280932 255 255 0
0.0173599 0.0703308 -0.0280932 255 255 0
0.0194392 0.0703310 -0.0280932 255 255 0
0.0215186 0.0703313 -0.0280932 255 255 0
0.0235979 0.0703314 -0.0280931 255 255 0
0.0256773 0.0703317 -0.0280930 255 255 0
0.0277566 0.0703320 -0.0280928 255 255 0
0.0298360 0.0703327 -0.0280926 255 255 0
0.0319153 0.0703336 -0.0280926 255 255 0
-0.0159097 0.0724094 -0.0280940 255 255 0
-0.0138304 0.0724096 -0.0280936 255 255 0
-0.0117510 0.0724097 -0.0280935 255 255 0
-0.0096717 0.0724098 -0.0280934 255 255 0
-0.0075923 0.0724098 -0.0280934 255 255 0
-0.0055130 0.0724098 -0.0280934 255 255 0
-0.0034337 0.0724098 -0.0280933 255 255 0
-0.0013543 0.0724098 -0.0280933 255 255 0
0.0007250 0.0724098 -0.0280933 255 255 0
0.0028044 0.0724099 -0.0280933 255 255 0
0.0048838 0.0724099 -0.0280933 255 255 0
0.0069631 0.0724099 -0.0280933 255 255 0
0.0090425 0.0724099 -0.0280933 255 255 0
0.0111218 0.0724100 -0.0280933 255 255 0
0.0132012 0.0724102 -0.0280933 255 255 0
0.0152805 0.0724103 -0.0280933 255 255 0
0.0173599 0.0724103 -0.0280933 255 255 0
0.0194392 0.0724104 -0.0280932 255 255 0
0.0215186 0.0724105 -0.0280931 255 255 0
0.0235979 0.0724109 -0.0280931 255 255 0
0.0256773 0.0724111 -0.0280929 255 255 0
0.0277566 0.0724116 -0.0280928 255 255 0
0.0298360 0.0724124 -0.0280926 255 255 0
-0.0159097 0.0744889 -0.0280940 255 255 0
-0.0138304 0.0744892 -0.0280936 255 255 0
-0.0117510 0.0744892 -0.0280935 255 255 0
-0.0096717 0.0744893 -0.0280934 255 255 0
-0.0075923 0.0744893 -0.0280934 255 255 0
