ply
format ascii 1.0
element vertex 1138
property float x
property float y
property float z
property uchar red
property uchar green
property uchar blue
end_header
-0.0367078 0.0367549 -0.1012925 255 255 0
-0.0346284 0.0367567 -0.1012905 255 255 0
-0.0325490 0.0367530 -0.1012961 255 255 0
-0.0304697 0.0367526 -0.1013000 255 255 0
-0.0283902 0.0367515 -0.1012998 255 255 0
-0.0263108 0.0367488 -0.1013015 255 255 0
-0.0242314 0.0367402 -0.1013070 255 255 0
-0.0221498 0.0367343 -0.1013126 255 255 0
-0.0200703 0.0367297 -0.1013159 255 255 0
-0.0179908 0.0367248 -0.1013211 255 255 0
-0.0159113 0.0367179 -0.1013313 255 255 0
-0.0471141 0.0388844 -0.1012510 255 255 0
-0.0450301 0.0388677 -0.1012728 255 255 0
-0.0429464 0.0388541 -0.1012881 255 255 0
-0.0408666 0.0388480 -0.1012952 255 255 0
-0.0387872 0.0388451 -0.1012994 255 255 0
-0.0367079 0.0388498 -0.1012974 255 255 0
-0.0346284 0.0388507 -0.1012972 255 255 0
-0.0325491 0.0388501 -0.1013001 255 255 0
-0.0304696 0.0388491 -0.1013022 255 255 0
-0.0283902 0.0388480 -0.1013024 255 255 0
-0.0263107 0.0388460 -0.1013033 255 255 0
-0.0242313 0.0388426 -0.1013060 255 255 0
-0.0221519 0.0388390 -0.1013087 255 255 0
-0.0200702 0.0388333 -0.1013105 255 255 0
-0.0179908 0.0388290 -0.1013137 255 255 0
-0.0159113 0.0388237 -0.1013197 255 255 0
-0.0138318 0.0388167 -0.1013269 255 255 0
-0.0117512 0.0388089 -0.1013317 255 255 0
-0.0096715 0.0387984 -0.1013411 255 255 0
-0.0471094 0.0409683 -0.1012517 255 255 0
-0.0450297 0.0409530 -0.1012793 255 255 0
-0.0429459 0.0409458 -0.1012939 255 255 0
-0.0408665 0.0409427 -0.1012979 255 255 0
-0.0387871 0.0409411 -0.1013005 255 255 0
-0.0367077 0.0409415 -0.1013007 255 255 0
-0.0346284 0.0409420 -0.1013012 255 255 0
-0.0325490 0.0409428 -0.1013021 255 255 0
-0.0304696 0.0409428 -0.1013028 255 255 0
-0.0283902 0.0409418 -0.1013033 255 255 0
-0.0263108 0.0409400 -0.1013039 255 255 0
-0.0242314 0.0409380 -0.1013046 255 255 0
-0.0221519 0.0409356 -0.1013057 255 255 0
-0.0200725 0.0409337 -0.1013064 255 255 0
-0.0179931 0.0409274 -0.1013082 255 255 0
-0.0159113 0.0409229 -0.1013111 255 255 0
-0.0138328 0.0409161 -0.1013163 255 255 0
-0.0117523 0.0409069 -0.1013217 255 255 0
-0.0096716 0.0408947 -0.1013325 255 255 0
-0.0075913 0.0408789 -0.1013501 255 255 0
-0.0055098 0.0408636 -0.1013673 255 255 0
-0.0491935 0.0430653 -0.1012330 255 255 0
-0.0471092 0.0430473 -0.1012614 255 255 0
-0.0450261 0.0430416 -0.1012844 255 255 0
-0.0429459 0.0430359 -0.1012958 255 255 0
-0.0408665 0.0430349 -0.1012987 255 255 0
-0.0387871 0.0430343 -0.1013008 255 255 0
-0.0367078 0.0430345 -0.1013011 255 255 0
-0.0346285 0.0430346 -0.1013014 255 255 0
-0.0325491 0.0430346 -0.1013017 255 255 0
-0.0304696 0.0430343 -0.1013021 255 255 0
-0.0283902 0.0430332 -0.1013025 255 255 0
-0.0263107 0.0430318 -0.1013028 255 255 0
-0.0242313 0.0430300 -0.1013030 255 255 0
-0.0221519 0.0430278 -0.1013035 255 255 0
-0.0200725 0.0430257 -0.1013039 255 255 0
-0.0179931 0.0430224 -0.1013051 255 255 0
-0.0159136 0.0430158 -0.1013066 255 255 0
-0.0138330 0.0430091 -0.1013108 255 255 0
-0.0117523 0.0430014 -0.1013143 255 255 0
-0.0096716 0.0429882 -0.1013256 255 255 0
-0.0075913 0.0429691 -0.1013450 255 255 0
-0.0055092 0.0429503 -0.1013652 255 255 0
-0.0491901 0.0451364 -0.1012472 255 255 0
-0.0471091 0.0451245 -0.1012790 255 255 0
-0.0450252 0.0451209 -0.1012914 255 255 0
-0.0429458 0.0451188 -0.1012997 255 255 0
-0.0408665 0.0451193 -0.1013022 255 255 0
-0.0387871 0.0451196 -0.1013036 255 255 0
-0.0367077 0.0451198 -0.1013039 255 255 0
-0.0346283 0.0451197 -0.1013041 255 255 0
-0.0325489 0.0451194 -0.1013040 255 255 0
-0.0304696 0.0451188 -0.1013041 255 255 0
-0.0283902 0.0451177 -0.1013040 255 255 0
-0.0263108 0.0451164 -0.1013041 255 255 0
-0.0242314 0.0451147 -0.1013041 255 255 0
-0.0221520 0.0451126 -0.1013042 255 255 0
-0.0200725 0.0451103 -0.1013044 255 255 0
-0.0179931 0.0451069 -0.1013050 255 255 0
-0.0159136 0.0451031 -0.1013058 255 255 0
-0.0138330 0.0450965 -0.1013091 255 255 0
-0.0117532 0.0450870 -0.1013116 255 255 0
-0.0096725 0.0450733 -0.1013224 255 255 0
-0.0075912 0.0450533 -0.1013414 255 255 0
-0.0055090 0.0450330 -0.1013621 255 255 0
-0.0491897 0.0472073 -0.1012620 255 255 0
-0.0471061 0.0471960 -0.1012900 255 255 0
-0.0450254 0.0471956 -0.1012978 255 255 0
-0.0429460 0.0471959 -0.1013033 255 255 0
-0.0408666 0.0471976 -0.1013055 255 255 0
-0.0387872 0.0471988 -0.1013068 255 255 0
-0.0367078 0.0471995 -0.1013072 255 255 0
-0.0346284 0.0471996 -0.1013071 255 255 0
-0.0325490 0.0471992 -0.1013070 255 255 0
-0.0304696 0.0471983 -0.1013068 255 255 0
-0.0283902 0.0471973 -0.1013064 255 255 0
-0.0263108 0.0471958 -0.1013060 255 255 0
-0.0242314 0.0471940 -0.1013059 255 255 0
-0.0221520 0.0471916 -0.1013059 255 255 0
-0.0200726 0.0471890 -0.1013060 255 255 0
-0.0179931 0.0471854 -0.1013067 255 255 0
-0.0159136 0.0471809 -0.1013076 255 255 0
-0.0138330 0.0471742 -0.1013104 255 255 0
-0.0117533 0.0471675 -0.1013121 255 255 0
-0.0096726 0.0471539 -0.1013212 255 255 0
-0.0075912 0.0471331 -0.1013373 255 255 0
-0.0055089 0.0471134 -0.1013545 255 255 0
-0.0512742 0.0492884 -0.1012470 255 255 0
-0.0491894 0.0492728 -0.1012727 255 255 0
-0.0471054 0.0492636 -0.1012965 255 255 0
-0.0450253 0.0492655 -0.1013017 255 255 0
-0.0429459 0.0492673 -0.1013054 255 255 0
-0.0408665 0.0492693 -0.1013072 255 255 0
-0.0387871 0.0492707 -0.1013083 255 255 0
-0.0367077 0.0492712 -0.1013086 255 255 0
-0.0346283 0.0492713 -0.1013087 255 255 0
-0.0325490 0.0492706 -0.1013084 255 255 0
-0.0304696 0.0492695 -0.1013082 255 255 0
-0.0283902 0.0492681 -0.1013078 255 255 0
-0.0263108 0.0492664 -0.1013075 255 255 0
-0.0242314 0.0492645 -0.1013074 255 255 0
-0.0221520 0.0492621 -0.1013075 255 255 0
-0.0200726 0.0492592 -0.1013076 255 255 0
-0.0179931 0.0492555 -0.1013082 255 255 0
-0.0159137 0.0492511 -0.1013088 255 255 0
-0.0138330 0.0492447 -0.1013113 255 255 0
-0.0117534 0.0492382 -0.1013129 255 255 0
-0.0096726 0.0492249 -0.1013212 255 255 0
-0.0075912 0.0492084 -0.1013348 255 255 0
-0.0055088 0.0491895 -0.1013504 255 255 0
-0.0034261 0.0491448 -0.1013883 255 255 0
-0.0512741 0.0513510 -0.1012581 255 255 0
-0.0491894 0.0513359 -0.1012850 255 255 0
-0.0471052 0.0513278 -0.1012987 255 255 0
-0.0450254 0.0513305 -0.1013023 255 255 0
-0.0429460 0.0513324 -0.1013049 255 255 0
-0.0408666 0.0513338 -0.1013063 255 255 0
-0.0387872 0.0513345 -0.1013072 255 255 0
-0.0367078 0.0513345 -0.1013077 255 255 0
-0.0346284 0.0513340 -0.1013079 255 255 0
-0.0325490 0.0513330 -0.1013077 255 255 0
-0.0304696 0.0513317 -0.1013075 255 255 0
-0.0283902 0.0513298 -0.1013075 255 255 0
-0.0263108 0.0513278 -0.1013075 255 255 0
-0.0242314 0.0513258 -0.1013075 255 255 0
-0.0221520 0.0513234 -0.1013076 255 255 0
-0.0200725 0.0513205 -0.1013080 255 255 0
-0.0179931 0.0513170 -0.1013087 255 255 0
-0.0159136 0.0513131 -0.1013093 255 255 0
-0.0138330 0.0513072 -0.1013116 255 255 0
-0.0117534 0.0513015 -0.1013132 255 255 0
-0.0096726 0.0512887 -0.1013215 255 255 0
-0.0075912 0.0512738 -0.1013333 255 255 0
-0.0055088 0.0512555 -0.1013480 255 255 0
-0.0034270 0.0512104 -0.1013888 255 255 0
-0.0533536 0.0534453 -0.1012345 255 255 0
-0.0512690 0.0534160 -0.1012697 255 255 0
-0.0491895 0.0534036 -0.1012879 255 255 0
-0.0471048 0.0533955 -0.1013046 255 255 0
-0.0450252 0.0533982 -0.1013075 255 255 0
-0.0429458 0.0533999 -0.1013095 255 255 0
-0.0408665 0.0534006 -0.1013105 255 255 0
-0.0387871 0.0534007 -0.1013112 255 255 0
-0.0367077 0.0534001 -0.1013116 255 255 0
-0.0346283 0.0533992 -0.1013116 255 255 0
-0.0325489 0.0533981 -0.1013114 255 255 0
-0.0304696 0.0533965 -0.1013112 255 255 0
-0.0283902 0.0533944 -0.1013112 255 255 0
-0.0263108 0.0533921 -0.1013111 255 255 0
-0.0242313 0.0533901 -0.1013110 255 255 0
-0.0221519 0.0533878 -0.1013110 255 255 0
-0.0200725 0.0533851 -0.1013115 255 255 0
-0.0179931 0.0533820 -0.1013120 255 255 0
-0.0159136 0.0533786 -0.1013126 255 255 0
-0.0138329 0.0533733 -0.1013147 255 255 0
-0.0117533 0.0533681 -0.1013165 255 255 0
-0.0096725 0.0533551 -0.1013244 255 255 0
-0.0075911 0.0533421 -0.1013340 255 255 0
-0.0055092 0.0533253 -0.1013482 255 255 0
-0.0034275 0.0532809 -0.1013909 255 255 0
-0.0533539 0.0555185 -0.1012434 255 255 0
-0.0512692 0.0554863 -0.1012779 255 255 0
-0.0491895 0.0554708 -0.1012945 255 255 0
-0.0471050 0.0554617 -0.1013059 255 255 0
-0.0450254 0.0554637 -0.1013142 255 255 0
-0.0429460 0.0554646 -0.1013160 255 255 0
-0.0408666 0.0554648 -0.1013167 255 255 0
-0.0387872 0.0554644 -0.1013171 255 255 0
-0.0367078 0.0554636 -0.1013172 255 255 0
-0.0346284 0.0554623 -0.1013173 255 255 0
-0.0325490 0.0554608 -0.1013171 255 255 0
-0.0304695 0.0554591 -0.1013169 255 255 0
-0.0283901 0.0554570 -0.1013165 255 255 0
-0.0263107 0.0554549 -0.1013162 255 255 0
-0.0242313 0.0554528 -0.1013162 255 255 0
-0.0221519 0.0554505 -0.1013161 255 255 0
-0.0200724 0.0554481 -0.1013163 255 255 0
-0.0179930 0.0554452 -0.1013170 255 255 0
-0.0159135 0.0554422 -0.1013175 255 255 0
-0.0138328 0.0554378 -0.1013193 255 255 0
-0.0117533 0.0554334 -0.1013212 255 255 0
-0.0096725 0.0554236 -0.1013288 255 255 0
-0.0075915 0.0554142 -0.1013362 255 255 0
-0.0055097 0.0553999 -0.1013499 255 255 0
-0.0034278 0.0553586 -0.1013939 255 255 0
-0.0533503 0.0575971 -0.1012517 255 255 0
-0.0512691 0.0575642 -0.1012868 255 255 0
-0.0491860 0.0575482 -0.1013045 255 255 0
-0.0471049 0.0575384 -0.1013163 255 255 0
-0.0450253 0.0575388 -0.1013191 255 255 0
-0.0429458 0.0575387 -0.1013214 255 255 0
-0.0408665 0.0575380 -0.1013222 255 255 0
-0.0387871 0.0575371 -0.1013235 255 255 0
-0.0367077 0.0575358 -0.1013286 255 255 0
-0.0346283 0.0575342 -0.1013288 255 255 0
-0.0325489 0.0575326 -0.1013287 255 255 0
-0.0304695 0.0575308 -0.1013286 255 255 0
-0.0283901 0.0575286 -0.1013283 255 255 0
-0.0263107 0.0575264 -0.1013281 255 255 0
-0.0242313 0.0575243 -0.1013281 255 255 0
-0.0221518 0.0575221 -0.1013281 255 255 0
-0.0200724 0.0575200 -0.1013284 255 255 0
-0.0179929 0.0575176 -0.1013288 255 255 0
-0.0159134 0.0575151 -0.1013293 255 255 0
-0.0138327 0.0575115 -0.1013313 255 255 0
-0.0117531 0.0575079 -0.1013331 255 255 0
-0.0096723 0.0574998 -0.1013405 255 255 0
-0.0075914 0.0574930 -0.1013469 255 255 0
-0.0055101 0.0574813 -0.1013601 255 255 0
-0.0034279 0.0574446 -0.1014031 255 255 0
-0.0533499 0.0596824 -0.1012536 255 255 0
-0.0512690 0.0596501 -0.1012952 255 255 0
-0.0491854 0.0596325 -0.1013150 255 255 0
-0.0471049 0.0596215 -0.1013282 255 255 0
-0.0450254 0.0596198 -0.1013313 255 255 0
-0.0429459 0.0596183 -0.1013338 255 255 0
-0.0408665 0.0596171 -0.1013348 255 255 0
-0.0387871 0.0596168 -0.1013357 255 255 0
-0.0367077 0.0596157 -0.1013363 255 255 0
-0.0346282 0.0596138 -0.1013365 255 255 0
-0.0325488 0.0596118 -0.1013364 255 255 0
-0.0304694 0.0596097 -0.1013365 255 255 0
-0.0283900 0.0596075 -0.1013367 255 255 0
-0.0263105 0.0596053 -0.1013368 255 255 0
-0.0242311 0.0596033 -0.1013368 255 255 0
-0.0221517 0.0596013 -0.1013369 255 255 0
-0.0200722 0.0595993 -0.1013371 255 255 0
-0.0179927 0.0595972 -0.1013375 255 255 0
-0.0159132 0.0595953 -0.1013384 255 255 0
-0.0138326 0.0595923 -0.1013403 255 255 0
-0.0117529 0.0595888 -0.1013421 255 255 0
-0.0096721 0.0595808 -0.1013493 255 255 0
-0.0075912 0.0595754 -0.1013612 255 255 0
-0.0055103 0.0595660 -0.1013682 255 255 0
-0.0034280 0.0595352 -0.1014116 255 255 0
-0.0533500 0.0617869 -0.1012705 255 255 0
-0.0512692 0.0617565 -0.1013161 255 255 0
-0.0491857 0.0617405 -0.1013396 255 255 0
-0.0471048 0.0617299 -0.1013547 255 255 0
-0.0450251 0.0617272 -0.1013582 255 255 0
-0.0429456 0.0617248 -0.1013606 255 255 0
-0.0408662 0.0617230 -0.1013620 255 255 0
-0.0387869 0.0617211 -0.1013629 255 255 0
-0.0367075 0.0617189 -0.1013638 255 255 0
-0.0346281 0.0617167 -0.1013644 255 255 0
-0.0325486 0.0617146 -0.1013643 255 255 0
-0.0304692 0.0617125 -0.1013643 255 255 0
-0.0283898 0.0617104 -0.1013646 255 255 0
-0.0263103 0.0617083 -0.1013648 255 255 0
-0.0242309 0.0617063 -0.1013649 255 255 0
-0.0221514 0.0617046 -0.1013651 255 255 0
-0.0200719 0.0617029 -0.1013652 255 255 0
-0.0179924 0.0617012 -0.1013659 255 255 0
-0.0159129 0.0616999 -0.1013670 255 255 0
-0.0138322 0.0616981 -0.1013692 255 255 0
-0.0117517 0.0616960 -0.1013714 255 255 0
-0.0096716 0.0616907 -0.1013785 255 255 0
-0.0075906 0.0616866 -0.1013864 255 255 0
-0.0055097 0.0616787 -0.1013994 255 255 0
-0.0034271 0.0616524 -0.1014346 255 255 0
-0.0013462 0.0616336 -0.1014616 255 255 0
-0.0512695 0.0638981 -0.1013452 255 255 0
-0.0491868 0.0638873 -0.1013796 255 255 0
-0.0471049 0.0638800 -0.1013988 255 255 0
-0.0450250 0.0638769 -0.1014026 255 255 0
-0.0429455 0.0638745 -0.1014056 255 255 0
-0.0408661 0.0638725 -0.1014074 255 255 0
-0.0387867 0.0638708 -0.1014087 255 255 0
-0.0367073 0.0638684 -0.1014096 255 255 0
-0.0346279 0.0638661 -0.1014103 255 255 0
-0.0325484 0.0638638 -0.1014104 255 255 0
-0.0304689 0.0638618 -0.1014107 255 255 0
-0.0283893 0.0638601 -0.1014110 255 255 0
-0.0263098 0.0638587 -0.1014115 255 255 0
-0.0242304 0.0638576 -0.1014118 255 255 0
-0.0221509 0.0638566 -0.1014122 255 255 0
-0.0200714 0.0638557 -0.1014127 255 255 0
-0.0179919 0.0638547 -0.1014137 255 255 0
-0.0159123 0.0638543 -0.1014151 255 255 0
-0.0138315 0.0638538 -0.1014181 255 255 0
-0.0117509 0.0638525 -0.1014208 255 255 0
-0.0096705 0.0638488 -0.1014290 255 255 0
-0.0075892 0.0638452 -0.1014396 255 255 0
-0.0055080 0.0638374 -0.1014540 255 255 0
-0.0034251 0.0638140 -0.1014910 255 255 0
-0.0512707 0.0660370 -0.1013701 255 255 0
-0.0491895 0.0660304 -0.1014120 255 255 0
-0.0471061 0.0660249 -0.1014365 255 255 0
-0.0450249 0.0660223 -0.1014411 255 255 0
-0.0429452 0.0660195 -0.1014444 255 255 0
-0.0408658 0.0660177 -0.1014467 255 255 0
-0.0387864 0.0660150 -0.1014484 255 255 0
-0.0367070 0.0660121 -0.1014494 255 255 0
-0.0346275 0.0660092 -0.1014501 255 255 0
-0.0325479 0.0660072 -0.1014504 255 255 0
-0.0304685 0.0660052 -0.1014508 255 255 0
-0.0283890 0.0660039 -0.1014512 255 255 0
-0.0263094 0.0660027 -0.1014515 255 255 0
-0.0242299 0.0660015 -0.1014519 255 255 0
-0.0221503 0.0660007 -0.1014523 255 255 0
-0.0200708 0.0660005 -0.1014531 255 255 0
-0.0179912 0.0660004 -0.1014543 255 255 0
-0.0159116 0.0660007 -0.1014560 255 255 0
-0.0138307 0.0659998 -0.1014598 255 255 0
-0.0117501 0.0660003 -0.1014628 255 255 0
-0.0096690 0.0659972 -0.1014729 255 255 0
-0.0075874 0.0659941 -0.1014928 255 255 0
-0.0055053 0.0659879 -0.1015102 255 255 0
-0.0034217 0.0659665 -0.1015475 255 255 0
-0.0512750 0.0682006 -0.1013866 255 255 0
-0.0491895 0.0681979 -0.1014374 255 255 0
-0.0471091 0.0681946 -0.1014680 255 255 0
-0.0450259 0.0681913 -0.1014735 255 255 0
-0.0429450 0.0681886 -0.1014777 255 255 0
-0.0408655 0.0681861 -0.1014804 255 255 0
-0.0387860 0.0681835 -0.1014825 255 255 0
-0.0367066 0.0681800 -0.1014839 255 255 0
-0.0346271 0.0681774 -0.1014848 255 255 0
-0.0325476 0.0681748 -0.1014852 255 255 0
-0.0304680 0.0681730 -0.1014854 255 255 0
-0.0283884 0.0681717 -0.1014858 255 255 0
-0.0263088 0.0681702 -0.1014860 255 255 0
-0.0242291 0.0681685 -0.1014860 255 255 0
-0.0221495 0.0681675 -0.1014862 255 255 0
-0.0200700 0.0681676 -0.1014868 255 255 0
-0.0179904 0.0681681 -0.1014924 255 255 0
-0.0159089 0.0681688 -0.1014941 255 255 0
-0.0138288 0.0681685 -0.1014988 255 255 0
-0.0117481 0.0681691 -0.1015019 255 255 0
-0.0096666 0.0681662 -0.1015146 255 255 0
-0.0075849 0.0681634 -0.1015347 255 255 0
-0.0055020 0.0681571 -0.1015563 255 255 0
-0.0512792 0.0703361 -0.1013959 255 255 0
-0.0491934 0.0703378 -0.1014512 255 255 0
-0.0471090 0.0703384 -0.1014850 255 255 0
-0.0450283 0.0703360 -0.1014929 255 255 0
-0.0429480 0.0703330 -0.1015029 255 255 0
-0.0408653 0.0703306 -0.1015062 255 255 0
-0.0387858 0.0703277 -0.1015084 255 255 0
-0.0367063 0.0703238 -0.1015097 255 255 0
-0.0346268 0.0703202 -0.1015107 255 255 0
-0.0325472 0.0703175 -0.1015109 255 255 0
-0.0304677 0.0703153 -0.1015112 255 255 0
-0.0283880 0.0703134 -0.1015118 255 255 0
-0.0263084 0.0703117 -0.1015122 255 255 0
-0.0242287 0.0703103 -0.1015120 255 255 0
-0.0221490 0.0703091 -0.1015122 255 255 0
-0.0200694 0.0703099 -0.1015125 255 255 0
-0.0179897 0.0703110 -0.1015140 255 255 0
-0.0159082 0.0703117 -0.1015162 255 255 0
-0.0138280 0.0703117 -0.1015218 255 255 0
-0.0117469 0.0703123 -0.1015261 255 255 0
-0.0096645 0.0703104 -0.1015408 255 255 0
-0.0075825 0.0703077 -0.1015730 255 255 0
-0.0054985 0.0703018 -0.1015993 255 255 0
-0.0512823 0.0724412 -0.1013970 255 255 0
-0.0491938 0.0724476 -0.1014527 255 255 0
-0.0471094 0.0724506 -0.1014918 255 255 0
-0.0450284 0.0724490 -0.1015015 255 255 0
-0.0429485 0.0724470 -0.1015091 255 255 0
-0.0408679 0.0724442 -0.1015127 255 255 0
-0.0387858 0.0724365 -0.1015154 255 255 0
-0.0367063 0.0724326 -0.1015173 255 255 0
-0.0346267 0.0724287 -0.1015186 255 255 0
-0.0325471 0.0724243 -0.1015188 255 255 0
-0.0304674 0.0724206 -0.1015190 255 255 0
-0.0283877 0.0724177 -0.1015199 255 255 0
-0.0263080 0.0724160 -0.1015205 255 255 0
-0.0242284 0.0724154 -0.1015206 255 255 0
-0.0221487 0.0724149 -0.1015210 255 255 0
-0.0200690 0.0724150 -0.1015214 255 255 0
-0.0179877 0.0724161 -0.1015235 255 255 0
-0.0159080 0.0724206 -0.1015259 255 255 0
-0.0138268 0.0724210 -0.1015381 255 255 0
-0.0117454 0.0724216 -0.1015448 255 255 0
-0.0096625 0.0724213 -0.1015612 255 255 0
-0.0075799 0.0724186 -0.1015990 255 255 0
-0.0054952 0.0724142 -0.1016346 255 255 0
-0.0491988 0.0745513 -0.1014591 255 255 0
-0.0471135 0.0745574 -0.1014916 255 255 0
-0.0450294 0.0745548 -0.1015027 255 255 0
-0.0429488 0.0745527 -0.1015111 255 255 0
-0.0408692 0.0745489 -0.1015157 255 255 0
-0.0387893 0.0745453 -0.1015194 255 255 0
-0.0367063 0.0745411 -0.1015224 255 255 0
-0.0346266 0.0745372 -0.1015249 255 255 0
-0.0325470 0.0745321 -0.1015257 255 255 0
-0.0304673 0.0745277 -0.1015270 255 255 0
-0.0283876 0.0745243 -0.1015295 255 255 0
-0.0263078 0.0745224 -0.1015316 255 255 0
-0.0242281 0.0745226 -0.1015323 255 255 0
-0.0221484 0.0745228 -0.1015329 255 255 0
-0.0200687 0.0745219 -0.1015336 255 255 0
-0.0179873 0.0745222 -0.1015360 255 255 0
-0.0159071 0.0745240 -0.1015383 255 255 0
-0.0138259 0.0745251 -0.1015476 255 255 0
-0.0117437 0.0745273 -0.1015580 255 255 0
-0.0096608 0.0745283 -0.1015773 255 255 0
-0.0075772 0.0745281 -0.1016313 255 255 0
-0.0492018 0.0766540 -0.1014621 255 255 0
-0.0471142 0.0766621 -0.1014901 255 255 0
-0.0450341 0.0766569 -0.1015010 255 255 0
-0.0429493 0.0766521 -0.1015086 255 255 0
-0.0408695 0.0766473 -0.1015144 255 255 0
-0.0387897 0.0766389 -0.1015193 255 255 0
-0.0367099 0.0766349 -0.1015252 255 255 0
-0.0346267 0.0766309 -0.1015291 255 255 0
-0.0325470 0.0766263 -0.1015315 255 255 0
-0.0304674 0.0766230 -0.1015331 255 255 0
-0.0283876 0.0766202 -0.1015341 255 255 0
-0.0263078 0.0766183 -0.1015348 255 255 0
-0.0242281 0.0766192 -0.1015351 255 255 0
-0.0221483 0.0766190 -0.1015359 255 255 0
-0.0200670 0.0766183 -0.1015369 255 255 0
-0.0179872 0.0766181 -0.1015403 255 255 0
-0.0159065 0.0766206 -0.1015422 255 255 0
-0.0138248 0.0766230 -0.1015535 255 255 0
-0.0117433 0.0766252 -0.1015686 255 255 0
-0.0096593 0.0766317 -0.1015931 255 255 0
-0.0075743 0.0766358 -0.1016560 255 255 0
-0.0450347 0.0787615 -0.1014866 255 255 0
-0.0429511 0.0787522 -0.1014913 255 255 0
-0.0408707 0.0787450 -0.1014989 255 255 0
-0.0387904 0.0787395 -0.1015061 255 255 0
-0.0367103 0.0787356 -0.1015148 255 255 0
-0.0346306 0.0787321 -0.1015222 255 255 0
-0.0325473 0.0787268 -0.1015291 255 255 0
-0.0304674 0.0787238 -0.1015342 255 255 0
-0.0283876 0.0787211 -0.1015376 255 255 0
-0.0263078 0.0787195 -0.1015398 255 255 0
-0.0242280 0.0787199 -0.1015393 255 255 0
-0.0221466 0.0787198 -0.1015402 255 255 0
-0.0200669 0.0787184 -0.1015426 255 255 0
-0.0179862 0.0787178 -0.1015468 255 255 0
-0.0159046 0.0787220 -0.1015495 255 255 0
-0.0138233 0.0787254 -0.1015636 255 255 0
-0.0117423 0.0787265 -0.1015795 255 255 0
-0.0096581 0.0787284 -0.1016025 255 255 0
-0.0408756 0.0808520 -0.1014739 255 255 0
-0.0387937 0.0808408 -0.1014823 255 255 0
-0.0367116 0.0808307 -0.1014951 255 255 0
-0.0346309 0.0808240 -0.1015075 255 255 0
-0.0325510 0.0808174 -0.1015209 255 255 0
-0.0304694 0.0808128 -0.1015310 255 255 0
-0.0283877 0.0808116 -0.1015391 255 255 0
-0.0263077 0.0808102 -0.1015441 255 255 0
-0.0242279 0.0808096 -0.1015423 255 255 0
-0.0221465 0.0808091 -0.1015426 255 255 0
-0.0200659 0.0808027 -0.1015476 255 255 0
-0.0179861 0.0808011 -0.1015551 255 255 0
-0.0159044 0.0808076 -0.1015594 255 255 0
-0.0138220 0.0808135 -0.1015733 255 255 0
-0.0117413 0.0808151 -0.1015842 255 255 0
-0.0096574 0.0808176 -0.1016101 255 255 0
-0.0367164 0.0829443 -0.1014687 255 255 0
-0.0346332 0.0829420 -0.1014809 255 255 0
-0.0325513 0.0829245 -0.1015056 255 255 0
-0.0304696 0.0829138 -0.1015263 255 255 0
-0.0283876 0.0829131 -0.1015490 255 255 0
-0.0263075 0.0829129 -0.1015592 255 255 0
-0.0242252 0.0829142 -0.1015539 255 255 0
-0.0221453 0.0829152 -0.1015529 255 255 0
-0.0200657 0.0829041 -0.1015555 255 255 0
-0.0179848 0.0829004 -0.1015618 255 255 0
-0.0304706 0.0850210 -0.1015228 255 255 0
-0.0283890 0.0850188 -0.1015583 255 255 0
-0.0242330 0.0322823 -0.0997925 255 255 0
-0.0325530 0.0343938 -0.0997789 255 255 0
-0.0304736 0.0343870 -0.0997802 255 255 0
-0.0283940 0.0343866 -0.0997760 255 255 0
-0.0263145 0.0343824 -0.0997758 255 255 0
-0.0242330 0.0343709 -0.0997827 255 255 0
-0.0221536 0.0343613 -0.0997891 255 255 0
-0.0200740 0.0343579 -0.0997948 255 255 0
-0.0408708 0.0364802 -0.0997980 255 255 0
-0.0387913 0.0364758 -0.0997961 255 255 0
-0.0367119 0.0364824 -0.0997887 255 255 0
-0.0346325 0.0364853 -0.0997774 255 255 0
-0.0325530 0.0364828 -0.0997765 255 255 0
-0.0304736 0.0364804 -0.0997761 255 255 0
-0.0283940 0.0364814 -0.0997743 255 255 0
-0.0263146 0.0364783 -0.0997748 255 255 0
-0.0242352 0.0364700 -0.0997837 255 255 0
-0.0221535 0.0364641 -0.0997868 255 255 0
-0.0200740 0.0364581 -0.0997905 255 255 0
-0.0179945 0.0364520 -0.0997961 255 255 0
-0.0159150 0.0364460 -0.0998058 255 255 0
-0.0138366 0.0364395 -0.0998156 255 255 0
-0.0450344 0.0386127 -0.0997755 255 255 0
-0.0429501 0.0385980 -0.0997790 255 255 0
-0.0408708 0.0385918 -0.0997795 255 255 0
-0.0387914 0.0385896 -0.0997791 255 255 0
-0.0367120 0.0385938 -0.0997757 255 255 0
-0.0346325 0.0385995 -0.0997741 255 255 0
-0.0325530 0.0386015 -0.0997752 255 255 0
-0.0304736 0.0386019 -0.0997759 255 255 0
-0.0283941 0.0386002 -0.0997753 255 255 0
-0.0263146 0.0385979 -0.0997753 255 255 0
-0.0242352 0.0385910 -0.0997764 255 255 0
-0.0221557 0.0385869 -0.0997778 255 255 0
-0.0200740 0.0385841 -0.0997793 255 255 0
-0.0179945 0.0385795 -0.0997889 255 255 0
-0.0159149 0.0385729 -0.0997939 255 255 0
-0.0138364 0.0385649 -0.0998004 255 255 0
-0.0117559 0.0385555 -0.0998056 255 255 0
-0.0096763 0.0385447 -0.0998133 255 255 0
-0.0450341 0.0407163 -0.0997679 255 255 0
-0.0429500 0.0407042 -0.0997718 255 255 0
-0.0408706 0.0407012 -0.0997725 255 255 0
-0.0387913 0.0407006 -0.0997729 255 255 0
-0.0367119 0.0407057 -0.0997718 255 255 0
-0.0346324 0.0407080 -0.0997713 255 255 0
-0.0325530 0.0407119 -0.0997722 255 255 0
-0.0304736 0.0407136 -0.0997730 255 255 0
-0.0283941 0.0407094 -0.0997733 255 255 0
-0.0263146 0.0407069 -0.0997736 255 255 0
-0.0242352 0.0407039 -0.0997738 255 255 0
-0.0221558 0.0407007 -0.0997740 255 255 0
-0.0200763 0.0406992 -0.0997738 255 255 0
-0.0179967 0.0406951 -0.0997746 255 255 0
-0.0159149 0.0406887 -0.0997768 255 255 0
-0.0138364 0.0406802 -0.0997882 255 255 0
-0.0117558 0.0406681 -0.0997922 255 255 0
-0.0096761 0.0406547 -0.0997994 255 255 0
-0.0075955 0.0406440 -0.0998131 255 255 0
-0.0055158 0.0406309 -0.0998240 255 255 0
-0.0471137 0.0428239 -0.0997583 255 255 0
-0.0450303 0.0428181 -0.0997630 255 255 0
-0.0429500 0.0428144 -0.0997659 255 255 0
-0.0408707 0.0428149 -0.0997667 255 255 0
-0.0387913 0.0428156 -0.0997669 255 255 0
-0.0367119 0.0428167 -0.0997661 255 255 0
-0.0346325 0.0428175 -0.0997657 255 255 0
-0.0325531 0.0428185 -0.0997655 255 255 0
-0.0304735 0.0428185 -0.0997654 255 255 0
-0.0283940 0.0428170 -0.0997662 255 255 0
-0.0263145 0.0428150 -0.0997666 255 255 0
-0.0242351 0.0428120 -0.0997665 255 255 0
-0.0221557 0.0428087 -0.0997662 255 255 0
-0.0200762 0.0428058 -0.0997658 255 255 0
-0.0179967 0.0428012 -0.0997662 255 255 0
-0.0159170 0.0427957 -0.0997672 255 255 0
-0.0138364 0.0427871 -0.0997703 255 255 0
-0.0117557 0.0427753 -0.0997806 255 255 0
-0.0096760 0.0427602 -0.0997877 255 255 0
-0.0075953 0.0427431 -0.0998003 255 255 0
-0.0055149 0.0427259 -0.0998117 255 255 0
-0.0034345 0.0426953 -0.0998311 255 255 0
-0.0471136 0.0449044 -0.0997667 255 255 0
-0.0450296 0.0449055 -0.0997700 255 255 0
-0.0429500 0.0449071 -0.0997722 255 255 0
-0.0408707 0.0449098 -0.0997736 255 255 0
-0.0387913 0.0449116 -0.0997741 255 255 0
-0.0367118 0.0449123 -0.0997733 255 255 0
-0.0346324 0.0449124 -0.0997726 255 255 0
-0.0325529 0.0449115 -0.0997719 255 255 0
-0.0304736 0.0449104 -0.0997713 255 255 0
-0.0283941 0.0449092 -0.0997711 255 255 0
-0.0263146 0.0449072 -0.0997707 255 255 0
-0.0242352 0.0449043 -0.0997700 255 255 0
-0.0221557 0.0449008 -0.0997695 255 255 0
-0.0200762 0.0448971 -0.0997692 255 255 0
-0.0179967 0.0448918 -0.0997694 255 255 0
-0.0159172 0.0448860 -0.0997697 255 255 0
-0.0138364 0.0448769 -0.0997720 255 255 0
-0.0117557 0.0448658 -0.0997734 255 255 0
-0.0096760 0.0448494 -0.0997866 255 255 0
-0.0075952 0.0448290 -0.0997982 255 255 0
-0.0055142 0.0448082 -0.0998093 255 255 0
-0.0034325 0.0447699 -0.0998317 255 255 0
-0.0491952 0.0469913 -0.0997633 255 255 0
-0.0471101 0.0469853 -0.0997775 255 255 0
-0.0450295 0.0469869 -0.0997793 255 255 0
-0.0429502 0.0469888 -0.0997810 255 255 0
-0.0408708 0.0469925 -0.0997829 255 255 0
-0.0387915 0.0469952 -0.0997838 255 255 0
-0.0367120 0.0469969 -0.0997833 255 255 0
-0.0346325 0.0469975 -0.0997826 255 255 0
-0.0325530 0.0469965 -0.0997818 255 255 0
-0.0304736 0.0469951 -0.0997807 255 255 0
-0.0283941 0.0469939 -0.0997788 255 255 0
-0.0263146 0.0469918 -0.0997775 255 255 0
-0.0242352 0.0469884 -0.0997769 255 255 0
-0.0221557 0.0469841 -0.0997765 255 255 0
-0.0200762 0.0469797 -0.0997766 255 255 0
-0.0179967 0.0469734 -0.0997765 255 255 0
-0.0159172 0.0469650 -0.0997767 255 255 0
-0.0138365 0.0469545 -0.0997782 255 255 0
-0.0117568 0.0469439 -0.0997783 255 255 0
-0.0096760 0.0469260 -0.0997834 255 255 0
-0.0075951 0.0469072 -0.0998000 255 255 0
-0.0055137 0.0468833 -0.0998095 255 255 0
-0.0034317 0.0468257 -0.0998290 255 255 0
-0.0491939 0.0490562 -0.0997679 255 255 0
-0.0471089 0.0490557 -0.0997803 255 255 0
-0.0450294 0.0490579 -0.0997816 255 255 0
-0.0429500 0.0490606 -0.0997830 255 255 0
-0.0408708 0.0490645 -0.0997850 255 255 0
-0.0387914 0.0490670 -0.0997861 255 255 0
-0.0367119 0.0490672 -0.0997861 255 255 0
-0.0346324 0.0490665 -0.0997859 255 255 0
-0.0325530 0.0490652 -0.0997849 255 255 0
-0.0304737 0.0490635 -0.0997838 255 255 0
-0.0283942 0.0490615 -0.0997824 255 255 0
-0.0263147 0.0490587 -0.0997812 255 255 0
-0.0242353 0.0490550 -0.0997805 255 255 0
-0.0221558 0.0490503 -0.0997802 255 255 0
-0.0200763 0.0490455 -0.0997806 255 255 0
-0.0179968 0.0490388 -0.0997811 255 255 0
-0.0159173 0.0490297 -0.0997817 255 255 0
-0.0138365 0.0490190 -0.0997833 255 255 0
-0.0117568 0.0490086 -0.0997833 255 255 0
-0.0096760 0.0489906 -0.0997881 255 255 0
-0.0075947 0.0489726 -0.0998037 255 255 0
-0.0055137 0.0489473 -0.0998125 255 255 0
-0.0034315 0.0488840 -0.0998310 255 255 0
-0.0512786 0.0511208 -0.0997520 255 255 0
-0.0491936 0.0511089 -0.0997649 255 255 0
-0.0471089 0.0511030 -0.0997693 255 255 0
-0.0450295 0.0511073 -0.0997708 255 255 0
-0.0429501 0.0511104 -0.0997723 255 255 0
-0.0408708 0.0511125 -0.0997740 255 255 0
-0.0387914 0.0511136 -0.0997752 255 255 0
-0.0367119 0.0511132 -0.0997762 255 255 0
-0.0346325 0.0511120 -0.0997766 255 255 0
-0.0325530 0.0511103 -0.0997755 255 255 0
-0.0304736 0.0511079 -0.0997748 255 255 0
-0.0283940 0.0511043 -0.0997750 255 255 0
-0.0263145 0.0511006 -0.0997750 255 255 0
-0.0242352 0.0510972 -0.0997743 255 255 0
-0.0221558 0.0510928 -0.0997742 255 255 0
-0.0200762 0.0510876 -0.0997756 255 255 0
-0.0179968 0.0510813 -0.0997767 255 255 0
-0.0159172 0.0510736 -0.0997770 255 255 0
-0.0138365 0.0510642 -0.0997786 255 255 0
-0.0117563 0.0510554 -0.0997796 255 255 0
-0.0096760 0.0510390 -0.0997849 255 255 0
-0.0075946 0.0510211 -0.0998000 255 255 0
-0.0055135 0.0509972 -0.0998086 255 255 0
-0.0034320 0.0509417 -0.0998288 255 255 0
-0.0512785 0.0531738 -0.0997591 255 255 0
-0.0491937 0.0531609 -0.0997717 255 255 0
-0.0471089 0.0531529 -0.0997758 255 255 0
-0.0450294 0.0531577 -0.0997771 255 255 0
-0.0429500 0.0531584 -0.0997782 255 255 0
-0.0408706 0.0531593 -0.0997790 255 255 0
-0.0387913 0.0531591 -0.0997796 255 255 0
-0.0367118 0.0531575 -0.0997802 255 255 0
-0.0346324 0.0531555 -0.0997804 255 255 0
-0.0325530 0.0531533 -0.0997794 255 255 0
-0.0304736 0.0531507 -0.0997787 255 255 0
-0.0283941 0.0531465 -0.0997784 255 255 0
-0.0263146 0.0531426 -0.0997783 255 255 0
-0.0242351 0.0531414 -0.0997776 255 255 0
-0.0221557 0.0531373 -0.0997775 255 255 0
-0.0200762 0.0531322 -0.0997785 255 255 0
-0.0179967 0.0531264 -0.0997795 255 255 0
-0.0159171 0.0531200 -0.0997799 255 255 0
-0.0138364 0.0531119 -0.0997819 255 255 0
-0.0117558 0.0531019 -0.0997835 255 255 0
-0.0096759 0.0530876 -0.0997890 255 255 0
-0.0075945 0.0530717 -0.0998019 255 255 0
-0.0055134 0.0530510 -0.0998100 255 255 0
-0.0034322 0.0530041 -0.0998319 255 255 0
-0.0013517 0.0529700 -0.0998484 255 255 0
-0.0512735 0.0552238 -0.0997735 255 255 0
-0.0491908 0.0552075 -0.0997865 255 255 0
-0.0471090 0.0551987 -0.0997909 255 255 0
-0.0450296 0.0552035 -0.0997919 255 255 0
-0.0429501 0.0552061 -0.0997925 255 255 0
-0.0408708 0.0552061 -0.0997926 255 255 0
-0.0387914 0.0552053 -0.0997928 255 255 0
-0.0367119 0.0552028 -0.0997926 255 255 0
-0.0346324 0.0552002 -0.0997921 255 255 0
-0.0325530 0.0551978 -0.0997913 255 255 0
-0.0304735 0.0551946 -0.0997903 255 255 0
-0.0283940 0.0551904 -0.0997886 255 255 0
-0.0263145 0.0551864 -0.0997873 255 255 0
-0.0242351 0.0551830 -0.0997865 255 255 0
-0.0221556 0.0551790 -0.0997861 255 255 0
-0.0200761 0.0551746 -0.0997863 255 255 0
-0.0179966 0.0551697 -0.0997866 255 255 0
-0.0159170 0.0551643 -0.0997870 255 255 0
-0.0138363 0.0551577 -0.0997882 255 255 0
-0.0117558 0.0551506 -0.0997901 255 255 0
-0.0096758 0.0551392 -0.0997951 255 255 0
-0.0075949 0.0551287 -0.0998051 255 255 0
-0.0055139 0.0551143 -0.0998125 255 255 0
-0.0034321 0.0550752 -0.0998368 255 255 0
-0.0013518 0.0550470 -0.0998551 255 255 0
-0.0512734 0.0572956 -0.0997991 255 255 0
-0.0491900 0.0572780 -0.0998152 255 255 0
-0.0471090 0.0572699 -0.0998218 255 255 0
-0.0450294 0.0572710 -0.0998231 255 255 0
-0.0429500 0.0572719 -0.0998242 255 255 0
-0.0408707 0.0572709 -0.0998244 255 255 0
-0.0387914 0.0572692 -0.0998247 255 255 0
-0.0367118 0.0572659 -0.0998247 255 255 0
-0.0346323 0.0572628 -0.0998246 255 255 0
-0.0325528 0.0572604 -0.0998241 255 255 0
-0.0304735 0.0572575 -0.0998233 255 255 0
-0.0283939 0.0572549 -0.0998222 255 255 0
-0.0263145 0.0572508 -0.0998213 255 255 0
-0.0242350 0.0572476 -0.0998210 255 255 0
-0.0221556 0.0572440 -0.0998208 255 255 0
-0.0200760 0.0572402 -0.0998208 255 255 0
-0.0179965 0.0572360 -0.0998214 255 255 0
-0.0159169 0.0572318 -0.0998221 255 255 0
-0.0138361 0.0572267 -0.0998235 255 255 0
-0.0117555 0.0572208 -0.0998257 255 255 0
-0.0096755 0.0572100 -0.0998307 255 255 0
-0.0075946 0.0572036 -0.0998349 255 255 0
-0.0055141 0.0571947 -0.0998484 255 255 0
-0.0034319 0.0571635 -0.0998734 255 255 0
-0.0013519 0.0571415 -0.0998928 255 255 0
-0.0512737 0.0593712 -0.0997914 255 255 0
-0.0491897 0.0593473 -0.0998055 255 255 0
-0.0471090 0.0593320 -0.0998198 255 255 0
-0.0450294 0.0593297 -0.0998219 255 255 0
-0.0429500 0.0593270 -0.0998236 255 255 0
-0.0408707 0.0593241 -0.0998248 255 255 0
-0.0387913 0.0593212 -0.0998259 255 255 0
-0.0367118 0.0593173 -0.0998270 255 255 0
-0.0346324 0.0593135 -0.0998276 255 255 0
-0.0325529 0.0593103 -0.0998266 255 255 0
-0.0304734 0.0593067 -0.0998261 255 255 0
-0.0283938 0.0593019 -0.0998264 255 255 0
-0.0263143 0.0592975 -0.0998266 255 255 0
-0.0242349 0.0592943 -0.0998260 255 255 0
-0.0221555 0.0592906 -0.0998255 255 255 0
-0.0200759 0.0592863 -0.0998251 255 255 0
-0.0179964 0.0592819 -0.0998252 255 255 0
-0.0159168 0.0592782 -0.0998259 255 255 0
-0.0138360 0.0592739 -0.0998272 255 255 0
-0.0117555 0.0592683 -0.0998289 255 255 0
-0.0096754 0.0592609 -0.0998333 255 255 0
-0.0075946 0.0592565 -0.0998383 255 255 0
-0.0055145 0.0592523 -0.0998457 255 255 0
-0.0034321 0.0592232 -0.0998718 255 255 0
-0.0013528 0.0592077 -0.0998875 255 255 0
-0.0512736 0.0614916 -0.0998427 255 255 0
-0.0491895 0.0614668 -0.0998580 255 255 0
-0.0471088 0.0614501 -0.0998682 255 255 0
-0.0450291 0.0614437 -0.0998703 255 255 0
-0.0429496 0.0614385 -0.0998769 255 255 0
-0.0408703 0.0614346 -0.0998780 255 255 0
-0.0387909 0.0614306 -0.0998790 255 255 0
-0.0367115 0.0614261 -0.0998804 255 255 0
-0.0346320 0.0614218 -0.0998811 255 255 0
-0.0325525 0.0614182 -0.0998798 255 255 0
-0.0304731 0.0614144 -0.0998790 255 255 0
-0.0283936 0.0614099 -0.0998796 255 255 0
-0.0263140 0.0614057 -0.0998796 255 255 0
-0.0242345 0.0614020 -0.0998786 255 255 0
-0.0221550 0.0613981 -0.0998778 255 255 0
-0.0200754 0.0613939 -0.0998772 255 255 0
-0.0179959 0.0613902 -0.0998773 255 255 0
-0.0159163 0.0613875 -0.0998780 255 255 0
-0.0138355 0.0613842 -0.0998795 255 255 0
-0.0117548 0.0613793 -0.0998808 255 255 0
-0.0096747 0.0613733 -0.0998850 255 255 0
-0.0075938 0.0613707 -0.0998911 255 255 0
-0.0055137 0.0613698 -0.0998994 255 255 0
-0.0034312 0.0613439 -0.0999159 255 255 0
-0.0013525 0.0613324 -0.0999347 255 255 0
-0.0512748 0.0636799 -0.0999933 255 255 0
-0.0491905 0.0636611 -0.1000149 255 255 0
-0.0471084 0.0636474 -0.1000339 255 255 0
-0.0450288 0.0636416 -0.1000363 255 255 0
-0.0429493 0.0636366 -0.1000384 255 255 0
-0.0408700 0.0636333 -0.1000398 255 255 0
-0.0387906 0.0636298 -0.1000412 255 255 0
-0.0367111 0.0636252 -0.1000433 255 255 0
-0.0346317 0.0636212 -0.1000447 255 255 0
-0.0325521 0.0636174 -0.1000447 255 255 0
-0.0304725 0.0636137 -0.1000451 255 255 0
-0.0283928 0.0636111 -0.1000457 255 255 0
-0.0263132 0.0636084 -0.1000467 255 255 0
-0.0242337 0.0636062 -0.1000476 255 255 0
-0.0221542 0.0636045 -0.1000489 255 255 0
-0.0200745 0.0636028 -0.1000503 255 255 0
-0.0179949 0.0636014 -0.1000525 255 255 0
-0.0159152 0.0636011 -0.1000550 255 255 0
-0.0138344 0.0636009 -0.1000591 255 255 0
-0.0117537 0.0635998 -0.1000633 255 255 0
-0.0096726 0.0635976 -0.1000706 255 255 0
-0.0075919 0.0635972 -0.1000796 255 255 0
-0.0055116 0.0635956 -0.1000958 255 255 0
-0.0034290 0.0635804 -0.1001168 255 255 0
-0.0013508 0.0635700 -0.1001339 255 255 0
-0.0512778 0.0658884 -0.1001391 255 255 0
-0.0491932 0.0658676 -0.1001718 255 255 0
-0.0471080 0.0658556 -0.1001897 255 255 0
-0.0450284 0.0658496 -0.1001929 255 255 0
-0.0429489 0.0658438 -0.1002005 255 255 0
-0.0408695 0.0658401 -0.1002029 255 255 0
-0.0387901 0.0658363 -0.1002048 255 255 0
-0.0367105 0.0658314 -0.1002067 255 255 0
-0.0346309 0.0658272 -0.1002083 255 255 0
-0.0325513 0.0658229 -0.1002090 255 255 0
-0.0304718 0.0658197 -0.1002100 255 255 0
-0.0283921 0.0658179 -0.1002113 255 255 0
-0.0263124 0.0658165 -0.1002127 255 255 0
-0.0242328 0.0658145 -0.1002143 255 255 0
-0.0221532 0.0658137 -0.1002163 255 255 0
-0.0200734 0.0658133 -0.1002182 255 255 0
-0.0179937 0.0658142 -0.1002214 255 255 0
-0.0159125 0.0658162 -0.1002258 255 255 0
-0.0138322 0.0658183 -0.1002315 255 255 0
-0.0117522 0.0658198 -0.1002369 255 255 0
-0.0096710 0.0658208 -0.1002465 255 255 0
-0.0075893 0.0658245 -0.1002601 255 255 0
-0.0055082 0.0658254 -0.1002745 255 255 0
-0.0034253 0.0658183 -0.1003064 255 255 0
-0.0491926 0.0681763 -0.1003343 255 255 0
-0.0471111 0.0681656 -0.1003582 255 255 0
-0.0450276 0.0681544 -0.1003599 255 255 0
-0.0429480 0.0681458 -0.1003620 255 255 0
-0.0408686 0.0681426 -0.1003656 255 255 0
-0.0387891 0.0681386 -0.1003687 255 255 0
-0.0367096 0.0681340 -0.1003703 255 255 0
-0.0346300 0.0681289 -0.1003716 255 255 0
-0.0325504 0.0681243 -0.1003726 255 255 0
-0.0304706 0.0681204 -0.1003736 255 255 0
-0.0283908 0.0681189 -0.1003756 255 255 0
-0.0263109 0.0681166 -0.1003767 255 255 0
-0.0242310 0.0681119 -0.1003752 255 255 0
-0.0221511 0.0681106 -0.1003752 255 255 0
-0.0200713 0.0681131 -0.1003767 255 255 0
-0.0179915 0.0681153 -0.1003795 255 255 0
-0.0159099 0.0681197 -0.1003887 255 255 0
-0.0138296 0.0681234 -0.1003944 255 255 0
-0.0117488 0.0681221 -0.1003969 255 255 0
-0.0096674 0.0681224 -0.1004060 255 255 0
-0.0075852 0.0681317 -0.1004226 255 255 0
-0.0055033 0.0681318 -0.1004397 255 255 0
-0.0034190 0.0681232 -0.1004769 255 255 0
-0.0491961 0.0704125 -0.1004245 255 255 0
-0.0471104 0.0704037 -0.1004542 255 255 0
-0.0450307 0.0703907 -0.1004572 255 255 0
-0.0429474 0.0703804 -0.1004600 255 255 0
-0.0408679 0.0703742 -0.1004639 255 255 0
-0.0387884 0.0703701 -0.1004668 255 255 0
-0.0367088 0.0703658 -0.1004689 255 255 0
-0.0346291 0.0703612 -0.1004703 255 255 0
-0.0325494 0.0703560 -0.1004703 255 255 0
-0.0304697 0.0703519 -0.1004711 255 255 0
-0.0283898 0.0703499 -0.1004747 255 255 0
-0.0263098 0.0703487 -0.1004784 255 255 0
-0.0242297 0.0703406 -0.1004768 255 255 0
-0.0221497 0.0703368 -0.1004759 255 255 0
-0.0200699 0.0703389 -0.1004768 255 255 0
-0.0179896 0.0703422 -0.1004791 255 255 0
-0.0159083 0.0703480 -0.1004831 255 255 0
-0.0138278 0.0703569 -0.1004893 255 255 0
-0.0117460 0.0703556 -0.1004906 255 255 0
-0.0096641 0.0703561 -0.1005002 255 255 0
-0.0075816 0.0703678 -0.1005245 255 255 0
-0.0054986 0.0703705 -0.1005463 255 255 0
-0.0034135 0.0703554 -0.1005733 255 255 0
-0.0492002 0.0725318 -0.1004198 255 255 0
-0.0471103 0.0725238 -0.1004562 255 255 0
-0.0450307 0.0725180 -0.1004646 255 255 0
-0.0429509 0.0725126 -0.1004734 255 255 0
-0.0408678 0.0725094 -0.1004797 255 255 0
-0.0387883 0.0725053 -0.1004831 255 255 0
-0.0367087 0.0724998 -0.1004867 255 255 0
-0.0346289 0.0724934 -0.1004884 255 255 0
-0.0325490 0.0724816 -0.1004862 255 255 0
-0.0304691 0.0724739 -0.1004856 255 255 0
-0.0283890 0.0724718 -0.1004880 255 255 0
-0.0263090 0.0724698 -0.1004896 255 255 0
-0.0242290 0.0724683 -0.1004900 255 255 0
-0.0221491 0.0724682 -0.1004907 255 255 0
-0.0200693 0.0724654 -0.1004909 255 255 0
-0.0179877 0.0724663 -0.1004927 255 255 0
-0.0159077 0.0724743 -0.1004970 255 255 0
-0.0138263 0.0724813 -0.1005045 255 255 0
-0.0117448 0.0724826 -0.1005083 255 255 0
-0.0096623 0.0724868 -0.1005218 255 255 0
-0.0075789 0.0725030 -0.1005571 255 255 0
-0.0054949 0.0725133 -0.1005832 255 255 0
-0.0492038 0.0746548 -0.1004325 255 255 0
-0.0471143 0.0746447 -0.1004657 255 255 0
-0.0450307 0.0746362 -0.1004795 255 255 0
-0.0429510 0.0746311 -0.1004866 255 255 0
-0.0408714 0.0746253 -0.1004903 255 255 0
-0.0387882 0.0746200 -0.1004935 255 255 0
-0.0367085 0.0746134 -0.1004975 255 255 0
-0.0346286 0.0746058 -0.1004999 255 255 0
-0.0325488 0.0745909 -0.1004975 255 255 0
-0.0304688 0.0745814 -0.1004962 255 255 0
-0.0283886 0.0745779 -0.1004968 255 255 0
-0.0263085 0.0745761 -0.1004980 255 255 0
-0.0242287 0.0745779 -0.1004995 255 255 0
-0.0221487 0.0745800 -0.1005013 255 255 0
-0.0200673 0.0745747 -0.1005005 255 255 0
-0.0179872 0.0745747 -0.1005022 255 255 0
-0.0159065 0.0745809 -0.1005055 255 255 0
-0.0138250 0.0745903 -0.1005149 255 255 0
-0.0117432 0.0745945 -0.1005232 255 255 0
-0.0096604 0.0746037 -0.1005436 255 255 0
-0.0075763 0.0746221 -0.1005839 255 255 0
-0.0054917 0.0746356 -0.1006206 255 255 0
-0.0492069 0.0767852 -0.1004660 255 255 0
-0.0471162 0.0767750 -0.1004930 255 255 0
-0.0450334 0.0767579 -0.1004938 255 255 0
-0.0429510 0.0767463 -0.1004955 255 255 0
-0.0408715 0.0767363 -0.1004996 255 255 0
-0.0387919 0.0767283 -0.1005036 255 255 0
-0.0367120 0.0767219 -0.1005090 255 255 0
-0.0346288 0.0767112 -0.1005128 255 255 0
-0.0325489 0.0767025 -0.1005147 255 255 0
-0.0304688 0.0766957 -0.1005156 255 255 0
-0.0283886 0.0766895 -0.1005141 255 255 0
-0.0263085 0.0766863 -0.1005138 255 255 0
-0.0242286 0.0766886 -0.1005154 255 255 0
-0.0221471 0.0766942 -0.1005171 255 255 0
-0.0200670 0.0766951 -0.1005186 255 255 0
-0.0179870 0.0766973 -0.1005215 255 255 0
-0.0159061 0.0766985 -0.1005226 255 255 0
-0.0138242 0.0767069 -0.1005361 255 255 0
-0.0117422 0.0767219 -0.1005486 255 255 0
-0.0096588 0.0767377 -0.1005685 255 255 0
-0.0075735 0.0767657 -0.1006238 255 255 0
-0.0450359 0.0788836 -0.1005098 255 255 0
-0.0429513 0.0788651 -0.1005045 255 255 0
-0.0408718 0.0788474 -0.1005022 255 255 0
-0.0387922 0.0788349 -0.1005031 255 255 0
-0.0367125 0.0788276 -0.1005086 255 255 0
-0.0346325 0.0788204 -0.1005137 255 255 0
-0.0325491 0.0788119 -0.1005183 255 255 0
-0.0304690 0.0788064 -0.1005213 255 255 0
-0.0283887 0.0787976 -0.1005215 255 255 0
-0.0263085 0.0787928 -0.1005225 255 255 0
-0.0242285 0.0787950 -0.1005234 255 255 0
-0.0221469 0.0787991 -0.1005270 255 255 0
-0.0200669 0.0788033 -0.1005340 255 255 0
-0.0179866 0.0788097 -0.1005405 255 255 0
-0.0159042 0.0788085 -0.1005436 255 255 0
-0.0138230 0.0788147 -0.1005540 255 255 0
-0.0117411 0.0788333 -0.1005668 255 255 0
-0.0096578 0.0788496 -0.1005899 255 255 0
-0.0075712 0.0788744 -0.1006545 255 255 0
-0.0387970 0.0809661 -0.1005051 255 255 0
-0.0367128 0.0809450 -0.1005002 255 255 0
-0.0346327 0.0809245 -0.1005010 255 255 0
-0.0325527 0.0809090 -0.1005058 255 255 0
-0.0304709 0.0808981 -0.1005106 255 255 0
-0.0283888 0.0808928 -0.1005196 255 255 0
-0.0263085 0.0808902 -0.1005255 255 255 0
-0.0242270 0.0808926 -0.1005256 255 255 0
-0.0221470 0.0808939 -0.1005268 255 255 0
-0.0200664 0.0808881 -0.1005285 255 255 0
-0.0179862 0.0808911 -0.1005345 255 255 0
-0.0159043 0.0808979 -0.1005422 255 255 0
-0.0138217 0.0809138 -0.1005644 255 255 0
-0.0117408 0.0809538 -0.1005865 255 255 0
-0.0096569 0.0809816 -0.1006191 255 255 0
-0.0075695 0.0810033 -0.1007005 255 255 0
-0.0346331 0.0830376 -0.1005069 255 255 0
-0.0325528 0.0830163 -0.1005069 255 255 0
-0.0304710 0.0830035 -0.1005119 255 255 0
-0.0283888 0.0830016 -0.1005263 255 255 0
-0.0263071 0.0830000 -0.1005353 255 255 0
-0.0242269 0.0830025 -0.1005327 255 255 0
-0.0221464 0.0830028 -0.1005387 255 255 0
-0.0200663 0.0829905 -0.1005402 255 255 0
-0.0179848 0.0829912 -0.1005489 255 255 0
-0.0159027 0.0830034 -0.1005673 255 255 0
-0.0304714 0.0851524 -0.1005458 255 255 0
-0.0283874 0.0851549 -0.1005703 255 255 0
-0.0263049 0.0851633 -0.1005939 255 255 0
-0.0242396 0.0320306 -0.0984481 255 255 0
-0.0221627 0.0320199 -0.0984478 255 255 0
-0.0325600 0.0341224 -0.0984706 255 255 0
-0.0304807 0.0341197 -0.0984705 255 255 0
-0.0284010 0.0341182 -0.0984695 255 255 0
-0.0263213 0.0341153 -0.0984701 255 255 0
-0.0242398 0.0341055 -0.0984756 255 255 0
-0.0221604 0.0340972 -0.0984743 255 255 0
-0.0200808 0.0340965 -0.0984722 255 255 0
-0.0180036 0.0340912 -0.0984710 255 255 0
-0.0408779 0.0362082 -0.0984830 255 255 0
-0.0387987 0.0362055 -0.0984818 255 255 0
-0.0367191 0.0362129 -0.0984801 255 255 0
-0.0346395 0.0362175 -0.0984791 255 255 0
-0.0325601 0.0362140 -0.0984788 255 255 0
-0.0304806 0.0362107 -0.0984781 255 255 0
-0.0284012 0.0362077 -0.0984767 255 255 0
-0.0263217 0.0362048 -0.0984750 255 255 0
-0.0242421 0.0361999 -0.0984740 255 255 0
-0.0221602 0.0361949 -0.0984722 255 255 0
-0.0200805 0.0361891 -0.0984773 255 255 0
-0.0180008 0.0361844 -0.0984778 255 255 0
-0.0159232 0.0361814 -0.0984794 255 255 0
-0.0138439 0.0361807 -0.0984811 255 255 0
-0.0429573 0.0383317 -0.0985010 255 255 0
-0.0408782 0.0383276 -0.0985011 255 255 0
-0.0387990 0.0383271 -0.0985006 255 255 0
-0.0367194 0.0383328 -0.0984991 255 255 0
-0.0346398 0.0383372 -0.0984978 255 255 0
-0.0325603 0.0383412 -0.0984969 255 255 0
-0.0304807 0.0383427 -0.0984957 255 255 0
-0.0284012 0.0383408 -0.0984942 255 255 0
-0.0263217 0.0383380 -0.0984925 255 255 0
-0.0242423 0.0383337 -0.0984913 255 255 0
-0.0221629 0.0383300 -0.0984892 255 255 0
-0.0200831 0.0383278 -0.0984861 255 255 0
-0.0180013 0.0383238 -0.0984829 255 255 0
-0.0159214 0.0383196 -0.0984802 255 255 0
-0.0138429 0.0383133 -0.0984849 255 255 0
-0.0117631 0.0383041 -0.0984825 255 255 0
-0.0096836 0.0382949 -0.0984812 255 255 0
-0.0076058 0.0382937 -0.0984805 255 255 0
-0.0450377 0.0404680 -0.0984826 255 255 0
-0.0429575 0.0404488 -0.0984897 255 255 0
-0.0408782 0.0404490 -0.0984901 255 255 0
-0.0387988 0.0404505 -0.0984898 255 255 0
-0.0367192 0.0404538 -0.0984883 255 255 0
-0.0346398 0.0404584 -0.0984866 255 255 0
-0.0325603 0.0404661 -0.0984851 255 255 0
-0.0304810 0.0404701 -0.0984836 255 255 0
-0.0284013 0.0404679 -0.0984819 255 255 0
-0.0263216 0.0404661 -0.0984802 255 255 0
-0.0242421 0.0404631 -0.0984787 255 255 0
-0.0221626 0.0404598 -0.0984765 255 255 0
-0.0200830 0.0404589 -0.0984731 255 255 0
-0.0180035 0.0404551 -0.0984700 255 255 0
-0.0159235 0.0404490 -0.0984675 255 255 0
-0.0138429 0.0404407 -0.0984661 255 255 0
-0.0117619 0.0404241 -0.0984717 255 255 0
-0.0096822 0.0404111 -0.0984703 255 255 0
-0.0076025 0.0404076 -0.0984687 255 255 0
-0.0055235 0.0404009 -0.0984661 255 255 0
-0.0034476 0.0403716 -0.0984631 255 255 0
-0.0450369 0.0425662 -0.0984979 255 255 0
-0.0429575 0.0425660 -0.0985067 255 255 0
-0.0408783 0.0425696 -0.0985068 255 255 0
-0.0387991 0.0425718 -0.0985062 255 255 0
-0.0367196 0.0425739 -0.0985046 255 255 0
-0.0346401 0.0425742 -0.0985030 255 255 0
-0.0325605 0.0425770 -0.0985012 255 255 0
-0.0304809 0.0425782 -0.0984996 255 255 0
-0.0284013 0.0425760 -0.0984978 255 255 0
-0.0263218 0.0425740 -0.0984957 255 255 0
-0.0242423 0.0425710 -0.0984939 255 255 0
-0.0221627 0.0425674 -0.0984918 255 255 0
-0.0200830 0.0425612 -0.0984890 255 255 0
-0.0180033 0.0425559 -0.0984862 255 255 0
-0.0159236 0.0425500 -0.0984838 255 255 0
-0.0138428 0.0425413 -0.0984814 255 255 0
-0.0117620 0.0425283 -0.0984784 255 255 0
-0.0096824 0.0425136 -0.0984812 255 255 0
-0.0076020 0.0424996 -0.0984915 255 255 0
-0.0055221 0.0424862 -0.0984950 255 255 0
-0.0034435 0.0424620 -0.0984976 255 255 0
-0.0471163 0.0446511 -0.0984953 255 255 0
-0.0450370 0.0446617 -0.0984978 255 255 0
-0.0429577 0.0446695 -0.0985052 255 255 0
-0.0408784 0.0446756 -0.0985048 255 255 0
-0.0387990 0.0446781 -0.0985037 255 255 0
-0.0367194 0.0446790 -0.0985017 255 255 0
-0.0346398 0.0446798 -0.0984996 255 255 0
-0.0325603 0.0446790 -0.0984974 255 255 0
-0.0304810 0.0446777 -0.0984952 255 255 0
-0.0284014 0.0446762 -0.0984927 255 255 0
-0.0263219 0.0446741 -0.0984904 255 255 0
-0.0242425 0.0446702 -0.0984884 255 255 0
-0.0221629 0.0446642 -0.0984860 255 255 0
-0.0200831 0.0446595 -0.0984837 255 255 0
-0.0180034 0.0446542 -0.0984814 255 255 0
-0.0159237 0.0446479 -0.0984793 255 255 0
-0.0138428 0.0446380 -0.0984812 255 255 0
-0.0117631 0.0446250 -0.0984831 255 255 0
-0.0096824 0.0446088 -0.0984851 255 255 0
-0.0076020 0.0445899 -0.0984902 255 255 0
-0.0055217 0.0445711 -0.0984995 255 255 0
-0.0034414 0.0445434 -0.0985031 255 255 0
-0.0471164 0.0467368 -0.0985055 255 255 0
-0.0450371 0.0467467 -0.0985079 255 255 0
-0.0429578 0.0467553 -0.0985156 255 255 0
-0.0408785 0.0467639 -0.0985145 255 255 0
-0.0387991 0.0467699 -0.0985133 255 255 0
-0.0367195 0.0467728 -0.0985113 255 255 0
-0.0346401 0.0467724 -0.0985092 255 255 0
-0.0325607 0.0467722 -0.0985071 255 255 0
-0.0304811 0.0467701 -0.0985049 255 255 0
-0.0284014 0.0467667 -0.0985027 255 255 0
-0.0263218 0.0467640 -0.0985005 255 255 0
-0.0242424 0.0467597 -0.0984983 255 255 0
-0.0221629 0.0467554 -0.0984960 255 255 0
-0.0200834 0.0467499 -0.0984937 255 255 0
-0.0180038 0.0467425 -0.0984916 255 255 0
-0.0159241 0.0467327 -0.0984896 255 255 0
-0.0138432 0.0467208 -0.0984881 255 255 0
-0.0117634 0.0467079 -0.0984870 255 255 0
-0.0096824 0.0466909 -0.0984865 255 255 0
-0.0076015 0.0466721 -0.0984870 255 255 0
-0.0055212 0.0466505 -0.0984915 255 255 0
-0.0034403 0.0465925 -0.0984873 255 255 0
-0.0013644 0.0465556 -0.0984869 255 255 0
-0.0471166 0.0488129 -0.0984972 255 255 0
-0.0450373 0.0488236 -0.0984984 255 255 0
-0.0429577 0.0488330 -0.0985047 255 255 0
-0.0408782 0.0488421 -0.0985029 255 255 0
-0.0387989 0.0488481 -0.0985008 255 255 0
-0.0367192 0.0488515 -0.0984986 255 255 0
