ply
format ascii 1.0
element vertex 1139
property float x
property float y
property float z
property uchar red
property uchar green
property uchar blue
end_header
-0.0325530 0.0386015 -0.0997007 255 255 0
-0.0304736 0.0386019 -0.0997014 255 255 0
-0.0283941 0.0386002 -0.0997008 255 255 0
-0.0263146 0.0385896 -0.0997008 255 255 0
-0.0242352 0.0385724 -0.0997019 255 255 0
-0.0221557 0.0385682 -0.0997033 255 255 0
-0.0200647 0.0385655 -0.0997048 255 255 0
-0.0179852 0.0385609 -0.0997517 255 255 0
-0.0159056 0.0385542 -0.0997566 255 255 0
-0.0138318 0.0385463 -0.0997631 255 255 0
-0.0117465 0.0385368 -0.0997684 255 255 0
-0.0096670 0.0385261 -0.0997760 255 255 0
-0.0450528 0.0406977 -0.0996934 255 255 0
-0.0429500 0.0406856 -0.0996973 255 255 0
-0.0408706 0.0406825 -0.0996980 255 255 0
-0.0387913 0.0406820 -0.0996984 255 255 0
-0.0367119 0.0406902 -0.0996973 255 255 0
-0.0346324 0.0407080 -0.0996968 255 255 0
-0.0325530 0.0407082 -0.0996977 255 255 0
-0.0304736 0.0406980 -0.0996984 255 255 0
-0.0283941 0.0406908 -0.0996988 255 255 0
-0.0263146 0.0406883 -0.0996991 255 255 0
-0.0242352 0.0406853 -0.0996993 255 255 0
-0.0221558 0.0406821 -0.0996995 255 255 0
-0.0200763 0.0406806 -0.0996993 255 255 0
-0.0179967 0.0406764 -0.0997000 255 255 0
-0.0159056 0.0406701 -0.0997023 255 255 0
-0.0138317 0.0406615 -0.0997509 255 255 0
-0.0117465 0.0406494 -0.0997549 255 255 0
-0.0096667 0.0406360 -0.0997621 255 255 0
-0.0075815 0.0406254 -0.0997759 255 255 0
-0.0055019 0.0406123 -0.0997867 255 255 0
-0.0471323 0.0428053 -0.0996709 255 255 0
-0.0450303 0.0427995 -0.0996885 255 255 0
-0.0429500 0.0427958 -0.0996914 255 255 0
-0.0408707 0.0427963 -0.0996922 255 255 0
-0.0387913 0.0427970 -0.0996924 255 255 0
-0.0367119 0.0427981 -0.0996916 255 255 0
-0.0346325 0.0427989 -0.0996912 255 255 0
-0.0325531 0.0427999 -0.0996910 255 255 0
-0.0304735 0.0427998 -0.0996909 255 255 0
-0.0283940 0.0427984 -0.0996917 255 255 0
-0.0263145 0.0427963 -0.0996921 255 255 0
-0.0242351 0.0427934 -0.0996920 255 255 0
-0.0221557 0.0427901 -0.0996917 255 255 0
-0.0200762 0.0427872 -0.0996913 255 255 0
-0.0179967 0.0427825 -0.0996917 255 255 0
-0.0159170 0.0427771 -0.0996927 255 255 0
-0.0138318 0.0427684 -0.0996958 255 255 0
-0.0117464 0.0427566 -0.0997279 255 255 0
-0.0096667 0.0427416 -0.0997504 255 255 0
-0.0075813 0.0427245 -0.0997631 255 255 0
-0.0054986 0.0427073 -0.0997744 255 255 0
-0.0034147 0.0426766 -0.0997938 255 255 0
-0.0471322 0.0448858 -0.0996922 255 255 0
-0.0450296 0.0448868 -0.0996955 255 255 0
-0.0429500 0.0448885 -0.0996977 255 255 0
-0.0408707 0.0448912 -0.0996991 255 255 0
-0.0387913 0.0448929 -0.0996996 255 255 0
-0.0367118 0.0448936 -0.0996988 255 255 0
-0.0346324 0.0448938 -0.0996981 255 255 0
-0.0325529 0.0448929 -0.0996974 255 255 0
-0.0304736 0.0448918 -0.0996968 255 255 0
-0.0283941 0.0448906 -0.0996966 255 255 0
-0.0263146 0.0448885 -0.0996962 255 255 0
-0.0242352 0.0448857 -0.0996955 255 255 0
-0.0221557 0.0448822 -0.0996949 255 255 0
-0.0200762 0.0448784 -0.0996947 255 255 0
-0.0179967 0.0448732 -0.0996949 255 255 0
-0.0159172 0.0448674 -0.0996952 255 255 0
-0.0138318 0.0448583 -0.0996975 255 255 0
-0.0117464 0.0448472 -0.0996989 255 255 0
-0.0096667 0.0448308 -0.0997283 255 255 0
-0.0075812 0.0448104 -0.0997609 255 255 0
-0.0054956 0.0447896 -0.0997721 255 255 0
-0.0034063 0.0447513 -0.0997945 255 255 0
-0.0492138 0.0469727 -0.0996516 255 255 0
-0.0471101 0.0469667 -0.0997030 255 255 0
-0.0450295 0.0469682 -0.0997048 255 255 0
-0.0429502 0.0469701 -0.0997065 255 255 0
-0.0408708 0.0469738 -0.0997084 255 255 0
-0.0387915 0.0469765 -0.0997093 255 255 0
-0.0367120 0.0469783 -0.0997088 255 255 0
-0.0346325 0.0469789 -0.0997081 255 255 0
-0.0325530 0.0469778 -0.0997072 255 255 0
-0.0304736 0.0469765 -0.0997062 255 255 0
-0.0283941 0.0469753 -0.0997043 255 255 0
-0.0263146 0.0469731 -0.0997030 255 255 0
-0.0242352 0.0469697 -0.0997024 255 255 0
-0.0221557 0.0469655 -0.0997020 255 255 0
-0.0200762 0.0469611 -0.0997020 255 255 0
-0.0179967 0.0469547 -0.0997020 255 255 0
-0.0159172 0.0469464 -0.0997022 255 255 0
-0.0138318 0.0469359 -0.0997037 255 255 0
-0.0117477 0.0469253 -0.0997038 255 255 0
-0.0096667 0.0469074 -0.0997089 255 255 0
-0.0075803 0.0468886 -0.0997627 255 255 0
-0.0054928 0.0468646 -0.0997723 255 255 0
-0.0034034 0.0468071 -0.0997917 255 255 0
-0.0492125 0.0490376 -0.0996561 255 255 0
-0.0471089 0.0490557 -0.0997058 255 255 0
-0.0450294 0.0490579 -0.0997071 255 255 0
-0.0429500 0.0490606 -0.0997085 255 255 0
-0.0408708 0.0490645 -0.0997104 255 255 0
-0.0387914 0.0490670 -0.0997116 255 255 0
-0.0367119 0.0490485 -0.0997116 255 255 0
-0.0346324 0.0490478 -0.0997114 255 255 0
-0.0325530 0.0490466 -0.0997104 255 255 0
-0.0304737 0.0490449 -0.0997093 255 255 0
-0.0283942 0.0490429 -0.0997078 255 255 0
-0.0263147 0.0490401 -0.0997067 255 255 0
-0.0242353 0.0490364 -0.0997060 255 255 0
-0.0221558 0.0490317 -0.0997057 255 255 0
-0.0200763 0.0490268 -0.0997061 255 255 0
-0.0179968 0.0490202 -0.0997065 255 255 0
-0.0159173 0.0490110 -0.0997072 255 255 0
-0.0138318 0.0490004 -0.0997088 255 255 0
-0.0117485 0.0489900 -0.0997088 255 255 0
-0.0096667 0.0489720 -0.0997136 255 255 0
-0.0075784 0.0489539 -0.0997665 255 255 0
-0.0054927 0.0489287 -0.0997752 255 255 0
-0.0034024 0.0488840 -0.0997937 255 255 0
-0.0513159 0.0511208 -0.0996402 255 255 0
-0.0492122 0.0511089 -0.0996696 255 255 0
-0.0471089 0.0511030 -0.0996948 255 255 0
-0.0450295 0.0511073 -0.0996963 255 255 0
-0.0429501 0.0511104 -0.0996978 255 255 0
-0.0408708 0.0511125 -0.0996995 255 255 0
-0.0387914 0.0511136 -0.0997007 255 255 0
-0.0367119 0.0511132 -0.0997017 255 255 0
-0.0346325 0.0511120 -0.0997021 255 255 0
-0.0325530 0.0511103 -0.0997010 255 255 0
-0.0304736 0.0511079 -0.0997003 255 255 0
-0.0283940 0.0511043 -0.0997005 255 255 0
-0.0263145 0.0511006 -0.0997005 255 255 0
-0.0242352 0.0510972 -0.0996998 255 255 0
-0.0221558 0.0510928 -0.0996997 255 255 0
-0.0200762 0.0510876 -0.0997011 255 255 0
-0.0179968 0.0510813 -0.0997022 255 255 0
-0.0159172 0.0510736 -0.0997025 255 255 0
-0.0138318 0.0510642 -0.0997041 255 255 0
-0.0117470 0.0510554 -0.0997051 255 255 0
-0.0096667 0.0510390 -0.0997104 255 255 0
-0.0075783 0.0510211 -0.0997628 255 255 0
-0.0054926 0.0509972 -0.0997713 255 255 0
-0.0034052 0.0509417 -0.0997916 255 255 0
-0.0513080 0.0531738 -0.0996474 255 255 0
-0.0492123 0.0531701 -0.0996972 255 255 0
-0.0471089 0.0531715 -0.0997013 255 255 0
-0.0450294 0.0531697 -0.0997026 255 255 0
-0.0429500 0.0531584 -0.0997037 255 255 0
-0.0408706 0.0531593 -0.0997045 255 255 0
-0.0387913 0.0531591 -0.0997050 255 255 0
-0.0367118 0.0531575 -0.0997057 255 255 0
-0.0346324 0.0531555 -0.0997059 255 255 0
-0.0325530 0.0531533 -0.0997048 255 255 0
-0.0304736 0.0531507 -0.0997042 255 255 0
-0.0283941 0.0531465 -0.0997039 255 255 0
-0.0263146 0.0531426 -0.0997038 255 255 0
-0.0242351 0.0531439 -0.0997031 255 255 0
-0.0221557 0.0531440 -0.0997030 255 255 0
-0.0200762 0.0531450 -0.0997040 255 255 0
-0.0179967 0.0531398 -0.0997050 255 255 0
-0.0159171 0.0531305 -0.0997054 255 255 0
-0.0138317 0.0531144 -0.0997074 255 255 0
-0.0117465 0.0531019 -0.0997090 255 255 0
-0.0096666 0.0530876 -0.0997145 255 255 0
-0.0075782 0.0530717 -0.0997647 255 255 0
-0.0054925 0.0530510 -0.0997728 255 255 0
-0.0034066 0.0530041 -0.0997947 255 255 0
-0.0013246 0.0529700 -0.0998111 255 255 0
-0.0512921 0.0552424 -0.0996617 255 255 0
-0.0491951 0.0552261 -0.0997120 255 255 0
-0.0471090 0.0552173 -0.0997164 255 255 0
-0.0450296 0.0552221 -0.0997174 255 255 0
-0.0429501 0.0552247 -0.0997180 255 255 0
-0.0408708 0.0552248 -0.0997181 255 255 0
-0.0387914 0.0552239 -0.0997183 255 255 0
-0.0367119 0.0552215 -0.0997181 255 255 0
-0.0346324 0.0552188 -0.0997176 255 255 0
-0.0325530 0.0552164 -0.0997168 255 255 0
-0.0304735 0.0552133 -0.0997158 255 255 0
-0.0283940 0.0552090 -0.0997141 255 255 0
-0.0263145 0.0552050 -0.0997128 255 255 0
-0.0242351 0.0552016 -0.0997120 255 255 0
-0.0221556 0.0551976 -0.0997116 255 255 0
-0.0200761 0.0551932 -0.0997118 255 255 0
-0.0179966 0.0551883 -0.0997121 255 255 0
-0.0159170 0.0551829 -0.0997125 255 255 0
-0.0138317 0.0551763 -0.0997137 255 255 0
-0.0117465 0.0551693 -0.0997156 255 255 0
-0.0096665 0.0551578 -0.0997206 255 255 0
-0.0075809 0.0551474 -0.0997567 255 255 0
-0.0054952 0.0551330 -0.0997753 255 255 0
-0.0034077 0.0550938 -0.0997996 255 255 0
-0.0013275 0.0550656 -0.0998179 255 255 0
-0.0512920 0.0573142 -0.0996874 255 255 0
-0.0491900 0.0572967 -0.0997407 255 255 0
-0.0471090 0.0573071 -0.0997473 255 255 0
-0.0450294 0.0572896 -0.0997486 255 255 0
-0.0429500 0.0572905 -0.0997497 255 255 0
-0.0408707 0.0572895 -0.0997499 255 255 0
-0.0387914 0.0572878 -0.0997502 255 255 0
-0.0367118 0.0572846 -0.0997502 255 255 0
-0.0346323 0.0572814 -0.0997501 255 255 0
-0.0325528 0.0572790 -0.0997496 255 255 0
-0.0304735 0.0572761 -0.0997488 255 255 0
-0.0283939 0.0572822 -0.0997477 255 255 0
-0.0263145 0.0572881 -0.0997468 255 255 0
-0.0242350 0.0572848 -0.0997465 255 255 0
-0.0221556 0.0572812 -0.0997463 255 255 0
-0.0200760 0.0572774 -0.0997463 255 255 0
-0.0179965 0.0572733 -0.0997469 255 255 0
-0.0159169 0.0572690 -0.0997476 255 255 0
-0.0138315 0.0572640 -0.0997490 255 255 0
-0.0117462 0.0572543 -0.0997512 255 255 0
-0.0096662 0.0572287 -0.0997562 255 255 0
-0.0075807 0.0572222 -0.0997604 255 255 0
-0.0054978 0.0572134 -0.0998084 255 255 0
-0.0034086 0.0571822 -0.0998361 255 255 0
-0.0013306 0.0571601 -0.0998555 255 255 0
-0.0512923 0.0594084 -0.0996796 255 255 0
-0.0491897 0.0593846 -0.0996938 255 255 0
-0.0471090 0.0593693 -0.0997453 255 255 0
-0.0450294 0.0593669 -0.0997474 255 255 0
-0.0429500 0.0593642 -0.0997491 255 255 0
-0.0408707 0.0593614 -0.0997503 255 255 0
-0.0387913 0.0593584 -0.0997514 255 255 0
-0.0367118 0.0593545 -0.0997525 255 255 0
-0.0346324 0.0593508 -0.0997531 255 255 0
-0.0325529 0.0593475 -0.0997521 255 255 0
-0.0304734 0.0593439 -0.0997516 255 255 0
-0.0283938 0.0593392 -0.0997519 255 255 0
-0.0263143 0.0593348 -0.0997521 255 255 0
-0.0242349 0.0593316 -0.0997515 255 255 0
-0.0221555 0.0593278 -0.0997510 255 255 0
-0.0200759 0.0593235 -0.0997506 255 255 0
-0.0179964 0.0593192 -0.0997507 255 255 0
-0.0159168 0.0593154 -0.0997513 255 255 0
-0.0138314 0.0593111 -0.0997527 255 255 0
-0.0117462 0.0593056 -0.0997543 255 255 0
-0.0096661 0.0592982 -0.0997588 255 255 0
-0.0075806 0.0592938 -0.0997638 255 255 0
-0.0055005 0.0592896 -0.0997712 255 255 0
-0.0034112 0.0592605 -0.0998345 255 255 0
-0.0013371 0.0592450 -0.0998502 255 255 0
-0.0512922 0.0615102 -0.0997310 255 255 0
-0.0491895 0.0614951 -0.0997462 255 255 0
-0.0471087 0.0614873 -0.0997565 255 255 0
-0.0450291 0.0614810 -0.0997586 255 255 0
-0.0429496 0.0614757 -0.0998024 255 255 0
-0.0408703 0.0614718 -0.0998035 255 255 0
-0.0387909 0.0614679 -0.0998045 255 255 0
-0.0367115 0.0614633 -0.0998059 255 255 0
-0.0346320 0.0614591 -0.0998066 255 255 0
-0.0325525 0.0614555 -0.0998053 255 255 0
-0.0304731 0.0614516 -0.0998045 255 255 0
-0.0283936 0.0614472 -0.0998051 255 255 0
-0.0263140 0.0614429 -0.0998051 255 255 0
-0.0242345 0.0614392 -0.0998041 255 255 0
-0.0221550 0.0614353 -0.0998033 255 255 0
-0.0200754 0.0614311 -0.0998027 255 255 0
-0.0179959 0.0614275 -0.0998028 255 255 0
-0.0159163 0.0614248 -0.0998035 255 255 0
-0.0138308 0.0614215 -0.0998050 255 255 0
-0.0117455 0.0614166 -0.0998063 255 255 0
-0.0096654 0.0614105 -0.0998105 255 255 0
-0.0075799 0.0614080 -0.0998166 255 255 0
-0.0054997 0.0614071 -0.0998249 255 255 0
-0.0034098 0.0613811 -0.0998414 255 255 0
-0.0013387 0.0613697 -0.0998974 255 255 0
-0.0512934 0.0636799 -0.0998443 255 255 0
-0.0491905 0.0636611 -0.0998660 255 255 0
-0.0471084 0.0636474 -0.0999221 255 255 0
-0.0450288 0.0636416 -0.0999245 255 255 0
-0.0429493 0.0636366 -0.0999266 255 255 0
-0.0408700 0.0636333 -0.0999280 255 255 0
-0.0387906 0.0636298 -0.0999294 255 255 0
-0.0367111 0.0636252 -0.0999315 255 255 0
-0.0346317 0.0636212 -0.0999330 255 255 0
-0.0325521 0.0636174 -0.0999329 255 255 0
-0.0304725 0.0636137 -0.0999334 255 255 0
-0.0283928 0.0636111 -0.0999340 255 255 0
-0.0263132 0.0636084 -0.0999350 255 255 0
-0.0242337 0.0636062 -0.0999359 255 255 0
-0.0221542 0.0636045 -0.0999371 255 255 0
-0.0200745 0.0636028 -0.0999386 255 255 0
-0.0179949 0.0636014 -0.0999407 255 255 0
-0.0159152 0.0636011 -0.0999433 255 255 0
-0.0138297 0.0636009 -0.0999474 255 255 0
-0.0117444 0.0635998 -0.0999516 255 255 0
-0.0096586 0.0635976 -0.0999589 255 255 0
-0.0075756 0.0635972 -0.0999679 255 255 0
-0.0054943 0.0635956 -0.1000213 255 255 0
-0.0034046 0.0635804 -0.1000423 255 255 0
-0.0013344 0.0635700 -0.1000594 255 255 0
-0.0512964 0.0658884 -0.0999664 255 255 0
-0.0492118 0.0658618 -0.1000228 255 255 0
-0.0471080 0.0658183 -0.1000407 255 255 0
-0.0450284 0.0658123 -0.1000440 255 255 0
-0.0429489 0.0658065 -0.1000887 255 255 0
-0.0408695 0.0658028 -0.1000911 255 255 0
-0.0387901 0.0657991 -0.1000931 255 255 0
-0.0367105 0.0657941 -0.1000950 255 255 0
-0.0346309 0.0657899 -0.1000966 255 255 0
-0.0325513 0.0657856 -0.1000973 255 255 0
-0.0304718 0.0657824 -0.1000982 255 255 0
-0.0283921 0.0657807 -0.1000995 255 255 0
-0.0263124 0.0657793 -0.1001009 255 255 0
-0.0242328 0.0657772 -0.1001026 255 255 0
-0.0221532 0.0657764 -0.1001045 255 255 0
-0.0200734 0.0657761 -0.1001065 255 255 0
-0.0179937 0.0657769 -0.1001096 255 255 0
-0.0159032 0.0657790 -0.1001140 255 255 0
-0.0138229 0.0657810 -0.1001198 255 255 0
-0.0117429 0.0657825 -0.1001252 255 255 0
-0.0096570 0.0657836 -0.1001347 255 255 0
-0.0075707 0.0657872 -0.1001483 255 255 0
-0.0054849 0.0657882 -0.1001627 255 255 0
-0.0033929 0.0657810 -0.1002319 255 255 0
-0.0492112 0.0681391 -0.1001853 255 255 0
-0.0471131 0.0681283 -0.1002092 255 255 0
-0.0450276 0.0681171 -0.1002109 255 255 0
-0.0429480 0.0681086 -0.1002129 255 255 0
-0.0408686 0.0681053 -0.1002166 255 255 0
-0.0387891 0.0681013 -0.1002197 255 255 0
-0.0367096 0.0680967 -0.1002213 255 255 0
-0.0346300 0.0680917 -0.1002226 255 255 0
-0.0325504 0.0680871 -0.1002236 255 255 0
-0.0304706 0.0680832 -0.1002246 255 255 0
-0.0283908 0.0680806 -0.1002266 255 255 0
-0.0263109 0.0680783 -0.1002277 255 255 0
-0.0242310 0.0680746 -0.1002262 255 255 0
-0.0221511 0.0680733 -0.1002530 255 255 0
-0.0200713 0.0680758 -0.1002583 255 255 0
-0.0179915 0.0680780 -0.1002662 255 255 0
-0.0159006 0.0680825 -0.1002769 255 255 0
-0.0138203 0.0680862 -0.1002827 255 255 0
-0.0117372 0.0680849 -0.1002852 255 255 0
-0.0096493 0.0680852 -0.1002942 255 255 0
-0.0075603 0.0680945 -0.1003109 255 255 0
-0.0054711 0.0680573 -0.1003279 255 255 0
-0.0033731 0.0680487 -0.1004024 255 255 0
-0.0492222 0.0703752 -0.1002755 255 255 0
-0.0471290 0.0703664 -0.1003052 255 255 0
-0.0450493 0.0703534 -0.1003082 255 255 0
-0.0429474 0.0703431 -0.1003110 255 255 0
-0.0408679 0.0703342 -0.1003149 255 255 0
-0.0387884 0.0703246 -0.1003178 255 255 0
-0.0367088 0.0703149 -0.1003513 255 255 0
-0.0346291 0.0703064 -0.1003552 255 255 0
-0.0325494 0.0703006 -0.1003572 255 255 0
-0.0304697 0.0702962 -0.1003594 255 255 0
-0.0283898 0.0702933 -0.1003630 255 255 0
-0.0263098 0.0702927 -0.1003667 255 255 0
-0.0242297 0.0702886 -0.1003650 255 255 0
-0.0221497 0.0702899 -0.1003641 255 255 0
-0.0200699 0.0702956 -0.1003651 255 255 0
-0.0179883 0.0703021 -0.1003674 255 255 0
-0.0158990 0.0703101 -0.1003713 255 255 0
-0.0138185 0.0703196 -0.1003775 255 255 0
-0.0117320 0.0703183 -0.1003789 255 255 0
-0.0096431 0.0703189 -0.1003884 255 255 0
-0.0075514 0.0703306 -0.1004500 255 255 0
-0.0054556 0.0702960 -0.1004718 255 255 0
-0.0033524 0.0702809 -0.1004988 255 255 0
-0.0492382 0.0724946 -0.1002650 255 255 0
-0.0471290 0.0724865 -0.1003072 255 255 0
-0.0450493 0.0724808 -0.1003156 255 255 0
-0.0429695 0.0724754 -0.1003617 255 255 0
-0.0408678 0.0724722 -0.1003680 255 255 0
-0.0387883 0.0724681 -0.1003713 255 255 0
-0.0367087 0.0724626 -0.1003749 255 255 0
-0.0346289 0.0724562 -0.1003767 255 255 0
-0.0325490 0.0724444 -0.1003745 255 255 0
-0.0304691 0.0724366 -0.1003738 255 255 0
-0.0283890 0.0724346 -0.1003763 255 255 0
-0.0263090 0.0724326 -0.1003779 255 255 0
-0.0242290 0.0724311 -0.1003782 255 255 0
-0.0221491 0.0724310 -0.1003790 255 255 0
-0.0200693 0.0724282 -0.1003792 255 255 0
-0.0179784 0.0724290 -0.1003810 255 255 0
-0.0158984 0.0724370 -0.1003852 255 255 0
-0.0138123 0.0724441 -0.1003927 255 255 0
-0.0117276 0.0724454 -0.1003965 255 255 0
-0.0096367 0.0724496 -0.1004443 255 255 0
-0.0075416 0.0724658 -0.1004826 255 255 0
-0.0054414 0.0724761 -0.1005207 255 255 0
-0.0492549 0.0746548 -0.1002796 255 255 0
-0.0471344 0.0746447 -0.1003167 255 255 0
-0.0450494 0.0745989 -0.1003677 255 255 0
-0.0429696 0.0745938 -0.1003748 255 255 0
-0.0408900 0.0745881 -0.1003785 255 255 0
-0.0387954 0.0745827 -0.1003817 255 255 0
-0.0367085 0.0745761 -0.1003858 255 255 0
-0.0346286 0.0745685 -0.1003881 255 255 0
-0.0325488 0.0745536 -0.1003857 255 255 0
-0.0304688 0.0745441 -0.1003844 255 255 0
-0.0283886 0.0745406 -0.1003850 255 255 0
-0.0263085 0.0745389 -0.1003863 255 255 0
-0.0242287 0.0745407 -0.1003877 255 255 0
-0.0221487 0.0745428 -0.1003896 255 255 0
-0.0200614 0.0745374 -0.1003888 255 255 0
-0.0179779 0.0745375 -0.1003904 255 255 0
-0.0158972 0.0745436 -0.1003938 255 255 0
-0.0138110 0.0745531 -0.1004031 255 255 0
-0.0117236 0.0745572 -0.1004487 255 255 0
-0.0096310 0.0745665 -0.1004691 255 255 0
-0.0075320 0.0745848 -0.1005416 255 255 0
-0.0054287 0.0746167 -0.1005834 255 255 0
-0.0492721 0.0768224 -0.1003170 255 255 0
-0.0471446 0.0767807 -0.1003812 255 255 0
-0.0450520 0.0767579 -0.1003821 255 255 0
-0.0429696 0.0767463 -0.1003838 255 255 0
-0.0408901 0.0767363 -0.1003879 255 255 0
-0.0388105 0.0767283 -0.1003918 255 255 0
-0.0367306 0.0767219 -0.1003973 255 255 0
-0.0346288 0.0767005 -0.1004010 255 255 0
-0.0325489 0.0766652 -0.1004029 255 255 0
-0.0304688 0.0766584 -0.1004038 255 255 0
-0.0283886 0.0766523 -0.1004023 255 255 0
-0.0263085 0.0766491 -0.1004020 255 255 0
-0.0242286 0.0766513 -0.1004036 255 255 0
-0.0221459 0.0766942 -0.1004054 255 255 0
-0.0200577 0.0766951 -0.1004068 255 255 0
-0.0179777 0.0766973 -0.1004097 255 255 0
-0.0158968 0.0766985 -0.1004412 255 255 0
-0.0138055 0.0767069 -0.1004616 255 255 0
-0.0117199 0.0767219 -0.1004741 255 255 0
-0.0096258 0.0767377 -0.1004940 255 255 0
-0.0075205 0.0767657 -0.1005865 255 255 0
-0.0450612 0.0789208 -0.1003981 255 255 0
-0.0429699 0.0788805 -0.1003928 255 255 0
-0.0408904 0.0788474 -0.1003904 255 255 0
-0.0388108 0.0788349 -0.1003913 255 255 0
-0.0367311 0.0788276 -0.1003969 255 255 0
-0.0346511 0.0788204 -0.1004020 255 255 0
-0.0325491 0.0788119 -0.1004066 255 255 0
-0.0304690 0.0788064 -0.1004096 255 255 0
-0.0283887 0.0787976 -0.1004097 255 255 0
-0.0263085 0.0787928 -0.1004108 255 255 0
-0.0242285 0.0787950 -0.1004116 255 255 0
-0.0221403 0.0787991 -0.1004446 255 255 0
-0.0200576 0.0788033 -0.1004595 255 255 0
-0.0179773 0.0788097 -0.1004660 255 255 0
-0.0158856 0.0788085 -0.1004690 255 255 0
-0.0137997 0.0788147 -0.1004795 255 255 0
-0.0117173 0.0788333 -0.1005088 255 255 0
-0.0096208 0.0788496 -0.1005526 255 255 0
-0.0075094 0.0788744 -0.1006545 255 255 0
-0.0388162 0.0810034 -0.1004306 255 255 0
-0.0367315 0.0809494 -0.1004088 255 255 0
-0.0346514 0.0809245 -0.1003892 255 255 0
-0.0325713 0.0809090 -0.1004047 255 255 0
-0.0304802 0.0808981 -0.1004302 255 255 0
-0.0283888 0.0808928 -0.1004451 255 255 0
-0.0263085 0.0808902 -0.1004510 255 255 0
-0.0242257 0.0808926 -0.1004511 255 255 0
-0.0221376 0.0808939 -0.1004523 255 255 0
-0.0200571 0.0808881 -0.1004540 255 255 0
-0.0179769 0.0808911 -0.1004600 255 255 0
-0.0158856 0.0808979 -0.1004676 255 255 0
-0.0137938 0.0809138 -0.1005271 255 255 0
-0.0117128 0.0809667 -0.1005492 255 255 0
-0.0096195 0.0810189 -0.1006191 255 255 0
-0.0074997 0.0810406 -0.1007377 255 255 0
-0.0346518 0.0830748 -0.1004324 255 255 0
-0.0325714 0.0830535 -0.1004324 255 255 0
-0.0304803 0.0830407 -0.1004374 255 255 0
-0.0283888 0.0830389 -0.1004518 255 255 0
-0.0263071 0.0830373 -0.1004608 255 255 0
-0.0242176 0.0830398 -0.1004582 255 255 0
-0.0221371 0.0830401 -0.1005014 255 255 0
-0.0200570 0.0830277 -0.1005029 255 255 0
-0.0179750 0.0830284 -0.1005117 255 255 0
-0.0158753 0.0830407 -0.1005300 255 255 0
-0.0304808 0.0851896 -0.1005086 255 255 0
-0.0283874 0.0851921 -0.1005331 255 255 0
-0.0263042 0.0852006 -0.1005567 255 255 0
-0.0242303 0.0320306 -0.0984109 255 255 0
-0.0221627 0.0320386 -0.0984106 255 255 0
-0.0325600 0.0341224 -0.0983961 255 255 0
-0.0304807 0.0341197 -0.0983960 255 255 0
-0.0284010 0.0341182 -0.0983950 255 255 0
-0.0263213 0.0341153 -0.0983956 255 255 0
-0.0242304 0.0341055 -0.0984337 255 255 0
-0.0221511 0.0340972 -0.0984371 255 255 0
-0.0200715 0.0341135 -0.0984350 255 255 0
-0.0180036 0.0341098 -0.0984337 255 255 0
-0.0408779 0.0362082 -0.0984085 255 255 0
-0.0387987 0.0362055 -0.0984073 255 255 0
-0.0367191 0.0362129 -0.0984056 255 255 0
-0.0346395 0.0362175 -0.0984046 255 255 0
-0.0325601 0.0362140 -0.0984043 255 255 0
-0.0304806 0.0362107 -0.0984036 255 255 0
-0.0284012 0.0362077 -0.0984022 255 255 0
-0.0263217 0.0362048 -0.0984005 255 255 0
-0.0242421 0.0361999 -0.0983995 255 255 0
-0.0221509 0.0361949 -0.0983977 255 255 0
-0.0200712 0.0361891 -0.0984401 255 255 0
-0.0179915 0.0361844 -0.0984406 255 255 0
-0.0159200 0.0361814 -0.0984422 255 255 0
-0.0138439 0.0361884 -0.0984439 255 255 0
-0.0429573 0.0383317 -0.0984265 255 255 0
-0.0408782 0.0383276 -0.0984266 255 255 0
-0.0387990 0.0383271 -0.0984261 255 255 0
-0.0367194 0.0383328 -0.0984246 255 255 0
-0.0346398 0.0383372 -0.0984233 255 255 0
-0.0325603 0.0383412 -0.0984224 255 255 0
-0.0304807 0.0383427 -0.0984212 255 255 0
-0.0284012 0.0383408 -0.0984197 255 255 0
-0.0263217 0.0383380 -0.0984180 255 255 0
-0.0242423 0.0383337 -0.0984168 255 255 0
-0.0221629 0.0383300 -0.0984146 255 255 0
-0.0200750 0.0383278 -0.0984116 255 255 0
-0.0179920 0.0383238 -0.0984084 255 255 0
-0.0159121 0.0383196 -0.0984057 255 255 0
-0.0138383 0.0383133 -0.0984314 255 255 0
-0.0117575 0.0383041 -0.0984452 255 255 0
-0.0096790 0.0382949 -0.0984440 255 255 0
-0.0076065 0.0383123 -0.0984432 255 255 0
-0.0450377 0.0404680 -0.0983709 255 255 0
-0.0429575 0.0404488 -0.0984152 255 255 0
-0.0408782 0.0404490 -0.0984156 255 255 0
-0.0387988 0.0404505 -0.0984153 255 255 0
-0.0367192 0.0404538 -0.0984138 255 255 0
-0.0346398 0.0404584 -0.0984121 255 255 0
-0.0325603 0.0404661 -0.0984106 255 255 0
-0.0304810 0.0404701 -0.0984091 255 255 0
-0.0284013 0.0404679 -0.0984074 255 255 0
-0.0263216 0.0404661 -0.0984057 255 255 0
-0.0242421 0.0404631 -0.0984042 255 255 0
-0.0221626 0.0404598 -0.0984020 255 255 0
-0.0200830 0.0404589 -0.0983986 255 255 0
-0.0180035 0.0404551 -0.0983955 255 255 0
-0.0159142 0.0404490 -0.0983930 255 255 0
-0.0138382 0.0404301 -0.0983916 255 255 0
-0.0117526 0.0404055 -0.0983991 255 255 0
-0.0096729 0.0403924 -0.0984331 255 255 0
-0.0075932 0.0403890 -0.0984314 255 255 0
-0.0055166 0.0404009 -0.0984289 255 255 0
-0.0034525 0.0403716 -0.0984258 255 255 0
-0.0450369 0.0425662 -0.0983861 255 255 0
-0.0429575 0.0425660 -0.0984322 255 255 0
-0.0408783 0.0425696 -0.0984323 255 255 0
-0.0387991 0.0425718 -0.0984317 255 255 0
-0.0367196 0.0425739 -0.0984301 255 255 0
-0.0346401 0.0425742 -0.0984285 255 255 0
-0.0325605 0.0425770 -0.0984267 255 255 0
-0.0304809 0.0425782 -0.0984251 255 255 0
-0.0284013 0.0425760 -0.0984233 255 255 0
-0.0263218 0.0425740 -0.0984212 255 255 0
-0.0242423 0.0425710 -0.0984194 255 255 0
-0.0221627 0.0425589 -0.0984173 255 255 0
-0.0200830 0.0425425 -0.0984145 255 255 0
-0.0180033 0.0425373 -0.0984117 255 255 0
-0.0159236 0.0425314 -0.0984093 255 255 0
-0.0138381 0.0425227 -0.0984069 255 255 0
-0.0117527 0.0425097 -0.0984039 255 255 0
-0.0096731 0.0424949 -0.0984067 255 255 0
-0.0075904 0.0424810 -0.0984543 255 255 0
-0.0055105 0.0424676 -0.0984578 255 255 0
-0.0034354 0.0424620 -0.0984604 255 255 0
-0.0471163 0.0446511 -0.0983836 255 255 0
-0.0450370 0.0446617 -0.0983860 255 255 0
-0.0429577 0.0446695 -0.0984307 255 255 0
-0.0408784 0.0446756 -0.0984303 255 255 0
-0.0387990 0.0446689 -0.0984292 255 255 0
-0.0367194 0.0446697 -0.0984272 255 255 0
-0.0346398 0.0446726 -0.0984251 255 255 0
-0.0325603 0.0446790 -0.0984229 255 255 0
-0.0304810 0.0446777 -0.0984207 255 255 0
-0.0284014 0.0446738 -0.0984182 255 255 0
-0.0263219 0.0446661 -0.0984159 255 255 0
-0.0242425 0.0446516 -0.0984139 255 255 0
-0.0221629 0.0446456 -0.0984115 255 255 0
-0.0200831 0.0446408 -0.0984092 255 255 0
-0.0180034 0.0446356 -0.0984069 255 255 0
-0.0159237 0.0446292 -0.0984048 255 255 0
-0.0138382 0.0446194 -0.0984067 255 255 0
-0.0117566 0.0446064 -0.0984086 255 255 0
-0.0096730 0.0445902 -0.0984106 255 255 0
-0.0075895 0.0445712 -0.0984157 255 255 0
-0.0055074 0.0445525 -0.0984622 255 255 0
-0.0034251 0.0445434 -0.0984659 255 255 0
-0.0471164 0.0467368 -0.0983938 255 255 0
-0.0450371 0.0467467 -0.0983961 255 255 0
-0.0429578 0.0467553 -0.0984411 255 255 0
-0.0408785 0.0467639 -0.0984400 255 255 0
-0.0387991 0.0467699 -0.0984388 255 255 0
-0.0367195 0.0467609 -0.0984368 255 255 0
-0.0346401 0.0467538 -0.0984347 255 255 0
-0.0325607 0.0467536 -0.0984326 255 255 0
-0.0304811 0.0467515 -0.0984304 255 255 0
-0.0284014 0.0467481 -0.0984282 255 255 0
-0.0263218 0.0467453 -0.0984260 255 255 0
-0.0242424 0.0467411 -0.0984238 255 255 0
-0.0221629 0.0467368 -0.0984215 255 255 0
-0.0200834 0.0467313 -0.0984192 255 255 0
-0.0180038 0.0467238 -0.0984171 255 255 0
-0.0159241 0.0467141 -0.0984150 255 255 0
-0.0138385 0.0467021 -0.0984136 255 255 0
-0.0117577 0.0466893 -0.0984125 255 255 0
-0.0096731 0.0466825 -0.0984120 255 255 0
-0.0075875 0.0466534 -0.0984125 255 255 0
-0.0055049 0.0466505 -0.0984543 255 255 0
-0.0034205 0.0465925 -0.0984500 255 255 0
-0.0013569 0.0465556 -0.0984497 255 255 0
-0.0471166 0.0488129 -0.0983855 255 255 0
-0.0450373 0.0488236 -0.0983866 255 255 0
-0.0429577 0.0488330 -0.0984302 255 255 0
-0.0408782 0.0488421 -0.0984284 255 255 0
-0.0387989 0.0488481 -0.0984263 255 255 0
-0.0367192 0.0488515 -0.0984241 255 255 0
-0.0346396 0.0488530 -0.0984219 255 255 0
-0.0325603 0.0488508 -0.0984197 255 255 0
-0.0304809 0.0488485 -0.0984173 255 255 0
-0.0284012 0.0488456 -0.0984149 255 255 0
-0.0263216 0.0488422 -0.0984127 255 255 0
-0.0242422 0.0488376 -0.0984106 255 255 0
-0.0221628 0.0488319 -0.0984086 255 255 0
-0.0200831 0.0488255 -0.0984066 255 255 0
-0.0180033 0.0488173 -0.0984048 255 255 0
-0.0159236 0.0488055 -0.0984032 255 255 0
-0.0138380 0.0487926 -0.0984018 255 255 0
-0.0117571 0.0487798 -0.0984005 255 255 0
-0.0096728 0.0487592 -0.0984042 255 255 0
-0.0075873 0.0487429 -0.0984082 255 255 0
-0.0055046 0.0487164 -0.0984450 255 255 0
-0.0034170 0.0486429 -0.0984600 255 255 0
-0.0013511 0.0485974 -0.0984640 255 255 0
-0.0492200 0.0508567 -0.0983995 255 255 0
-0.0471168 0.0508636 -0.0984027 255 255 0
-0.0450373 0.0508550 -0.0984116 255 255 0
-0.0429580 0.0508631 -0.0984461 255 255 0
-0.0408786 0.0508690 -0.0984443 255 255 0
-0.0387992 0.0508724 -0.0984424 255 255 0
-0.0367196 0.0508724 -0.0984400 255 255 0
-0.0346400 0.0508726 -0.0984377 255 255 0
-0.0325605 0.0508709 -0.0984354 255 255 0
-0.0304810 0.0508681 -0.0984330 255 255 0
-0.0284015 0.0508641 -0.0984309 255 255 0
-0.0263219 0.0508602 -0.0984283 255 255 0
-0.0242424 0.0508560 -0.0984260 255 255 0
-0.0221627 0.0508504 -0.0984237 255 255 0
-0.0200830 0.0508444 -0.0984214 255 255 0
-0.0180033 0.0508371 -0.0984195 255 255 0
-0.0159236 0.0508274 -0.0984177 255 255 0
-0.0138382 0.0508160 -0.0984167 255 255 0
-0.0117549 0.0508049 -0.0984206 255 255 0
-0.0096731 0.0507870 -0.0984248 255 255 0
-0.0075875 0.0507698 -0.0984294 255 255 0
-0.0055034 0.0507447 -0.0984416 255 255 0
-0.0034171 0.0506874 -0.0984809 255 255 0
-0.0013447 0.0506495 -0.0984863 255 255 0
-0.0492129 0.0529117 -0.0983950 255 255 0
-0.0471168 0.0529065 -0.0983968 255 255 0
-0.0450372 0.0529191 -0.0984397 255 255 0
-0.0429577 0.0529275 -0.0984385 255 255 0
-0.0408784 0.0529305 -0.0984367 255 255 0
-0.0387991 0.0529317 -0.0984346 255 255 0
-0.0367196 0.0529309 -0.0984325 255 255 0
-0.0346400 0.0529288 -0.0984302 255 255 0
-0.0325604 0.0529263 -0.0984277 255 255 0
-0.0304810 0.0529234 -0.0984254 255 255 0
-0.0284013 0.0529185 -0.0984231 255 255 0
-0.0263217 0.0529138 -0.0984209 255 255 0
-0.0242423 0.0529099 -0.0984187 255 255 0
-0.0221630 0.0529047 -0.0984166 255 255 0
-0.0200834 0.0528990 -0.0984146 255 255 0
-0.0180037 0.0528921 -0.0984129 255 255 0
-0.0159239 0.0528839 -0.0984112 255 255 0
-0.0138383 0.0528753 -0.0984097 255 255 0
-0.0117530 0.0528662 -0.0984089 255 255 0
-0.0096728 0.0528511 -0.0984086 255 255 0
-0.0075873 0.0528340 -0.0984091 255 255 0
-0.0055041 0.0528131 -0.0984118 255 255 0
-0.0034187 0.0527682 -0.0984586 255 255 0
-0.0013421 0.0527361 -0.0984620 255 255 0
-0.0513000 0.0549849 -0.0984063 255 255 0
-0.0491978 0.0549697 -0.0984093 255 255 0
-0.0471170 0.0549631 -0.0984110 255 255 0
-0.0450374 0.0549751 -0.0984529 255 255 0
-0.0429579 0.0549826 -0.0984517 255 255 0
-0.0408785 0.0549832 -0.0984496 255 255 0
-0.0387991 0.0549815 -0.0984476 255 255 0
-0.0367195 0.0549817 -0.0984456 255 255 0
-0.0346400 0.0549797 -0.0984432 255 255 0
-0.0325606 0.0549769 -0.0984408 255 255 0
-0.0304811 0.0549730 -0.0984385 255 255 0
-0.0284014 0.0549661 -0.0984361 255 255 0
-0.0263216 0.0549611 -0.0984339 255 255 0
-0.0242422 0.0549570 -0.0984318 255 255 0
-0.0221627 0.0549521 -0.0984300 255 255 0
-0.0200832 0.0549468 -0.0984281 255 255 0
-0.0180036 0.0549408 -0.0984264 255 255 0
-0.0159238 0.0549340 -0.0984251 255 255 0
-0.0138382 0.0549260 -0.0984239 255 255 0
-0.0117528 0.0549176 -0.0984236 255 255 0
-0.0096727 0.0549060 -0.0984240 255 255 0
-0.0075872 0.0548950 -0.0984253 255 255 0
-0.0055045 0.0548812 -0.0984289 255 255 0
-0.0034187 0.0548466 -0.0984677 255 255 0
-0.0013433 0.0548222 -0.0984700 255 255 0
-0.0512779 0.0570675 -0.0984360 255 255 0
-0.0491966 0.0570513 -0.0984394 255 255 0
-0.0471167 0.0570431 -0.0984414 255 255 0
-0.0450371 0.0570519 -0.0984832 255 255 0
-0.0429575 0.0570576 -0.0984819 255 255 0
-0.0408783 0.0570572 -0.0984803 255 255 0
-0.0387990 0.0570563 -0.0984784 255 255 0
-0.0367193 0.0570522 -0.0984764 255 255 0
-0.0346395 0.0570487 -0.0984744 255 255 0
-0.0325599 0.0570461 -0.0984724 255 255 0
-0.0304806 0.0570414 -0.0984706 255 255 0
-0.0284011 0.0570356 -0.0984690 255 255 0
-0.0263216 0.0570307 -0.0984670 255 255 0
-0.0242420 0.0570268 -0.0984651 255 255 0
-0.0221623 0.0570212 -0.0984634 255 255 0
-0.0200826 0.0570166 -0.0984618 255 255 0
-0.0180029 0.0570113 -0.0984621 255 255 0
-0.0159231 0.0570057 -0.0984660 255 255 0
-0.0138377 0.0569996 -0.0984706 255 255 0
-0.0117524 0.0569922 -0.0984751 255 255 0
-0.0096724 0.0569836 -0.0984798 255 255 0
-0.0075867 0.0569777 -0.0984851 255 255 0
-0.0055066 0.0569708 -0.0984905 255 255 0
-0.0034186 0.0569465 -0.0985410 255 255 0
-0.0013441 0.0569287 -0.0985475 255 255 0
0.0006997 0.0569700 -0.0985477 255 255 0
-0.0512770 0.0591179 -0.0983968 255 255 0
-0.0491969 0.0591111 -0.0984405 255 255 0
-0.0471167 0.0590969 -0.0984423 255 255 0
-0.0450372 0.0590985 -0.0984827 255 255 0
-0.0429578 0.0590974 -0.0984829 255 255 0
-0.0408786 0.0590956 -0.0984811 255 255 0
-0.0387992 0.0590927 -0.0984791 255 255 0
-0.0367195 0.0590887 -0.0984769 255 255 0
-0.0346398 0.0590851 -0.0984747 255 255 0
-0.0325602 0.0590811 -0.0984726 255 255 0
-0.0304807 0.0590766 -0.0984703 255 255 0
-0.0284011 0.0590707 -0.0984679 255 255 0
-0.0263216 0.0590652 -0.0984657 255 255 0
-0.0242422 0.0590610 -0.0984636 255 255 0
-0.0221627 0.0590571 -0.0984615 255 255 0
-0.0200829 0.0590512 -0.0984596 255 255 0
-0.0180031 0.0590455 -0.0984577 255 255 0
-0.0159233 0.0590408 -0.0984562 255 255 0
-0.0138378 0.0590356 -0.0984549 255 255 0
-0.0117526 0.0590288 -0.0984538 255 255 0
-0.0096724 0.0590219 -0.0984538 255 255 0
-0.0075869 0.0590179 -0.0984574 255 255 0
-0.0055098 0.0590164 -0.0984643 255 255 0
-0.0034215 0.0589911 -0.0985157 255 255 0
-0.0013511 0.0589815 -0.0985239 255 255 0
0.0006829 0.0590515 -0.0985388 255 255 0
-0.0491969 0.0612187 -0.0984611 255 255 0
-0.0471163 0.0612117 -0.0984612 255 255 0
-0.0450367 0.0612063 -0.0984591 255 255 0
-0.0429572 0.0612013 -0.0984567 255 255 0
-0.0408779 0.0611976 -0.0984542 255 255 0
-0.0387985 0.0611936 -0.0984521 255 255 0
-0.0367190 0.0611890 -0.0984494 255 255 0
-0.0346394 0.0611840 -0.0984464 255 255 0
-0.0325600 0.0611791 -0.0984436 255 255 0
-0.0304805 0.0611738 -0.0984406 255 255 0
-0.0284007 0.0611680 -0.0984376 255 255 0
-0.0263209 0.0611627 -0.0984345 255 255 0
-0.0242414 0.0611571 -0.0984310 255 255 0
-0.0221619 0.0611514 -0.0984280 255 255 0
-0.0200823 0.0611450 -0.0984413 255 255 0
-0.0180027 0.0611396 -0.0984625 255 255 0
-0.0159230 0.0611363 -0.0984630 255 255 0
-0.0138373 0.0611316 -0.0984615 255 255 0
-0.0117518 0.0611244 -0.0984606 255 255 0
-0.0096716 0.0611171 -0.0984622 255 255 0
-0.0075860 0.0611151 -0.0984645 255 255 0
-0.0055088 0.0611203 -0.0984665 255 255 0
-0.0034202 0.0610938 -0.0985130 255 255 0
-0.0013530 0.0610896 -0.0985158 255 255 0
0.0006772 0.0611756 -0.0985375 255 255 0
-0.0491973 0.0633957 -0.0986242 255 255 0
-0.0471163 0.0633767 -0.0986287 255 255 0
-0.0450366 0.0633778 -0.0986298 255 255 0
-0.0429570 0.0633848 -0.0986603 255 255 0
-0.0408776 0.0633813 -0.0986717 255 255 0
-0.0387983 0.0633793 -0.0986708 255 255 0
-0.0367188 0.0633786 -0.0986694 255 255 0
-0.0346392 0.0633762 -0.0986681 255 255 0
-0.0325596 0.0633710 -0.0986667 255 255 0
-0.0304798 0.0633673 -0.0986656 255 255 0
-0.0283999 0.0633644 -0.0986643 255 255 0
-0.0263203 0.0633607 -0.0986631 255 255 0
-0.0242408 0.0633585 -0.0986626 255 255 0
-0.0221612 0.0633566 -0.0986627 255 255 0
-0.0200814 0.0633526 -0.0986625 255 255 0
-0.0180015 0.0633493 -0.0986628 255 255 0
-0.0159216 0.0633473 -0.0986636 255 255 0
-0.0138360 0.0633428 -0.0986651 255 255 0
-0.0117506 0.0633367 -0.0986667 255 255 0
-0.0096673 0.0633258 -0.0986696 255 255 0
-0.0075820 0.0633218 -0.0986780 255 255 0
-0.0055041 0.0633198 -0.0986891 255 255 0
-0.0034152 0.0633083 -0.0987440 255 255 0
-0.0013493 0.0633029 -0.0987571 255 255 0
0.0006840 0.0632964 -0.0988193 255 255 0
-0.0492002 0.0656313 -0.0987602 255 255 0
-0.0471156 0.0656102 -0.0987824 255 255 0
-0.0450360 0.0656052 -0.0988065 255 255 0
-0.0429565 0.0656001 -0.0988093 255 255 0
-0.0408772 0.0655960 -0.0988093 255 255 0
-0.0387978 0.0655900 -0.0988087 255 255 0
-0.0367180 0.0655842 -0.0988077 255 255 0
-0.0346382 0.0655792 -0.0988066 255 255 0
-0.0325585 0.0655727 -0.0988049 255 255 0
-0.0304790 0.0655674 -0.0988040 255 255 0
-0.0283992 0.0655644 -0.0988034 255 255 0
-0.0263195 0.0655624 -0.0988033 255 255 0
-0.0242399 0.0655616 -0.0988048 255 255 0
-0.0221600 0.0655604 -0.0988062 255 255 0
-0.0200801 0.0655586 -0.0988071 255 255 0
-0.0180002 0.0655578 -0.0988086 255 255 0
-0.0159095 0.0655594 -0.0988164 255 255 0
-0.0138293 0.0655617 -0.0988247 255 255 0
-0.0117492 0.0655637 -0.0988332 255 255 0
-0.0096633 0.0655446 -0.0988437 255 255 0
-0.0075774 0.0655313 -0.0988555 255 255 0
-0.0054952 0.0655343 -0.0989120 255 255 0
-0.0034055 0.0655332 -0.0989304 255 255 0
-0.0013404 0.0655291 -0.0989916 255 255 0
-0.0492183 0.0680153 -0.0989857 255 255 0
-0.0471153 0.0679785 -0.0990216 255 255 0
-0.0450347 0.0679639 -0.0990262 255 255 0
-0.0429551 0.0679511 -0.0990249 255 255 0
-0.0408758 0.0679377 -0.0990255 255 255 0
-0.0387963 0.0679269 -0.0990260 255 255 0
-0.0367167 0.0679213 -0.0990262 255 255 0
-0.0346370 0.0679163 -0.0990263 255 255 0
-0.0325572 0.0679120 -0.0990262 255 255 0
-0.0304773 0.0679091 -0.0990265 255 255 0
-0.0283972 0.0679082 -0.0990277 255 255 0
-0.0263171 0.0679060 -0.0990281 255 255 0
-0.0242372 0.0678972 -0.0990245 255 255 0
-0.0221572 0.0678943 -0.0990235 255 255 0
-0.0200774 0.0678965 -0.0990257 255 255 0
-0.0179975 0.0679001 -0.0990285 255 255 0
-0.0159062 0.0679049 -0.0990326 255 255 0
-0.0138257 0.0679097 -0.0990369 255 255 0
-0.0117400 0.0679091 -0.0990370 255 255 0
-0.0096548 0.0679126 -0.0990652 255 255 0
-0.0075674 0.0679255 -0.0990963 255 255 0
-0.0054796 0.0679342 -0.0991065 255 255 0
-0.0033862 0.0679284 -0.0991610 255 255 0
-0.0013219 0.0678794 -0.0991778 255 255 0
-0.0492284 0.0702542 -0.0990710 255 255 0
-0.0471361 0.0702292 -0.0991014 255 255 0
-0.0450440 0.0702136 -0.0991122 255 255 0
-0.0429543 0.0701988 -0.0991165 255 255 0
-0.0408748 0.0701959 -0.0991188 255 255 0
-0.0387953 0.0701914 -0.0991202 255 255 0
-0.0367156 0.0701849 -0.0991208 255 255 0
-0.0346358 0.0701783 -0.0991213 255 255 0
-0.0325561 0.0701727 -0.0991206 255 255 0
-0.0304763 0.0701677 -0.0991200 255 255 0
-0.0283960 0.0701653 -0.0991207 255 255 0
-0.0263157 0.0701639 -0.0991210 255 255 0
-0.0242355 0.0701559 -0.0991170 255 255 0
-0.0221554 0.0701470 -0.0991132 255 255 0
-0.0200756 0.0701495 -0.0991140 255 255 0
-0.0179905 0.0701537 -0.0991155 255 255 0
-0.0159041 0.0701601 -0.0991193 255 255 0
-0.0138235 0.0701667 -0.0991233 255 255 0
-0.0117371 0.0701677 -0.0991217 255 255 0
-0.0096490 0.0701677 -0.0991261 255 255 0
-0.0075564 0.0701843 -0.0991801 255 255 0
-0.0054647 0.0701947 -0.0991970 255 255 0
-0.0033673 0.0701408 -0.0992540 255 255 0
-0.0471355 0.0724438 -0.0991843 255 255 0
-0.0450560 0.0724346 -0.0992025 255 255 0
-0.0429764 0.0724234 -0.0992143 255 255 0
-0.0408746 0.0724106 -0.0992183 255 255 0
-0.0387951 0.0723953 -0.0992207 255 255 0
-0.0367153 0.0723889 -0.0992220 255 255 0
-0.0346352 0.0723824 -0.0992225 255 255 0
-0.0325553 0.0723665 -0.0992182 255 255 0
-0.0304753 0.0723565 -0.0992156 255 255 0
-0.0283950 0.0723551 -0.0992171 255 255 0
-0.0263147 0.0723545 -0.0992177 255 255 0
-0.0242344 0.0723520 -0.0992156 255 255 0
-0.0221541 0.0723539 -0.0992145 255 255 0
-0.0200739 0.0723594 -0.0992111 255 255 0
-0.0179828 0.0723663 -0.0992103 255 255 0
-0.0159026 0.0723795 -0.0992143 255 255 0
-0.0138164 0.0723930 -0.0992281 255 255 0
-0.0117308 0.0724016 -0.0992408 255 255 0
-0.0096415 0.0724015 -0.0992703 255 255 0
-0.0075456 0.0724180 -0.0993004 255 255 0
-0.0054470 0.0724158 -0.0993656 255 255 0
-0.0033461 0.0724171 -0.0994002 255 255 0
-0.0471405 0.0745194 -0.0991447 255 255 0
-0.0450564 0.0745146 -0.0991634 255 255 0
-0.0429768 0.0745092 -0.0991746 255 255 0
-0.0408972 0.0745022 -0.0991764 255 255 0
-0.0387954 0.0744941 -0.0991775 255 255 0
-0.0367155 0.0744796 -0.0991776 255 255 0
-0.0346355 0.0744666 -0.0991770 255 255 0
-0.0325553 0.0744478 -0.0991713 255 255 0
-0.0304752 0.0744325 -0.0991653 255 255 0
-0.0283949 0.0744292 -0.0991646 255 255 0
-0.0263146 0.0744300 -0.0991646 255 255 0
-0.0242347 0.0744342 -0.0991662 255 255 0
-0.0221548 0.0744395 -0.0991671 255 255 0
-0.0200637 0.0744362 -0.0991627 255 255 0
-0.0179833 0.0744340 -0.0991591 255 255 0
-0.0159027 0.0744433 -0.0991753 255 255 0
-0.0138153 0.0744556 -0.0991916 255 255 0
-0.0117288 0.0744651 -0.0992021 255 255 0
-0.0096371 0.0744760 -0.0992295 255 255 0
-0.0075373 0.0744986 -0.0992890 255 255 0
-0.0054368 0.0745172 -0.0993306 255 255 0
-0.0471490 0.0767782 -0.0992412 255 255 0
-0.0450590 0.0767366 -0.0992459 255 255 0
-0.0429763 0.0766996 -0.0992468 255 255 0
-0.0408968 0.0766879 -0.0992463 255 255 0
-0.0388172 0.0766775 -0.0992468 255 255 0
-0.0367272 0.0766708 -0.0992491 255 255 0
-0.0346353 0.0766641 -0.0992500 255 255 0
-0.0325551 0.0766521 -0.0992486 255 255 0
-0.0304748 0.0766448 -0.0992478 255 255 0
-0.0283942 0.0766356 -0.0992446 255 255 0
-0.0263138 0.0766313 -0.0992483 255 255 0
-0.0242336 0.0766354 -0.0992591 255 255 0
-0.0221479 0.0766389 -0.0992639 255 255 0
-0.0200625 0.0766396 -0.0992666 255 255 0
-0.0179824 0.0766431 -0.0992717 255 255 0
-0.0158998 0.0766444 -0.0992746 255 255 0
-0.0138099 0.0766538 -0.0992858 255 255 0
-0.0117234 0.0766721 -0.0992973 255 255 0
-0.0096307 0.0766932 -0.0993270 255 255 0
-0.0075251 0.0767281 -0.0993871 255 255 0
-0.0054263 0.0767521 -0.0994547 255 255 0
-0.0429765 0.0788028 -0.0992235 255 255 0
-0.0408970 0.0787865 -0.0992189 255 255 0
-0.0388176 0.0787399 -0.0992069 255 255 0
-0.0367378 0.0787274 -0.0991954 255 255 0
-0.0346570 0.0787207 -0.0991945 255 255 0
-0.0325554 0.0787078 -0.0991946 255 255 0
-0.0304750 0.0786992 -0.0992107 255 255 0
-0.0283945 0.0786889 -0.0992106 255 255 0
-0.0263142 0.0786801 -0.0992100 255 255 0
-0.0242342 0.0786809 -0.0992140 255 255 0
-0.0221430 0.0786872 -0.0992216 255 255 0
-0.0200628 0.0786947 -0.0992311 255 255 0
-0.0179824 0.0787027 -0.0992410 255 255 0
-0.0158908 0.0787012 -0.0992510 255 255 0
-0.0138044 0.0787046 -0.0992606 255 255 0
-0.0117216 0.0787236 -0.0992827 255 255 0
-0.0096279 0.0787458 -0.0993258 255 255 0
-0.0075163 0.0787792 -0.0994113 255 255 0
-0.0054189 0.0788027 -0.0994476 255 255 0
-0.0388234 0.0809770 -0.0993315 255 255 0
-0.0367378 0.0809464 -0.0993086 255 255 0
-0.0346576 0.0809237 -0.0992937 255 255 0
-0.0325717 0.0809043 -0.0992873 255 255 0
-0.0304813 0.0808903 -0.0992844 255 255 0
-0.0283946 0.0808830 -0.0992867 255 255 0
-0.0263142 0.0808795 -0.0992896 255 255 0
-0.0242305 0.0808818 -0.0992954 255 255 0
-0.0221427 0.0808835 -0.0992981 255 255 0
-0.0200626 0.0808769 -0.0992930 255 255 0
-0.0179815 0.0808806 -0.0992948 255 255 0
-0.0158901 0.0808868 -0.0993303 255 255 0
-0.0137984 0.0809083 -0.0993612 255 255 0
-0.0117169 0.0809599 -0.0993984 255 255 0
-0.0096237 0.0810030 -0.0994671 255 255 0
-0.0075072 0.0810352 -0.0995765 255 255 0
-0.0346583 0.0829525 -0.0992561 255 255 0
-0.0325781 0.0829354 -0.0992429 255 255 0
-0.0304868 0.0829233 -0.0992337 255 255 0
-0.0283952 0.0829212 -0.0992359 255 255 0
-0.0263118 0.0829142 -0.0992340 255 255 0
-0.0242237 0.0829123 -0.0992673 255 255 0
-0.0221434 0.0828943 -0.0992640 255 255 0
-0.0200638 0.0828489 -0.0992226 255 255 0
-0.0179827 0.0828178 -0.0991949 255 255 0
-0.0158838 0.0827794 -0.0991669 255 255 0
-0.0137959 0.0828070 -0.0992371 255 255 0
-0.0304877 0.0852132 -0.0993899 255 255 0
-0.0283931 0.0851832 -0.0994012 255 255 0
-0.0263049 0.0852219 -0.0994528 255 255 0
-0.0242212 0.0852071 -0.0994779 255 255 0
-0.0221391 0.0852489 -0.0995292 255 255 0
-0.0221501 0.0321679 -0.0935795 255 255 0
-0.0304581 0.0342292 -0.0935386 255 255 0
-0.0283882 0.0342332 -0.0935396 255 255 0
-0.0263122 0.0342127 -0.0935405 255 255 0
-0.0242350 0.0342051 -0.0935420 255 255 0
-0.0221611 0.0342010 -0.0935435 255 255 0
-0.0200815 0.0342061 -0.0935490 255 255 0
-0.0180138 0.0342088 -0.0935559 255 255 0
-0.0159528 0.0342112 -0.0935585 255 255 0
-0.0387567 0.0363075 -0.0935142 255 255 0
-0.0366953 0.0363211 -0.0935130 255 255 0
-0.0346385 0.0363161 -0.0935114 255 255 0
-0.0325589 0.0363055 -0.0935087 255 255 0
-0.0304680 0.0362900 -0.0935065 255 255 0
-0.0283978 0.0362803 -0.0935051 255 255 0
-0.0263204 0.0362791 -0.0935036 255 255 0
-0.0242410 0.0362764 -0.0935021 255 255 0
-0.0221610 0.0362744 -0.0935008 255 255 0
-0.0200817 0.0362730 -0.0935105 255 255 0
-0.0180024 0.0362717 -0.0935201 255 255 0
-0.0159343 0.0362811 -0.0935237 255 255 0
-0.0138602 0.0362906 -0.0935297 255 255 0
-0.0117904 0.0362946 -0.0935309 255 255 0
-0.0428613 0.0384061 -0.0935640 255 255 0
-0.0408285 0.0384040 -0.0935440 255 255 0
-0.0387746 0.0384059 -0.0934999 255 255 0
-0.0367179 0.0384170 -0.0935022 255 255 0
-0.0346385 0.0384257 -0.0935041 255 255 0
-0.0325591 0.0384332 -0.0935058 255 255 0
-0.0304796 0.0384179 -0.0935121 255 255 0
-0.0284003 0.0384170 -0.0935211 255 255 0
-0.0263208 0.0384156 -0.0935299 255 255 0
-0.0242411 0.0384131 -0.0935381 255 255 0
-0.0221614 0.0384103 -0.0935479 255 255 0
-0.0200821 0.0384089 -0.0935570 255 255 0
-0.0180026 0.0384060 -0.0935630 255 255 0
-0.0159226 0.0384184 -0.0935616 255 255 0
-0.0138485 0.0384204 -0.0935611 255 255 0
-0.0117750 0.0384074 -0.0935609 255 255 0
-0.0096989 0.0383982 -0.0935599 255 255 0
-0.0076309 0.0384004 -0.0935598 255 255 0
-0.0429010 0.0405073 -0.0935487 255 255 0
-0.0408528 0.0405071 -0.0935144 255 255 0
-0.0387920 0.0405232 -0.0935145 255 255 0
-0.0367179 0.0405274 -0.0935165 255 255 0
-0.0346384 0.0405335 -0.0935267 255 255 0
-0.0325590 0.0405483 -0.0935380 255 255 0
-0.0304796 0.0405558 -0.0935473 255 255 0
-0.0284001 0.0405543 -0.0935566 255 255 0
-0.0263206 0.0405523 -0.0935633 255 255 0
-0.0242409 0.0405489 -0.0935697 255 255 0
-0.0221616 0.0405460 -0.0935753 255 255 0
-0.0200821 0.0405441 -0.0935775 255 255 0
-0.0180021 0.0405399 -0.0935770 255 255 0
-0.0159223 0.0405376 -0.0935766 255 255 0
-0.0138427 0.0405297 -0.0935763 255 255 0
-0.0117632 0.0405083 -0.0935757 255 255 0
-0.0096883 0.0404930 -0.0935752 255 255 0
-0.0076131 0.0405096 -0.0935750 255 255 0
-0.0055388 0.0405052 -0.0935747 255 255 0
-0.0034705 0.0404967 -0.0935747 255 255 0
-0.0014074 0.0404884 -0.0935740 255 255 0
-0.0449543 0.0426206 -0.0934925 255 255 0
-0.0429304 0.0426344 -0.0934943 255 255 0
-0.0408533 0.0426401 -0.0934941 255 255 0
-0.0387972 0.0426419 -0.0934939 255 255 0
-0.0367179 0.0426446 -0.0934998 255 255 0
-0.0346385 0.0426476 -0.0935165 255 255 0
-0.0325589 0.0426536 -0.0935272 255 255 0
-0.0304794 0.0426564 -0.0935351 255 255 0
-0.0284002 0.0426534 -0.0935417 255 255 0
-0.0263207 0.0426499 -0.0935435 255 255 0
-0.0242406 0.0426473 -0.0935438 255 255 0
-0.0221609 0.0426445 -0.0935437 255 255 0
-0.0200817 0.0426417 -0.0935433 255 255 0
-0.0180022 0.0426369 -0.0935428 255 255 0
-0.0159224 0.0426315 -0.0935414 255 255 0
-0.0138426 0.0426228 -0.0935403 255 255 0
-0.0117630 0.0426290 -0.0935407 255 255 0
-0.0096835 0.0426172 -0.0935407 255 255 0
-0.0076067 0.0426028 -0.0935408 255 255 0
-0.0055290 0.0425920 -0.0935403 255 255 0
-0.0034650 0.0425810 -0.0935388 255 255 0
-0.0014002 0.0425743 -0.0935375 255 255 0
-0.0449639 0.0446821 -0.0934560 255 255 0
-0.0429338 0.0447263 -0.0934979 255 255 0
-0.0408760 0.0447425 -0.0934974 255 255 0
-0.0387973 0.0447535 -0.0935014 255 255 0
-0.0367180 0.0447560 -0.0935189 255 255 0
-0.0346385 0.0447573 -0.0935339 255 255 0
-0.0325590 0.0447577 -0.0935379 255 255 0
-0.0304796 0.0447565 -0.0935396 255 255 0
-0.0284002 0.0447526 -0.0935405 255 255 0
-0.0263207 0.0447492 -0.0935411 255 255 0
-0.0242411 0.0447466 -0.0935410 255 255 0
-0.0221615 0.0447429 -0.0935406 255 255 0
-0.0200819 0.0447387 -0.0935400 255 255 0
-0.0180021 0.0447333 -0.0935395 255 255 0
-0.0159224 0.0447263 -0.0935382 255 255 0
-0.0138430 0.0447171 -0.0935377 255 255 0
-0.0117634 0.0447084 -0.0935384 255 255 0
-0.0096838 0.0446978 -0.0935394 255 255 0
-0.0076015 0.0446984 -0.0935395 255 255 0
-0.0055234 0.0446858 -0.0935396 255 255 0
-0.0034607 0.0446768 -0.0935395 255 255 0
-0.0013947 0.0446728 -0.0935391 255 255 0
-0.0449922 0.0467569 -0.0934957 255 255 0
-0.0429555 0.0467984 -0.0934843 255 255 0
-0.0408770 0.0468277 -0.0934844 255 255 0
-0.0387976 0.0468477 -0.0934950 255 255 0
-0.0367180 0.0468527 -0.0935083 255 255 0
-0.0346385 0.0468558 -0.0935232 255 255 0
-0.0325590 0.0468565 -0.0935308 255 255 0
-0.0304796 0.0468557 -0.0935366 255 255 0
-0.0284001 0.0468521 -0.0935416 255 255 0
-0.0263206 0.0468485 -0.0935459 255 255 0
-0.0242410 0.0468457 -0.0935495 255 255 0
-0.0221614 0.0468416 -0.0935526 255 255 0
-0.0200821 0.0468366 -0.0935557 255 255 0
-0.0180027 0.0468298 -0.0935585 255 255 0
-0.0159224 0.0468211 -0.0935610 255 255 0
-0.0138411 0.0468117 -0.0935633 255 255 0
-0.0117632 0.0468013 -0.0935641 255 255 0
-0.0096838 0.0467903 -0.0935619 255 255 0
-0.0076011 0.0467756 -0.0935588 255 255 0
-0.0055214 0.0467666 -0.0935570 255 255 0
-0.0034582 0.0467689 -0.0935560 255 255 0
-0.0013906 0.0467780 -0.0935549 255 255 0
-0.0470565 0.0487586 -0.0935071 255 255 0
-0.0450124 0.0488162 -0.0934997 255 255 0
-0.0429570 0.0488571 -0.0934956 255 255 0
-0.0408772 0.0488925 -0.0934981 255 255 0
-0.0387976 0.0489164 -0.0935209 255 255 0
-0.0367181 0.0489224 -0.0935338 255 255 0
-0.0346385 0.0489255 -0.0935419 255 255 0
-0.0325591 0.0489259 -0.0935472 255 255 0
-0.0304795 0.0489243 -0.0935492 255 255 0
-0.0284000 0.0489196 -0.0935494 255 255 0
-0.0263208 0.0489147 -0.0935490 255 255 0
-0.0242409 0.0489101 -0.0935486 255 255 0
-0.0221610 0.0489053 -0.0935482 255 255 0
-0.0200819 0.0488993 -0.0935474 255 255 0
-0.0180024 0.0488917 -0.0935464 255 255 0
-0.0159225 0.0488828 -0.0935453 255 255 0
-0.0138407 0.0488729 -0.0935440 255 255 0
-0.0117630 0.0488621 -0.0935424 255 255 0
-0.0096835 0.0488518 -0.0935413 255 255 0
