ply
format ascii 1.0
element vertex 1150
property float x
property float y
property float z
property uchar red
property uchar green
property uchar blue
end_header
-0.0285644 0.0548476 -0.0640300 255 255 0
-0.0264355 0.0547357 -0.0641052 255 255 0
-0.0243298 0.0547147 -0.0641032 255 255 0
-0.0222283 0.0547014 -0.0641086 255 255 0
-0.0201281 0.0546925 -0.0641181 255 255 0
-0.0180305 0.0546866 -0.0641241 255 255 0
-0.0159480 0.0546842 -0.0641271 255 255 0
-0.0138676 0.0546820 -0.0641287 255 255 0
-0.0117873 0.0546813 -0.0641292 255 255 0
-0.0097071 0.0546804 -0.0641290 255 255 0
-0.0076270 0.0546800 -0.0641281 255 255 0
-0.0055465 0.0546798 -0.0641269 255 255 0
-0.0034641 0.0546785 -0.0641252 255 255 0
-0.0013832 0.0546776 -0.0641241 255 255 0
0.0006980 0.0546769 -0.0641230 255 255 0
0.0027801 0.0546759 -0.0641227 255 255 0
0.0048607 0.0546744 -0.0641210 255 255 0
0.0069466 0.0546707 -0.0641192 255 255 0
0.0090277 0.0546659 -0.0641189 255 255 0
0.0111195 0.0546555 -0.0641244 255 255 0
0.0132110 0.0546461 -0.0641310 255 255 0
0.0153214 0.0546112 -0.0641580 255 255 0
0.0174350 0.0545712 -0.0641830 255 255 0
0.0195770 0.0545218 -0.0642236 255 255 0
0.0217633 0.0543833 -0.0643619 255 255 0
-0.0327728 0.0571971 -0.0638477 255 255 0
-0.0306864 0.0571222 -0.0638936 255 255 0
-0.0285516 0.0569761 -0.0640012 255 255 0
-0.0264333 0.0568391 -0.0640895 255 255 0
-0.0243263 0.0568180 -0.0641001 255 255 0
-0.0222260 0.0568016 -0.0641104 255 255 0
-0.0201269 0.0567920 -0.0641206 255 255 0
-0.0180301 0.0567843 -0.0641278 255 255 0
-0.0159476 0.0567810 -0.0641322 255 255 0
-0.0138672 0.0567786 -0.0641345 255 255 0
-0.0117871 0.0567780 -0.0641355 255 255 0
-0.0097070 0.0567770 -0.0641355 255 255 0
-0.0076269 0.0567764 -0.0641347 255 255 0
-0.0055465 0.0567758 -0.0641334 255 255 0
-0.0034641 0.0567744 -0.0641318 255 255 0
-0.0013835 0.0567731 -0.0641306 255 255 0
0.0006977 0.0567724 -0.0641298 255 255 0
0.0027799 0.0567710 -0.0641292 255 255 0
0.0048609 0.0567697 -0.0641284 255 255 0
0.0069464 0.0567690 -0.0641287 255 255 0
0.0090277 0.0567642 -0.0641296 255 255 0
0.0111191 0.0567562 -0.0641335 255 255 0
0.0132103 0.0567500 -0.0641340 255 255 0
0.0153210 0.0567234 -0.0641546 255 255 0
0.0174297 0.0566863 -0.0641793 255 255 0
0.0195646 0.0566570 -0.0642080 255 255 0
0.0217558 0.0565397 -0.0643083 255 255 0
-0.0327642 0.0592967 -0.0638153 255 255 0
-0.0306738 0.0592164 -0.0638620 255 255 0
-0.0285438 0.0590586 -0.0639868 255 255 0
-0.0264279 0.0589338 -0.0640691 255 255 0
-0.0243230 0.0589085 -0.0640882 255 255 0
-0.0222227 0.0588910 -0.0641017 255 255 0
-0.0201259 0.0588803 -0.0641136 255 255 0
-0.0180300 0.0588741 -0.0641223 255 255 0
-0.0159470 0.0588720 -0.0641268 255 255 0
-0.0138671 0.0588705 -0.0641292 255 255 0
-0.0117871 0.0588694 -0.0641300 255 255 0
-0.0097070 0.0588687 -0.0641300 255 255 0
-0.0076268 0.0588687 -0.0641294 255 255 0
-0.0055463 0.0588683 -0.0641282 255 255 0
-0.0034640 0.0588673 -0.0641273 255 255 0
-0.0013835 0.0588661 -0.0641254 255 255 0
0.0006975 0.0588662 -0.0641241 255 255 0
0.0027794 0.0588653 -0.0641233 255 255 0
0.0048607 0.0588644 -0.0641226 255 255 0
0.0069463 0.0588614 -0.0641223 255 255 0
0.0090275 0.0588576 -0.0641234 255 255 0
0.0111186 0.0588491 -0.0641262 255 255 0
0.0132102 0.0588421 -0.0641235 255 255 0
0.0153208 0.0588216 -0.0641349 255 255 0
0.0174297 0.0587932 -0.0641522 255 255 0
0.0195612 0.0587643 -0.0641692 255 255 0
0.0217531 0.0586732 -0.0642302 255 255 0
-0.0327612 0.0614090 -0.0637802 255 255 0
-0.0306720 0.0613114 -0.0638602 255 255 0
-0.0285249 0.0611328 -0.0639760 255 255 0
-0.0263972 0.0610022 -0.0640547 255 255 0
-0.0243035 0.0609963 -0.0640794 255 255 0
-0.0222161 0.0609918 -0.0640963 255 255 0
-0.0201215 0.0609819 -0.0641101 255 255 0
-0.0180303 0.0609764 -0.0641197 255 255 0
-0.0159459 0.0609743 -0.0641246 255 255 0
-0.0138669 0.0609700 -0.0641280 255 255 0
-0.0117869 0.0609678 -0.0641284 255 255 0
-0.0097069 0.0609658 -0.0641285 255 255 0
-0.0076265 0.0609651 -0.0641270 255 255 0
-0.0055461 0.0609650 -0.0641259 255 255 0
-0.0034643 0.0609645 -0.0641250 255 255 0
-0.0013835 0.0609640 -0.0641241 255 255 0
0.0006976 0.0609646 -0.0641233 255 255 0
0.0027794 0.0609637 -0.0641220 255 255 0
0.0048608 0.0609627 -0.0641209 255 255 0
0.0069463 0.0609599 -0.0641200 255 255 0
0.0090277 0.0609537 -0.0641209 255 255 0
0.0111193 0.0609465 -0.0641218 255 255 0
0.0132110 0.0609464 -0.0641181 255 255 0
0.0153241 0.0609290 -0.0641259 255 255 0
0.0174333 0.0609039 -0.0641383 255 255 0
0.0195643 0.0608752 -0.0641485 255 255 0
0.0217645 0.0607980 -0.0641700 255 255 0
-0.0327543 0.0636130 -0.0637342 255 255 0
-0.0306832 0.0635256 -0.0637997 255 255 0
-0.0285392 0.0633201 -0.0639561 255 255 0
-0.0264108 0.0631849 -0.0640665 255 255 0
-0.0243041 0.0631726 -0.0640916 255 255 0
-0.0222069 0.0631660 -0.0641115 255 255 0
-0.0201159 0.0631612 -0.0641272 255 255 0
-0.0180276 0.0631589 -0.0641379 255 255 0
-0.0159445 0.0631587 -0.0641414 255 255 0
-0.0138679 0.0631584 -0.0641445 255 255 0
-0.0117856 0.0631570 -0.0641454 255 255 0
-0.0097058 0.0631565 -0.0641455 255 255 0
-0.0076256 0.0631562 -0.0641442 255 255 0
-0.0055452 0.0631562 -0.0641424 255 255 0
-0.0034634 0.0631557 -0.0641410 255 255 0
-0.0013825 0.0631547 -0.0641391 255 255 0
0.0006987 0.0631544 -0.0641368 255 255 0
0.0027806 0.0631539 -0.0641352 255 255 0
0.0048620 0.0631520 -0.0641333 255 255 0
0.0069478 0.0631498 -0.0641321 255 255 0
0.0090288 0.0631479 -0.0641312 255 255 0
0.0111203 0.0631427 -0.0641313 255 255 0
0.0132156 0.0631385 -0.0641313 255 255 0
0.0153275 0.0631257 -0.0641285 255 255 0
0.0174346 0.0631074 -0.0641367 255 255 0
0.0195298 0.0630838 -0.0641478 255 255 0
0.0217486 0.0630275 -0.0641538 255 255 0
-0.0306826 0.0657000 -0.0638021 255 255 0
-0.0285004 0.0654244 -0.0639491 255 255 0
-0.0263610 0.0652642 -0.0640676 255 255 0
-0.0242790 0.0652937 -0.0640988 255 255 0
-0.0221969 0.0653214 -0.0641241 255 255 0
-0.0201091 0.0653224 -0.0641409 255 255 0
-0.0180241 0.0653280 -0.0641508 255 255 0
-0.0159427 0.0653150 -0.0641565 255 255 0
-0.0138679 0.0653102 -0.0641604 255 255 0
-0.0117864 0.0653076 -0.0641619 255 255 0
-0.0097051 0.0653053 -0.0641626 255 255 0
-0.0076248 0.0653045 -0.0641617 255 255 0
-0.0055445 0.0653050 -0.0641600 255 255 0
-0.0034630 0.0653052 -0.0641581 255 255 0
-0.0013818 0.0653057 -0.0641563 255 255 0
0.0006996 0.0653061 -0.0641531 255 255 0
0.0027818 0.0653068 -0.0641509 255 255 0
0.0048632 0.0653063 -0.0641488 255 255 0
0.0069489 0.0653059 -0.0641467 255 255 0
0.0090310 0.0653061 -0.0641452 255 255 0
0.0111257 0.0653047 -0.0641434 255 255 0
0.0132231 0.0652989 -0.0641431 255 255 0
0.0153339 0.0652984 -0.0641390 255 255 0
0.0174499 0.0652941 -0.0641411 255 255 0
0.0195326 0.0652736 -0.0641487 255 255 0
0.0217591 0.0652315 -0.0641432 255 255 0
-0.0306947 0.0678904 -0.0638546 255 255 0
-0.0284284 0.0674792 -0.0639387 255 255 0
-0.0262734 0.0673077 -0.0640148 255 255 0
-0.0241866 0.0673480 -0.0640835 255 255 0
-0.0221762 0.0674557 -0.0641272 255 255 0
-0.0200946 0.0674647 -0.0641414 255 255 0
-0.0180206 0.0674597 -0.0641537 255 255 0
-0.0159444 0.0674506 -0.0641617 255 255 0
-0.0138711 0.0674457 -0.0641669 255 255 0
-0.0117874 0.0674443 -0.0641693 255 255 0
-0.0097060 0.0674409 -0.0641713 255 255 0
-0.0076258 0.0674395 -0.0641710 255 255 0
-0.0055439 0.0674383 -0.0641700 255 255 0
-0.0034632 0.0674368 -0.0641676 255 255 0
-0.0013811 0.0674360 -0.0641652 255 255 0
0.0007005 0.0674364 -0.0641634 255 255 0
0.0027830 0.0674362 -0.0641611 255 255 0
0.0048648 0.0674354 -0.0641580 255 255 0
0.0069501 0.0674348 -0.0641551 255 255 0
0.0090372 0.0674357 -0.0641532 255 255 0
0.0111328 0.0674345 -0.0641501 255 255 0
0.0132262 0.0674339 -0.0641470 255 255 0
0.0153477 0.0674249 -0.0641399 255 255 0
0.0174811 0.0674167 -0.0641386 255 255 0
0.0196201 0.0674086 -0.0641344 255 255 0
-0.0306649 0.0699941 -0.0638741 255 255 0
-0.0284171 0.0695943 -0.0639258 255 255 0
-0.0262798 0.0694472 -0.0639788 255 255 0
-0.0241772 0.0694767 -0.0640604 255 255 0
-0.0221742 0.0695968 -0.0641106 255 255 0
-0.0200954 0.0696008 -0.0641309 255 255 0
-0.0180220 0.0696003 -0.0641463 255 255 0
-0.0159510 0.0695864 -0.0641575 255 255 0
-0.0138712 0.0695825 -0.0641664 255 255 0
-0.0117918 0.0695773 -0.0641709 255 255 0
-0.0097076 0.0695709 -0.0641730 255 255 0
-0.0076271 0.0695695 -0.0641731 255 255 0
-0.0055434 0.0695678 -0.0641728 255 255 0
-0.0034627 0.0695654 -0.0641712 255 255 0
-0.0013803 0.0695639 -0.0641689 255 255 0
0.0007017 0.0695649 -0.0641667 255 255 0
0.0027848 0.0695653 -0.0641645 255 255 0
0.0048671 0.0695652 -0.0641609 255 255 0
0.0069534 0.0695653 -0.0641575 255 255 0
0.0090422 0.0695659 -0.0641539 255 255 0
0.0111375 0.0695657 -0.0641491 255 255 0
0.0132376 0.0695665 -0.0641448 255 255 0
0.0153634 0.0695608 -0.0641366 255 255 0
0.0175116 0.0695610 -0.0641388 255 255 0
0.0196828 0.0695540 -0.0641241 255 255 0
-0.0305797 0.0719614 -0.0638582 255 255 0
-0.0284092 0.0717076 -0.0639336 255 255 0
-0.0263182 0.0716148 -0.0639839 255 255 0
-0.0242342 0.0716293 -0.0640539 255 255 0
-0.0221947 0.0717260 -0.0640900 255 255 0
-0.0201090 0.0717065 -0.0641064 255 255 0
-0.0180258 0.0717060 -0.0641187 255 255 0
-0.0159539 0.0717081 -0.0641378 255 255 0
-0.0138722 0.0716839 -0.0641519 255 255 0
-0.0117924 0.0716770 -0.0641595 255 255 0
-0.0097110 0.0716725 -0.0641635 255 255 0
-0.0076280 0.0716698 -0.0641651 255 255 0
-0.0055442 0.0716668 -0.0641653 255 255 0
-0.0034623 0.0716656 -0.0641633 255 255 0
-0.0013795 0.0716653 -0.0641610 255 255 0
0.0007030 0.0716653 -0.0641569 255 255 0
0.0027863 0.0716655 -0.0641533 255 255 0
0.0048701 0.0716661 -0.0641487 255 255 0
0.0069566 0.0716671 -0.0641446 255 255 0
0.0090429 0.0716700 -0.0641392 255 255 0
0.0111460 0.0716785 -0.0641338 255 255 0
0.0132449 0.0716883 -0.0641334 255 255 0
0.0153757 0.0716759 -0.0641319 255 255 0
0.0175403 0.0716654 -0.0641372 255 255 0
0.0197153 0.0716591 -0.0641248 255 255 0
-0.0305571 0.0740407 -0.0638139 255 255 0
-0.0284638 0.0739248 -0.0638939 255 255 0
-0.0264226 0.0739155 -0.0639405 255 255 0
-0.0242949 0.0738539 -0.0640049 255 255 0
-0.0222096 0.0738898 -0.0640472 255 255 0
-0.0201166 0.0738578 -0.0640786 255 255 0
-0.0180311 0.0738245 -0.0640993 255 255 0
-0.0159541 0.0738155 -0.0641117 255 255 0
-0.0138750 0.0738126 -0.0641231 255 255 0
-0.0117931 0.0738086 -0.0641387 255 255 0
-0.0097132 0.0737802 -0.0641487 255 255 0
-0.0076286 0.0737733 -0.0641532 255 255 0
-0.0055451 0.0737699 -0.0641545 255 255 0
-0.0034617 0.0737683 -0.0641525 255 255 0
-0.0013779 0.0737682 -0.0641494 255 255 0
0.0007051 0.0737710 -0.0641443 255 255 0
0.0027891 0.0737801 -0.0641376 255 255 0
0.0048725 0.0737942 -0.0641324 255 255 0
0.0069615 0.0737928 -0.0641269 255 255 0
0.0090510 0.0737907 -0.0641233 255 255 0
0.0111536 0.0737854 -0.0641216 255 255 0
0.0132588 0.0737847 -0.0641219 255 255 0
0.0153930 0.0737912 -0.0641203 255 255 0
0.0175678 0.0737787 -0.0641304 255 255 0
-0.0305880 0.0762013 -0.0637540 255 255 0
-0.0284633 0.0760940 -0.0638099 255 255 0
-0.0263597 0.0760356 -0.0638540 255 255 0
-0.0242875 0.0760357 -0.0639164 255 255 0
-0.0222144 0.0760124 -0.0639753 255 255 0
-0.0201275 0.0759849 -0.0640153 255 255 0
-0.0180462 0.0759714 -0.0640455 255 255 0
-0.0159604 0.0759499 -0.0640807 255 255 0
-0.0138822 0.0759308 -0.0641013 255 255 0
-0.0118003 0.0759214 -0.0641144 255 255 0
-0.0097138 0.0759135 -0.0641233 255 255 0
-0.0076307 0.0759076 -0.0641347 255 255 0
-0.0055469 0.0759031 -0.0641413 255 255 0
-0.0034616 0.0759007 -0.0641403 255 255 0
-0.0013767 0.0758989 -0.0641361 255 255 0
0.0007072 0.0759015 -0.0641270 255 255 0
0.0027926 0.0759049 -0.0641228 255 255 0
0.0048776 0.0759054 -0.0641196 255 255 0
0.0069684 0.0759091 -0.0641170 255 255 0
0.0090571 0.0759132 -0.0641098 255 255 0
0.0111681 0.0759137 -0.0641056 255 255 0
0.0132800 0.0759199 -0.0641032 255 255 0
0.0154188 0.0759365 -0.0641055 255 255 0
0.0176024 0.0759235 -0.0641264 255 255 0
-0.0284927 0.0783075 -0.0637240 255 255 0
-0.0263638 0.0782384 -0.0637821 255 255 0
-0.0242959 0.0781978 -0.0638498 255 255 0
-0.0222225 0.0781790 -0.0638992 255 255 0
-0.0201320 0.0781084 -0.0639597 255 255 0
-0.0180441 0.0780536 -0.0640055 255 255 0
-0.0159704 0.0780685 -0.0640290 255 255 0
-0.0138871 0.0780794 -0.0640515 255 255 0
-0.0118027 0.0780631 -0.0640803 255 255 0
-0.0097186 0.0780392 -0.0640965 255 255 0
-0.0076326 0.0780278 -0.0641070 255 255 0
-0.0055472 0.0780223 -0.0641117 255 255 0
-0.0034596 0.0780202 -0.0641111 255 255 0
-0.0013732 0.0780215 -0.0641092 255 255 0
0.0007115 0.0780333 -0.0641010 255 255 0
0.0027980 0.0780438 -0.0640915 255 255 0
0.0048838 0.0780537 -0.0640886 255 255 0
0.0069775 0.0780617 -0.0640808 255 255 0
0.0090693 0.0780619 -0.0640654 255 255 0
0.0111820 0.0780609 -0.0640628 255 255 0
0.0133123 0.0780748 -0.0640729 255 255 0
0.0154652 0.0780858 -0.0640846 255 255 0
0.0176426 0.0780584 -0.0641095 255 255 0
-0.0285158 0.0805032 -0.0636537 255 255 0
-0.0263985 0.0804588 -0.0637085 255 255 0
-0.0243279 0.0804513 -0.0637456 255 255 0
-0.0222479 0.0804247 -0.0638004 255 255 0
-0.0201271 0.0803348 -0.0638645 255 255 0
-0.0180341 0.0802724 -0.0638951 255 255 0
-0.0159543 0.0802406 -0.0639563 255 255 0
-0.0138876 0.0802063 -0.0639760 255 255 0
-0.0118064 0.0801812 -0.0640124 255 255 0
-0.0097226 0.0801693 -0.0640329 255 255 0
-0.0076359 0.0801632 -0.0640490 255 255 0
-0.0055477 0.0801582 -0.0640566 255 255 0
-0.0034564 0.0801547 -0.0640563 255 255 0
-0.0013666 0.0801545 -0.0640527 255 255 0
0.0007209 0.0801636 -0.0640385 255 255 0
0.0028090 0.0801713 -0.0640246 255 255 0
0.0048939 0.0801717 -0.0640188 255 255 0
0.0069873 0.0801837 -0.0640116 255 255 0
0.0090805 0.0802304 -0.0639868 255 255 0
0.0111936 0.0802310 -0.0639730 255 255 0
0.0133273 0.0802347 -0.0639806 255 255 0
0.0154806 0.0802324 -0.0639964 255 255 0
-0.0222523 0.0826096 -0.0637137 255 255 0
-0.0201352 0.0825256 -0.0637881 255 255 0
-0.0180396 0.0824564 -0.0638245 255 255 0
-0.0159572 0.0824057 -0.0638885 255 255 0
-0.0138922 0.0823793 -0.0639027 255 255 0
-0.0118108 0.0823583 -0.0639336 255 255 0
-0.0097271 0.0823081 -0.0639615 255 255 0
-0.0076394 0.0822778 -0.0639917 255 255 0
-0.0055496 0.0822687 -0.0640071 255 255 0
-0.0034507 0.0822717 -0.0640066 255 255 0
-0.0013563 0.0822786 -0.0639987 255 255 0
0.0007312 0.0823277 -0.0639736 255 255 0
0.0028191 0.0823366 -0.0639578 255 255 0
0.0049051 0.0823352 -0.0639463 255 255 0
0.0070027 0.0823354 -0.0639365 255 255 0
0.0090917 0.0823453 -0.0639128 255 255 0
0.0112075 0.0823549 -0.0639014 255 255 0
0.0133787 0.0823160 -0.0639214 255 255 0
0.0155578 0.0822933 -0.0639451 255 255 0
-0.0180651 0.0846149 -0.0637913 255 255 0
-0.0159842 0.0845665 -0.0638067 255 255 0
-0.0139029 0.0845211 -0.0638334 255 255 0
-0.0118106 0.0845091 -0.0638589 255 255 0
-0.0097202 0.0845037 -0.0638751 255 255 0
-0.0076332 0.0844687 -0.0639051 255 255 0
-0.0055451 0.0844469 -0.0639206 255 255 0
-0.0034467 0.0844499 -0.0639165 255 255 0
-0.0013521 0.0844639 -0.0639098 255 255 0
0.0007330 0.0845207 -0.0638892 255 255 0
0.0028205 0.0845485 -0.0638689 255 255 0
0.0049242 0.0845168 -0.0638471 255 255 0
0.0070474 0.0844863 -0.0638358 255 255 0
0.0091034 0.0845598 -0.0638271 255 255 0
0.0112305 0.0845784 -0.0638250 255 255 0
0.0134654 0.0846154 -0.0639112 255 255 0
0.0157014 0.0846257 -0.0639891 255 255 0
-0.0139141 0.0866993 -0.0637576 255 255 0
-0.0118219 0.0867114 -0.0637780 255 255 0
-0.0097283 0.0867087 -0.0638016 255 255 0
-0.0076423 0.0866573 -0.0638264 255 255 0
-0.0055520 0.0866382 -0.0638380 255 255 0
-0.0034375 0.0866412 -0.0638342 255 255 0
-0.0013331 0.0866593 -0.0638289 255 255 0
0.0007456 0.0867191 -0.0638146 255 255 0
0.0028299 0.0867347 -0.0637990 255 255 0
0.0049419 0.0867053 -0.0637808 255 255 0
-0.0097598 0.0888514 -0.0637429 255 255 0
-0.0076782 0.0888199 -0.0637674 255 255 0
-0.0055801 0.0888011 -0.0637779 255 255 0
-0.0034145 0.0888476 -0.0637837 255 255 0
-0.0014414 0.0304646 -0.0631948 255 255 0
-0.0097900 0.0327823 -0.0629507 255 255 0
-0.0076997 0.0328366 -0.0628725 255 255 0
-0.0056049 0.0328683 -0.0628261 255 255 0
-0.0035008 0.0328954 -0.0628028 255 255 0
-0.0013994 0.0328825 -0.0628240 255 255 0
0.0006979 0.0328020 -0.0629089 255 255 0
0.0027973 0.0326907 -0.0630309 255 255 0
-0.0203534 0.0347975 -0.0630764 255 255 0
-0.0182014 0.0349014 -0.0629419 255 255 0
-0.0160643 0.0349376 -0.0628798 255 255 0
-0.0139469 0.0349796 -0.0628134 255 255 0
-0.0118525 0.0350535 -0.0627372 255 255 0
-0.0097586 0.0351119 -0.0626730 255 255 0
-0.0076709 0.0351371 -0.0626386 255 255 0
-0.0055803 0.0351560 -0.0626210 255 255 0
-0.0034858 0.0351570 -0.0626189 255 255 0
-0.0013917 0.0351449 -0.0626353 255 255 0
0.0007058 0.0351150 -0.0626617 255 255 0
0.0028003 0.0350459 -0.0627335 255 255 0
0.0048877 0.0349560 -0.0628295 255 255 0
0.0069839 0.0348245 -0.0629822 255 255 0
0.0090819 0.0346921 -0.0631386 255 255 0
-0.0246620 0.0372095 -0.0627250 255 255 0
-0.0224602 0.0371287 -0.0627587 255 255 0
-0.0203091 0.0371793 -0.0627032 255 255 0
-0.0181730 0.0372146 -0.0626607 255 255 0
-0.0160417 0.0372403 -0.0626388 255 255 0
-0.0139268 0.0372632 -0.0626112 255 255 0
-0.0118359 0.0372943 -0.0625754 255 255 0
-0.0097439 0.0373114 -0.0625577 255 255 0
-0.0076574 0.0373428 -0.0625421 255 255 0
-0.0055705 0.0373457 -0.0625362 255 255 0
-0.0034793 0.0373475 -0.0625350 255 255 0
-0.0013891 0.0373386 -0.0625422 255 255 0
0.0007039 0.0373088 -0.0625587 255 255 0
0.0027955 0.0372692 -0.0625840 255 255 0
0.0048837 0.0372316 -0.0626429 255 255 0
0.0069744 0.0371599 -0.0627074 255 255 0
0.0090611 0.0370843 -0.0627868 255 255 0
0.0111627 0.0369757 -0.0629164 255 255 0
0.0132592 0.0367830 -0.0631205 255 255 0
-0.0246116 0.0394561 -0.0625369 255 255 0
-0.0224006 0.0393910 -0.0625704 255 255 0
-0.0202754 0.0394115 -0.0625507 255 255 0
-0.0181542 0.0394304 -0.0625375 255 255 0
-0.0160289 0.0394472 -0.0625170 255 255 0
-0.0139148 0.0394760 -0.0625037 255 255 0
-0.0118240 0.0394862 -0.0624939 255 255 0
-0.0097358 0.0394892 -0.0624841 255 255 0
-0.0076504 0.0395082 -0.0624770 255 255 0
-0.0055641 0.0395174 -0.0624739 255 255 0
-0.0034755 0.0395152 -0.0624739 255 255 0
-0.0013881 0.0395026 -0.0624787 255 255 0
0.0006999 0.0394802 -0.0624912 255 255 0
0.0027880 0.0394679 -0.0625048 255 255 0
0.0048755 0.0394246 -0.0625287 255 255 0
0.0069653 0.0393985 -0.0625599 255 255 0
0.0090555 0.0393401 -0.0625956 255 255 0
0.0111559 0.0392670 -0.0626657 255 255 0
0.0132465 0.0391738 -0.0627769 255 255 0
0.0153878 0.0390379 -0.0629168 255 255 0
0.0175440 0.0388702 -0.0630851 255 255 0
-0.0268077 0.0416207 -0.0625008 255 255 0
-0.0245730 0.0415910 -0.0625002 255 255 0
-0.0223782 0.0415760 -0.0625027 255 255 0
-0.0202495 0.0415807 -0.0624946 255 255 0
-0.0181319 0.0415911 -0.0624788 255 255 0
-0.0160068 0.0416071 -0.0624696 255 255 0
-0.0139040 0.0416150 -0.0624625 255 255 0
-0.0118179 0.0416257 -0.0624570 255 255 0
-0.0097307 0.0416390 -0.0624538 255 255 0
-0.0076448 0.0416418 -0.0624493 255 255 0
-0.0055597 0.0416408 -0.0624474 255 255 0
-0.0034751 0.0416396 -0.0624470 255 255 0
-0.0013896 0.0416334 -0.0624514 255 255 0
0.0006962 0.0416260 -0.0624545 255 255 0
0.0027828 0.0416034 -0.0624617 255 255 0
0.0048690 0.0415932 -0.0624705 255 255 0
0.0069588 0.0415534 -0.0624907 255 255 0
0.0090488 0.0415276 -0.0625161 255 255 0
0.0111474 0.0414699 -0.0625629 255 255 0
0.0132413 0.0414106 -0.0626091 255 255 0
0.0153748 0.0413218 -0.0626869 255 255 0
0.0175224 0.0412168 -0.0627820 255 255 0
0.0197391 0.0411026 -0.0628942 255 255 0
-0.0267402 0.0436694 -0.0625293 255 255 0
-0.0245365 0.0437075 -0.0624827 255 255 0
-0.0223628 0.0437348 -0.0624578 255 255 0
-0.0202315 0.0437373 -0.0624516 255 255 0
-0.0181091 0.0437332 -0.0624457 255 255 0
-0.0160029 0.0437345 -0.0624373 255 255 0
-0.0138983 0.0437510 -0.0624317 255 255 0
-0.0118122 0.0437597 -0.0624292 255 255 0
-0.0097268 0.0437632 -0.0624280 255 255 0
-0.0076434 0.0437609 -0.0624273 255 255 0
-0.0055587 0.0437597 -0.0624261 255 255 0
-0.0034752 0.0437589 -0.0624254 255 255 0
-0.0013912 0.0437560 -0.0624255 255 255 0
0.0006931 0.0437468 -0.0624243 255 255 0
0.0027778 0.0437365 -0.0624277 255 255 0
0.0048634 0.0437222 -0.0624352 255 255 0
0.0069511 0.0437057 -0.0624509 255 255 0
0.0090401 0.0436745 -0.0624687 255 255 0
0.0111360 0.0436422 -0.0624974 255 255 0
0.0132327 0.0436089 -0.0625180 255 255 0
0.0153681 0.0435323 -0.0625704 255 255 0
0.0175188 0.0434495 -0.0626386 255 255 0
0.0197329 0.0433550 -0.0627061 255 255 0
-0.0266940 0.0457932 -0.0624823 255 255 0
-0.0245149 0.0458129 -0.0624570 255 255 0
-0.0223576 0.0458302 -0.0624402 255 255 0
-0.0202127 0.0458250 -0.0624386 255 255 0
-0.0180865 0.0458236 -0.0624362 255 255 0
-0.0159839 0.0458269 -0.0624330 255 255 0
-0.0138922 0.0458298 -0.0624300 255 255 0
-0.0118108 0.0458308 -0.0624266 255 255 0
-0.0097217 0.0458387 -0.0624248 255 255 0
-0.0076411 0.0458406 -0.0624228 255 255 0
-0.0055586 0.0458404 -0.0624219 255 255 0
-0.0034755 0.0458388 -0.0624210 255 255 0
-0.0013924 0.0458340 -0.0624210 255 255 0
0.0006906 0.0458319 -0.0624209 255 255 0
0.0027744 0.0458217 -0.0624229 255 255 0
0.0048583 0.0458128 -0.0624257 255 255 0
0.0069449 0.0458049 -0.0624323 255 255 0
0.0090303 0.0457936 -0.0624446 255 255 0
0.0111339 0.0457630 -0.0624633 255 255 0
0.0132261 0.0457391 -0.0624766 255 255 0
0.0153573 0.0456758 -0.0625110 255 255 0
0.0175098 0.0456151 -0.0625707 255 255 0
0.0197197 0.0455374 -0.0626115 255 255 0
-0.0288153 0.0480057 -0.0623728 255 255 0
-0.0266572 0.0479083 -0.0624477 255 255 0
-0.0244956 0.0479162 -0.0624345 255 255 0
-0.0223411 0.0479222 -0.0624264 255 255 0
-0.0201999 0.0479179 -0.0624333 255 255 0
-0.0180744 0.0479145 -0.0624360 255 255 0
-0.0159828 0.0479127 -0.0624338 255 255 0
-0.0138911 0.0479106 -0.0624319 255 255 0
-0.0118075 0.0479104 -0.0624308 255 255 0
-0.0097201 0.0479099 -0.0624300 255 255 0
-0.0076402 0.0479097 -0.0624293 255 255 0
-0.0055587 0.0479093 -0.0624282 255 255 0
-0.0034762 0.0479090 -0.0624267 255 255 0
-0.0013934 0.0479085 -0.0624246 255 255 0
0.0006885 0.0479083 -0.0624226 255 255 0
0.0027713 0.0479072 -0.0624236 255 255 0
0.0048544 0.0479092 -0.0624228 255 255 0
0.0069390 0.0479059 -0.0624255 255 255 0
0.0090273 0.0478875 -0.0624268 255 255 0
0.0111228 0.0478688 -0.0624374 255 255 0
0.0132172 0.0478603 -0.0624494 255 255 0
0.0153457 0.0478060 -0.0624765 255 255 0
0.0174958 0.0477618 -0.0625192 255 255 0
0.0197026 0.0476947 -0.0625645 255 255 0
-0.0287902 0.0501179 -0.0623575 255 255 0
-0.0266091 0.0500318 -0.0624203 255 255 0
-0.0244670 0.0500256 -0.0624217 255 255 0
-0.0223381 0.0500112 -0.0624178 255 255 0
-0.0201898 0.0500062 -0.0624216 255 255 0
-0.0180681 0.0500016 -0.0624243 255 255 0
-0.0159825 0.0500014 -0.0624239 255 255 0
-0.0138904 0.0500071 -0.0624236 255 255 0
-0.0118030 0.0500101 -0.0624229 255 255 0
-0.0097200 0.0500127 -0.0624223 255 255 0
-0.0076396 0.0500125 -0.0624213 255 255 0
-0.0055585 0.0500111 -0.0624203 255 255 0
-0.0034766 0.0500104 -0.0624188 255 255 0
-0.0013942 0.0500068 -0.0624176 255 255 0
0.0006876 0.0499984 -0.0624165 255 255 0
0.0027702 0.0499973 -0.0624164 255 255 0
0.0048515 0.0499961 -0.0624168 255 255 0
0.0069378 0.0499932 -0.0624187 255 255 0
0.0090218 0.0499937 -0.0624196 255 255 0
0.0111218 0.0499813 -0.0624277 255 255 0
0.0132148 0.0499580 -0.0624352 255 255 0
0.0153386 0.0499230 -0.0624670 255 255 0
0.0174818 0.0498728 -0.0624971 255 255 0
0.0196861 0.0498245 -0.0625354 255 255 0
0.0219275 0.0496424 -0.0626717 255 255 0
-0.0310022 0.0523518 -0.0622385 255 255 0
-0.0287677 0.0522176 -0.0623415 255 255 0
-0.0265743 0.0521396 -0.0624079 255 255 0
-0.0244461 0.0521147 -0.0624145 255 255 0
-0.0223165 0.0521102 -0.0624141 255 255 0
-0.0201892 0.0521088 -0.0624193 255 255 0
-0.0180660 0.0521067 -0.0624217 255 255 0
-0.0159825 0.0521061 -0.0624220 255 255 0
-0.0138861 0.0521062 -0.0624210 255 255 0
-0.0118022 0.0521066 -0.0624201 255 255 0
-0.0097201 0.0521057 -0.0624196 255 255 0
-0.0076396 0.0521045 -0.0624186 255 255 0
-0.0055586 0.0521030 -0.0624177 255 255 0
-0.0034771 0.0521029 -0.0624160 255 255 0
-0.0013950 0.0521016 -0.0624149 255 255 0
0.0006869 0.0521003 -0.0624138 255 255 0
0.0027694 0.0520945 -0.0624139 255 255 0
0.0048512 0.0520899 -0.0624153 255 255 0
0.0069374 0.0520770 -0.0624173 255 255 0
0.0090196 0.0520752 -0.0624178 255 255 0
0.0111160 0.0520673 -0.0624241 255 255 0
0.0132083 0.0520603 -0.0624297 255 255 0
0.0153312 0.0520131 -0.0624611 255 255 0
0.0174749 0.0519892 -0.0624861 255 255 0
0.0196743 0.0519228 -0.0625260 255 255 0
0.0219027 0.0517267 -0.0626877 255 255 0
-0.0309561 0.0545032 -0.0621656 255 255 0
-0.0287461 0.0543354 -0.0622987 255 255 0
-0.0265664 0.0542371 -0.0623819 255 255 0
-0.0244427 0.0542204 -0.0623977 255 255 0
-0.0223160 0.0542022 -0.0624098 255 255 0
-0.0201889 0.0541949 -0.0624171 255 255 0
-0.0180648 0.0541893 -0.0624219 255 255 0
-0.0159824 0.0541883 -0.0624224 255 255 0
-0.0138845 0.0541870 -0.0624229 255 255 0
-0.0118009 0.0541866 -0.0624226 255 255 0
-0.0097199 0.0541860 -0.0624222 255 255 0
-0.0076394 0.0541859 -0.0624211 255 255 0
-0.0055585 0.0541854 -0.0624203 255 255 0
-0.0034772 0.0541856 -0.0624192 255 255 0
-0.0013951 0.0541848 -0.0624181 255 255 0
0.0006863 0.0541853 -0.0624168 255 255 0
0.0027685 0.0541841 -0.0624160 255 255 0
0.0048510 0.0541823 -0.0624154 255 255 0
0.0069366 0.0541772 -0.0624160 255 255 0
0.0090191 0.0541723 -0.0624175 255 255 0
0.0111136 0.0541587 -0.0624231 255 255 0
0.0132076 0.0541511 -0.0624272 255 255 0
0.0153288 0.0541198 -0.0624534 255 255 0
0.0174703 0.0540847 -0.0624719 255 255 0
0.0196647 0.0540448 -0.0625136 255 255 0
0.0218877 0.0538380 -0.0626760 255 255 0
-0.0309187 0.0566662 -0.0620932 255 255 0
-0.0287272 0.0564658 -0.0622554 255 255 0
-0.0265631 0.0563426 -0.0623655 255 255 0
-0.0244427 0.0563123 -0.0623914 255 255 0
-0.0223165 0.0562887 -0.0624105 255 255 0
-0.0201880 0.0562780 -0.0624195 255 255 0
-0.0180655 0.0562707 -0.0624258 255 255 0
-0.0159825 0.0562691 -0.0624268 255 255 0
-0.0138843 0.0562662 -0.0624275 255 255 0
-0.0118010 0.0562656 -0.0624274 255 255 0
-0.0097200 0.0562642 -0.0624271 255 255 0
-0.0076395 0.0562648 -0.0624263 255 255 0
-0.0055586 0.0562646 -0.0624252 255 255 0
-0.0034773 0.0562650 -0.0624238 255 255 0
-0.0013955 0.0562667 -0.0624228 255 255 0
0.0006858 0.0562675 -0.0624210 255 255 0
0.0027679 0.0562674 -0.0624200 255 255 0
0.0048507 0.0562661 -0.0624192 255 255 0
0.0069350 0.0562629 -0.0624197 255 255 0
0.0090190 0.0562607 -0.0624211 255 255 0
0.0111125 0.0562532 -0.0624268 255 255 0
0.0132096 0.0562420 -0.0624287 255 255 0
0.0153305 0.0562119 -0.0624492 255 255 0
0.0174664 0.0561970 -0.0624642 255 255 0
0.0196613 0.0561444 -0.0625006 255 255 0
0.0218838 0.0559452 -0.0626557 255 255 0
-0.0309057 0.0587888 -0.0620391 255 255 0
-0.0287227 0.0585849 -0.0622326 255 255 0
-0.0265639 0.0584441 -0.0623570 255 255 0
-0.0244408 0.0584068 -0.0623837 255 255 0
-0.0223148 0.0583812 -0.0624042 255 255 0
-0.0201866 0.0583711 -0.0624156 255 255 0
-0.0180642 0.0583633 -0.0624230 255 255 0
-0.0159819 0.0583606 -0.0624245 255 255 0
-0.0138841 0.0583587 -0.0624253 255 255 0
-0.0118007 0.0583577 -0.0624252 255 255 0
-0.0097199 0.0583569 -0.0624250 255 255 0
-0.0076392 0.0583566 -0.0624243 255 255 0
-0.0055585 0.0583561 -0.0624235 255 255 0
-0.0034771 0.0583562 -0.0624220 255 255 0
-0.0013952 0.0583560 -0.0624207 255 255 0
0.0006858 0.0583562 -0.0624194 255 255 0
0.0027679 0.0583556 -0.0624183 255 255 0
0.0048509 0.0583555 -0.0624170 255 255 0
0.0069352 0.0583536 -0.0624170 255 255 0
0.0090190 0.0583511 -0.0624171 255 255 0
0.0111116 0.0583449 -0.0624197 255 255 0
0.0132110 0.0583385 -0.0624225 255 255 0
0.0153331 0.0583135 -0.0624359 255 255 0
0.0174694 0.0582954 -0.0624469 255 255 0
0.0196615 0.0582673 -0.0624686 255 255 0
0.0218973 0.0581170 -0.0625649 255 255 0
-0.0308948 0.0609305 -0.0619958 255 255 0
-0.0287195 0.0607002 -0.0622166 255 255 0
-0.0265647 0.0605444 -0.0623497 255 255 0
-0.0244405 0.0604986 -0.0623804 255 255 0
-0.0223155 0.0604671 -0.0624016 255 255 0
-0.0201884 0.0604556 -0.0624166 255 255 0
-0.0180660 0.0604479 -0.0624255 255 255 0
-0.0159826 0.0604453 -0.0624272 255 255 0
-0.0138849 0.0604427 -0.0624282 255 255 0
-0.0118019 0.0604417 -0.0624283 255 255 0
-0.0097201 0.0604405 -0.0624283 255 255 0
-0.0076394 0.0604399 -0.0624277 255 255 0
-0.0055585 0.0604390 -0.0624271 255 255 0
-0.0034771 0.0604394 -0.0624254 255 255 0
-0.0013953 0.0604392 -0.0624242 255 255 0
0.0006858 0.0604393 -0.0624229 255 255 0
0.0027680 0.0604387 -0.0624219 255 255 0
0.0048509 0.0604391 -0.0624206 255 255 0
0.0069367 0.0604377 -0.0624200 255 255 0
0.0090190 0.0604357 -0.0624196 255 255 0
0.0111158 0.0604307 -0.0624211 255 255 0
0.0132135 0.0604262 -0.0624237 255 255 0
0.0153380 0.0604086 -0.0624313 255 255 0
0.0174736 0.0603964 -0.0624370 255 255 0
0.0196729 0.0603748 -0.0624442 255 255 0
0.0219254 0.0602788 -0.0624950 255 255 0
-0.0308700 0.0631942 -0.0618743 255 255 0
-0.0287181 0.0628685 -0.0621560 255 255 0
-0.0265771 0.0627064 -0.0623267 255 255 0
-0.0244488 0.0626589 -0.0623737 255 255 0
-0.0223206 0.0626166 -0.0624111 255 255 0
-0.0201886 0.0625865 -0.0624228 255 255 0
-0.0180692 0.0625672 -0.0624299 255 255 0
-0.0159826 0.0625579 -0.0624313 255 255 0
-0.0138901 0.0625292 -0.0624323 255 255 0
-0.0118028 0.0625275 -0.0624325 255 255 0
-0.0097200 0.0625264 -0.0624324 255 255 0
-0.0076392 0.0625259 -0.0624318 255 255 0
-0.0055583 0.0625257 -0.0624309 255 255 0
-0.0034767 0.0625256 -0.0624294 255 255 0
-0.0013948 0.0625257 -0.0624280 255 255 0
0.0006865 0.0625265 -0.0624263 255 255 0
0.0027686 0.0625266 -0.0624245 255 255 0
0.0048513 0.0625264 -0.0624233 255 255 0
0.0069379 0.0625253 -0.0624224 255 255 0
0.0090194 0.0625239 -0.0624216 255 255 0
0.0111227 0.0625198 -0.0624223 255 255 0
0.0132158 0.0625161 -0.0624240 255 255 0
0.0153467 0.0625219 -0.0624288 255 255 0
0.0174899 0.0625201 -0.0624355 255 255 0
0.0196960 0.0625413 -0.0624297 255 255 0
0.0219667 0.0624592 -0.0624466 255 255 0
-0.0308554 0.0654008 -0.0618067 255 255 0
-0.0287169 0.0650602 -0.0621066 255 255 0
-0.0265909 0.0648206 -0.0623084 255 255 0
-0.0244560 0.0647658 -0.0623678 255 255 0
-0.0223294 0.0647238 -0.0624148 255 255 0
-0.0201934 0.0647059 -0.0624276 255 255 0
-0.0180723 0.0646840 -0.0624346 255 255 0
-0.0159838 0.0646705 -0.0624367 255 255 0
-0.0138922 0.0646622 -0.0624378 255 255 0
-0.0118103 0.0646375 -0.0624383 255 255 0
-0.0097212 0.0646226 -0.0624384 255 255 0
-0.0076409 0.0646219 -0.0624378 255 255 0
-0.0055584 0.0646215 -0.0624370 255 255 0
-0.0034768 0.0646218 -0.0624356 255 255 0
-0.0013945 0.0646219 -0.0624343 255 255 0
0.0006873 0.0646226 -0.0624324 255 255 0
0.0027701 0.0646230 -0.0624308 255 255 0
0.0048524 0.0646228 -0.0624296 255 255 0
0.0069381 0.0646221 -0.0624289 255 255 0
0.0090230 0.0646211 -0.0624278 255 255 0
0.0111233 0.0646175 -0.0624278 255 255 0
0.0132239 0.0646196 -0.0624280 255 255 0
0.0153591 0.0646345 -0.0624298 255 255 0
0.0175083 0.0646552 -0.0624337 255 255 0
0.0197257 0.0646489 -0.0624234 255 255 0
0.0220216 0.0645770 -0.0624312 255 255 0
-0.0308824 0.0675461 -0.0618396 255 255 0
-0.0287139 0.0671648 -0.0620911 255 255 0
-0.0265839 0.0669532 -0.0622734 255 255 0
-0.0244725 0.0668829 -0.0623518 255 255 0
-0.0223525 0.0668357 -0.0624078 255 255 0
-0.0202049 0.0668043 -0.0624292 255 255 0
-0.0180835 0.0667655 -0.0624390 255 255 0
-0.0159859 0.0667484 -0.0624425 255 255 0
-0.0138934 0.0667277 -0.0624444 255 255 0
-0.0118114 0.0667254 -0.0624457 255 255 0
-0.0097247 0.0667235 -0.0624463 255 255 0
-0.0076422 0.0667228 -0.0624463 255 255 0
-0.0055585 0.0667223 -0.0624455 255 255 0
-0.0034769 0.0667228 -0.0624442 255 255 0
-0.0013946 0.0667233 -0.0624429 255 255 0
0.0006875 0.0667237 -0.0624412 255 255 0
0.0027709 0.0667240 -0.0624394 255 255 0
0.0048536 0.0667248 -0.0624376 255 255 0
0.0069408 0.0667243 -0.0624359 255 255 0
0.0090302 0.0667231 -0.0624345 255 255 0
0.0111324 0.0667424 -0.0624337 255 255 0
0.0132291 0.0667567 -0.0624325 255 255 0
0.0153756 0.0667788 -0.0624290 255 255 0
0.0175464 0.0667646 -0.0624299 255 255 0
0.0197808 0.0667458 -0.0624091 255 255 0
0.0220900 0.0667623 -0.0623578 255 255 0
-0.0308691 0.0696834 -0.0618405 255 255 0
-0.0287050 0.0692973 -0.0620590 255 255 0
-0.0265732 0.0690851 -0.0622241 255 255 0
-0.0244807 0.0689981 -0.0623205 255 255 0
-0.0223727 0.0689411 -0.0623880 255 255 0
-0.0202228 0.0689250 -0.0624097 255 255 0
-0.0180926 0.0689011 -0.0624325 255 255 0
-0.0159913 0.0688573 -0.0624428 255 255 0
-0.0139035 0.0688232 -0.0624478 255 255 0
-0.0118130 0.0688198 -0.0624501 255 255 0
-0.0097307 0.0688175 -0.0624517 255 255 0
-0.0076447 0.0688167 -0.0624526 255 255 0
-0.0055606 0.0688164 -0.0624523 255 255 0
-0.0034780 0.0688167 -0.0624512 255 255 0
-0.0013945 0.0688171 -0.0624497 255 255 0
0.0006883 0.0688178 -0.0624476 255 255 0
0.0027727 0.0688181 -0.0624455 255 255 0
0.0048564 0.0688187 -0.0624431 255 255 0
0.0069459 0.0688181 -0.0624412 255 255 0
0.0090318 0.0688239 -0.0624390 255 255 0
0.0111368 0.0688584 -0.0624370 255 255 0
0.0132425 0.0688666 -0.0624351 255 255 0
0.0153962 0.0688736 -0.0624174 255 255 0
0.0175887 0.0688526 -0.0624156 255 255 0
0.0198440 0.0689115 -0.0623822 255 255 0
-0.0287148 0.0714749 -0.0620422 255 255 0
-0.0266167 0.0712701 -0.0622064 255 255 0
-0.0244958 0.0711811 -0.0623167 255 255 0
-0.0223699 0.0710947 -0.0623863 255 255 0
-0.0202291 0.0710354 -0.0624066 255 255 0
-0.0181023 0.0710194 -0.0624250 255 255 0
-0.0160049 0.0710082 -0.0624377 255 255 0
-0.0139060 0.0710001 -0.0624467 255 255 0
-0.0118223 0.0709936 -0.0624502 255 255 0
-0.0097319 0.0709811 -0.0624527 255 255 0
-0.0076480 0.0709736 -0.0624537 255 255 0
-0.0055637 0.0709699 -0.0624538 255 255 0
-0.0034782 0.0709682 -0.0624530 255 255 0
-0.0013939 0.0709690 -0.0624519 255 255 0
0.0006899 0.0709747 -0.0624502 255 255 0
0.0027745 0.0709787 -0.0624481 255 255 0
0.0048589 0.0709857 -0.0624460 255 255 0
0.0069499 0.0709904 -0.0624442 255 255 0
0.0090361 0.0709910 -0.0624424 255 255 0
0.0111484 0.0709857 -0.0624402 255 255 0
0.0132567 0.0709804 -0.0624378 255 255 0
0.0154224 0.0709642 -0.0624215 255 255 0
0.0176325 0.0710106 -0.0624197 255 255 0
0.0199045 0.0709929 -0.0623896 255 255 0
-0.0287068 0.0736548 -0.0619736 255 255 0
-0.0266348 0.0734704 -0.0621395 255 255 0
-0.0245012 0.0733387 -0.0622618 255 255 0
-0.0223704 0.0732445 -0.0623509 255 255 0
-0.0202383 0.0732141 -0.0623746 255 255 0
-0.0181200 0.0731938 -0.0623933 255 255 0
-0.0160121 0.0731754 -0.0624065 255 255 0
-0.0139174 0.0731547 -0.0624167 255 255 0
-0.0118286 0.0731298 -0.0624277 255 255 0
-0.0097431 0.0731016 -0.0624357 255 255 0
-0.0076535 0.0730798 -0.0624421 255 255 0
-0.0055666 0.0730776 -0.0624527 255 255 0
-0.0034794 0.0730770 -0.0624529 255 255 0
-0.0013926 0.0730768 -0.0624514 255 255 0
0.0006935 0.0730780 -0.0624485 255 255 0
0.0027804 0.0730797 -0.0624377 255 255 0
0.0048639 0.0730947 -0.0624323 255 255 0
0.0069555 0.0730978 -0.0624268 255 255 0
0.0090469 0.0731170 -0.0624214 255 255 0
0.0111622 0.0731396 -0.0624162 255 255 0
0.0132800 0.0731425 -0.0624137 255 255 0
0.0154547 0.0731246 -0.0624040 255 255 0
0.0176749 0.0731080 -0.0623938 255 255 0
0.0199570 0.0731113 -0.0623707 255 255 0
-0.0286741 0.0758870 -0.0618080 255 255 0
-0.0266081 0.0757003 -0.0620072 255 255 0
-0.0244986 0.0755923 -0.0621192 255 255 0
-0.0223850 0.0754963 -0.0622096 255 255 0
-0.0202503 0.0754120 -0.0622796 255 255 0
-0.0181321 0.0753688 -0.0623375 255 255 0
-0.0160340 0.0752817 -0.0623772 255 255 0
-0.0139368 0.0752611 -0.0624069 255 255 0
-0.0118468 0.0752496 -0.0624195 255 255 0
-0.0097540 0.0752286 -0.0624286 255 255 0
-0.0076618 0.0752149 -0.0624337 255 255 0
-0.0055700 0.0751994 -0.0624363 255 255 0
-0.0034807 0.0751907 -0.0624356 255 255 0
-0.0013922 0.0751881 -0.0624333 255 255 0
0.0006955 0.0751906 -0.0624285 255 255 0
0.0027838 0.0751949 -0.0624242 255 255 0
0.0048701 0.0752084 -0.0624220 255 255 0
0.0069643 0.0752302 -0.0624192 255 255 0
0.0090562 0.0752374 -0.0624133 255 255 0
0.0111784 0.0752372 -0.0624085 255 255 0
0.0133069 0.0752275 -0.0624089 255 255 0
0.0154987 0.0752219 -0.0623942 255 255 0
0.0177511 0.0752439 -0.0623845 255 255 0
-0.0286392 0.0781278 -0.0616278 255 255 0
-0.0265735 0.0779615 -0.0618364 255 255 0
-0.0244861 0.0778590 -0.0619386 255 255 0
-0.0223866 0.0777586 -0.0620347 255 255 0
-0.0202584 0.0776453 -0.0621462 255 255 0
-0.0181456 0.0775609 -0.0622336 255 255 0
-0.0160499 0.0774703 -0.0623030 255 255 0
-0.0139535 0.0773862 -0.0623518 255 255 0
-0.0118596 0.0773535 -0.0623720 255 255 0
-0.0097656 0.0773429 -0.0623886 255 255 0
-0.0076678 0.0773358 -0.0623965 255 255 0
-0.0055723 0.0773307 -0.0623999 255 255 0
-0.0034823 0.0773291 -0.0623977 255 255 0
-0.0013917 0.0773279 -0.0623945 255 255 0
0.0006999 0.0773279 -0.0623825 255 255 0
0.0027917 0.0773285 -0.0623714 255 255 0
0.0048811 0.0773295 -0.0623717 255 255 0
0.0069780 0.0773302 -0.0623697 255 255 0
0.0090722 0.0773464 -0.0623602 255 255 0
0.0111991 0.0773589 -0.0623553 255 255 0
0.0133358 0.0773989 -0.0623559 255 255 0
0.0155414 0.0774011 -0.0623407 255 255 0
0.0178227 0.0774366 -0.0623505 255 255 0
-0.0265238 0.0802419 -0.0615406 255 255 0
-0.0244534 0.0801581 -0.0616682 255 255 0
-0.0223742 0.0800625 -0.0617921 255 255 0
-0.0202629 0.0799332 -0.0619254 255 255 0
-0.0181604 0.0798402 -0.0620387 255 255 0
-0.0160737 0.0797333 -0.0621244 255 255 0
-0.0139838 0.0796773 -0.0622010 255 255 0
-0.0118895 0.0795627 -0.0622770 255 255 0
-0.0097936 0.0795328 -0.0623321 255 255 0
-0.0076905 0.0794628 -0.0623614 255 255 0
-0.0055883 0.0794317 -0.0623797 255 255 0
-0.0034865 0.0794272 -0.0623831 255 255 0
-0.0013868 0.0794256 -0.0623782 255 255 0
0.0007134 0.0794830 -0.0623586 255 255 0
0.0028118 0.0795161 -0.0623391 255 255 0
0.0048973 0.0795214 -0.0623213 255 255 0
0.0069967 0.0795249 -0.0622985 255 255 0
0.0091060 0.0796079 -0.0622555 255 255 0
0.0112436 0.0796163 -0.0622183 255 255 0
0.0133885 0.0796492 -0.0622037 255 255 0
0.0155931 0.0796708 -0.0621748 255 255 0
0.0178608 0.0797113 -0.0621396 255 255 0
-0.0223396 0.0823184 -0.0615513 255 255 0
-0.0202454 0.0822124 -0.0616945 255 255 0
-0.0181547 0.0821085 -0.0618232 255 255 0
-0.0160809 0.0820346 -0.0619203 255 255 0
-0.0139988 0.0819501 -0.0620175 255 255 0
-0.0119086 0.0818170 -0.0621379 255 255 0
-0.0098123 0.0816985 -0.0622280 255 255 0
-0.0077056 0.0816532 -0.0622782 255 255 0
-0.0055983 0.0816226 -0.0622995 255 255 0
-0.0034864 0.0816102 -0.0623115 255 255 0
-0.0013787 0.0816171 -0.0622982 255 255 0
0.0007312 0.0817391 -0.0622229 255 255 0
0.0028364 0.0818062 -0.0621707 255 255 0
0.0049167 0.0817975 -0.0621693 255 255 0
0.0070143 0.0818213 -0.0621681 255 255 0
0.0091369 0.0818661 -0.0620929 255 255 0
0.0112808 0.0819209 -0.0620306 255 255 0
0.0134279 0.0819140 -0.0620068 255 255 0
0.0156250 0.0819758 -0.0619658 255 255 0
-0.0181664 0.0843893 -0.0615557 255 255 0
-0.0160887 0.0843351 -0.0616509 255 255 0
-0.0140045 0.0842702 -0.0617523 255 255 0
-0.0119214 0.0841487 -0.0618646 255 255 0
-0.0098268 0.0840843 -0.0619588 255 255 0
-0.0077107 0.0839605 -0.0620417 255 255 0
-0.0055961 0.0839250 -0.0620844 255 255 0
-0.0034907 0.0839079 -0.0620852 255 255 0
-0.0013830 0.0839303 -0.0620714 255 255 0
0.0007425 0.0839896 -0.0620163 255 255 0
0.0028587 0.0840510 -0.0619661 255 255 0
0.0049443 0.0840825 -0.0619506 255 255 0
0.0070483 0.0841379 -0.0619171 255 255 0
0.0091729 0.0842254 -0.0618296 255 255 0
0.0113217 0.0842954 -0.0617792 255 255 0
0.0134761 0.0843165 -0.0617411 255 255 0
0.0156757 0.0843609 -0.0617155 255 255 0
-0.0139868 0.0865586 -0.0614998 255 255 0
-0.0119130 0.0864682 -0.0616050 255 255 0
-0.0098246 0.0863857 -0.0616965 255 255 0
-0.0077061 0.0862956 -0.0617894 255 255 0
-0.0055911 0.0862403 -0.0618537 255 255 0
-0.0034911 0.0862270 -0.0618498 255 255 0
-0.0013851 0.0862452 -0.0618343 255 255 0
0.0007452 0.0862546 -0.0618003 255 255 0
0.0028686 0.0862942 -0.0617468 255 255 0
0.0049605 0.0863447 -0.0617141 255 255 0
0.0070735 0.0864223 -0.0616492 255 255 0
-0.0098106 0.0887046 -0.0614654 255 255 0
-0.0076985 0.0886295 -0.0615175 255 255 0
-0.0055820 0.0886446 -0.0615015 255 255 0
-0.0034696 0.0886054 -0.0615255 255 255 0
-0.0013542 0.0886602 -0.0614744 255 255 0
-0.0014369 0.0305569 -0.0607117 255 255 0
-0.0097961 0.0327384 -0.0606352 255 255 0
-0.0077005 0.0327748 -0.0605788 255 255 0
-0.0056021 0.0328091 -0.0605459 255 255 0
-0.0035026 0.0328398 -0.0605546 255 255 0
-0.0014027 0.0328400 -0.0605622 255 255 0
0.0007015 0.0328240 -0.0605637 255 255 0
0.0028058 0.0327786 -0.0605819 255 255 0
0.0048973 0.0327110 -0.0606299 255 255 0
-0.0182220 0.0348497 -0.0606110 255 255 0
-0.0160724 0.0348730 -0.0605881 255 255 0
-0.0139483 0.0349236 -0.0605612 255 255 0
-0.0118557 0.0349614 -0.0605445 255 255 0
-0.0097655 0.0349922 -0.0605313 255 255 0
-0.0076761 0.0350126 -0.0605116 255 255 0
-0.0055841 0.0350322 -0.0605056 255 255 0
-0.0034891 0.0350370 -0.0605083 255 255 0
-0.0013933 0.0350312 -0.0605124 255 255 0
0.0007078 0.0350214 -0.0605141 255 255 0
0.0028056 0.0349977 -0.0605320 255 255 0
0.0048955 0.0349540 -0.0605565 255 255 0
0.0069906 0.0348724 -0.0605879 255 255 0
0.0090871 0.0348405 -0.0606029 255 255 0
-0.0225130 0.0369472 -0.0606142 255 255 0
-0.0203480 0.0370314 -0.0605403 255 255 0
-0.0182000 0.0370944 -0.0604811 255 255 0
-0.0160484 0.0371107 -0.0604789 255 255 0
-0.0139306 0.0371185 -0.0604732 255 255 0
-0.0118378 0.0371494 -0.0604690 255 255 0
-0.0097522 0.0371694 -0.0604623 255 255 0
-0.0076623 0.0371809 -0.0604594 255 255 0
-0.0055744 0.0371859 -0.0604574 255 255 0
-0.0034832 0.0371910 -0.0604608 255 255 0
-0.0013905 0.0371885 -0.0604640 255 255 0
0.0007058 0.0371728 -0.0604705 255 255 0
0.0027999 0.0371494 -0.0604791 255 255 0
0.0048903 0.0371193 -0.0604935 255 255 0
0.0069807 0.0370929 -0.0605081 255 255 0
0.0090702 0.0370599 -0.0605138 255 255 0
0.0111700 0.0370147 -0.0605264 255 255 0
0.0132717 0.0369332 -0.0605688 255 255 0
-0.0246526 0.0391359 -0.0606300 255 255 0
-0.0224428 0.0391857 -0.0605474 255 255 0
-0.0203102 0.0392419 -0.0604845 255 255 0
-0.0181769 0.0392802 -0.0604449 255 255 0
-0.0160448 0.0392958 -0.0604398 255 255 0
-0.0139227 0.0393148 -0.0604371 255 255 0
-0.0118328 0.0393256 -0.0604329 255 255 0
-0.0097418 0.0393313 -0.0604306 255 255 0
-0.0076557 0.0393402 -0.0604303 255 255 0
-0.0055685 0.0393434 -0.0604305 255 255 0
-0.0034798 0.0393464 -0.0604310 255 255 0
-0.0013907 0.0393428 -0.0604319 255 255 0
0.0007007 0.0393315 -0.0604353 255 255 0
0.0027919 0.0393228 -0.0604391 255 255 0
0.0048828 0.0393048 -0.0604485 255 255 0
0.0069742 0.0392770 -0.0604590 255 255 0
0.0090649 0.0392499 -0.0604772 255 255 0
0.0111675 0.0392013 -0.0604963 255 255 0
0.0132636 0.0391561 -0.0605107 255 255 0
0.0154028 0.0390664 -0.0605392 255 255 0
0.0175494 0.0390101 -0.0605520 255 255 0
-0.0246527 0.0412996 -0.0605436 255 255 0
-0.0224075 0.0413569 -0.0604765 255 255 0
-0.0202848 0.0413909 -0.0604448 255 255 0
-0.0181539 0.0414150 -0.0604287 255 255 0
-0.0160252 0.0414288 -0.0604285 255 255 0
-0.0139143 0.0414323 -0.0604270 255 255 0
-0.0118242 0.0414418 -0.0604261 255 255 0
-0.0097382 0.0414502 -0.0604246 255 255 0
-0.0076506 0.0414527 -0.0604235 255 255 0
-0.0055659 0.0414536 -0.0604228 255 255 0
-0.0034796 0.0414539 -0.0604224 255 255 0
-0.0013921 0.0414504 -0.0604227 255 255 0
0.0006953 0.0414442 -0.0604240 255 255 0
0.0027837 0.0414323 -0.0604261 255 255 0
0.0048719 0.0414247 -0.0604290 255 255 0
0.0069642 0.0414061 -0.0604323 255 255 0
0.0090575 0.0413800 -0.0604408 255 255 0
0.0111569 0.0413459 -0.0604536 255 255 0
0.0132564 0.0413011 -0.0604705 255 255 0
0.0153919 0.0412597 -0.0604809 255 255 0
0.0175341 0.0412181 -0.0604859 255 255 0
0.0197535 0.0411806 -0.0604845 255 255 0
-0.0246054 0.0434470 -0.0604926 255 255 0
-0.0223952 0.0435194 -0.0604302 255 255 0
-0.0202552 0.0435271 -0.0604251 255 255 0
-0.0181257 0.0435372 -0.0604201 255 255 0
-0.0160107 0.0435453 -0.0604193 255 255 0
-0.0139065 0.0435474 -0.0604191 255 255 0
-0.0118177 0.0435519 -0.0604180 255 255 0
-0.0097318 0.0435544 -0.0604167 255 255 0
-0.0076490 0.0435548 -0.0604167 255 255 0
-0.0055641 0.0435540 -0.0604167 255 255 0
-0.0034796 0.0435519 -0.0604167 255 255 0
-0.0013941 0.0435488 -0.0604167 255 255 0
0.0006910 0.0435443 -0.0604174 255 255 0
0.0027768 0.0435409 -0.0604192 255 255 0
0.0048632 0.0435349 -0.0604203 255 255 0
0.0069538 0.0435272 -0.0604230 255 255 0
0.0090448 0.0435059 -0.0604270 255 255 0
0.0111452 0.0434911 -0.0604289 255 255 0
0.0132456 0.0434662 -0.0604360 255 255 0
0.0153820 0.0434324 -0.0604438 255 255 0
0.0175306 0.0434002 -0.0604578 255 255 0
0.0197506 0.0433721 -0.0604596 255 255 0
-0.0267977 0.0454456 -0.0605667 255 255 0
-0.0245738 0.0455694 -0.0604517 255 255 0
-0.0223908 0.0456218 -0.0604217 255 255 0
-0.0202354 0.0456248 -0.0604216 255 255 0
-0.0181021 0.0456287 -0.0604187 255 255 0
-0.0159999 0.0456358 -0.0604185 255 255 0
-0.0139003 0.0456385 -0.0604187 255 255 0
-0.0118133 0.0456391 -0.0604187 255 255 0
-0.0097315 0.0456386 -0.0604187 255 255 0
-0.0076459 0.0456376 -0.0604188 255 255 0
-0.0055642 0.0456362 -0.0604186 255 255 0
-0.0034801 0.0456345 -0.0604180 255 255 0
-0.0013957 0.0456325 -0.0604171 255 255 0
0.0006877 0.0456294 -0.0604167 255 255 0
0.0027722 0.0456260 -0.0604167 255 255 0
0.0048560 0.0456235 -0.0604167 255 255 0
0.0069449 0.0456161 -0.0604187 255 255 0
0.0090334 0.0456053 -0.0604219 255 255 0
0.0111374 0.0455934 -0.0604247 255 255 0
0.0132338 0.0455750 -0.0604274 255 255 0
0.0153682 0.0455548 -0.0604301 255 255 0
0.0175204 0.0455311 -0.0604398 255 255 0
0.0197360 0.0454901 -0.0604411 255 255 0
0.0220105 0.0454079 -0.0604168 255 255 0
-0.0267390 0.0476172 -0.0604909 255 255 0
-0.0245482 0.0476872 -0.0604349 255 255 0
-0.0223828 0.0477150 -0.0604199 255 255 0
-0.0202237 0.0477195 -0.0604202 255 255 0
-0.0180896 0.0477234 -0.0604198 255 255 0
-0.0159894 0.0477250 -0.0604231 255 255 0
-0.0138946 0.0477258 -0.0604239 255 255 0
-0.0118128 0.0477248 -0.0604236 255 255 0
-0.0097309 0.0477238 -0.0604232 255 255 0
-0.0076452 0.0477222 -0.0604227 255 255 0
-0.0055640 0.0477207 -0.0604220 255 255 0
-0.0034802 0.0477197 -0.0604214 255 255 0
-0.0013966 0.0477184 -0.0604194 255 255 0
0.0006856 0.0477151 -0.0604167 255 255 0
0.0027687 0.0477124 -0.0604167 255 255 0
0.0048527 0.0477101 -0.0604167 255 255 0
0.0069398 0.0477077 -0.0604167 255 255 0
0.0090259 0.0477007 -0.0604167 255 255 0
0.0111264 0.0476902 -0.0604190 255 255 0
0.0132227 0.0476852 -0.0604239 255 255 0
0.0153559 0.0476659 -0.0604250 255 255 0
0.0175092 0.0476551 -0.0604259 255 255 0
0.0197205 0.0476199 -0.0604301 255 255 0
0.0219676 0.0475305 -0.0604168 255 255 0
-0.0288956 0.0497504 -0.0604766 255 255 0
-0.0266770 0.0497604 -0.0604478 255 255 0
-0.0245253 0.0497852 -0.0604250 255 255 0
-0.0223743 0.0497984 -0.0604184 255 255 0
-0.0202135 0.0498019 -0.0604193 255 255 0
-0.0180796 0.0498028 -0.0604205 255 255 0
-0.0159826 0.0498042 -0.0604232 255 255 0
-0.0138943 0.0498044 -0.0604241 255 255 0
-0.0118125 0.0498039 -0.0604239 255 255 0
-0.0097305 0.0498027 -0.0604231 255 255 0
-0.0076454 0.0498020 -0.0604209 255 255 0
-0.0055644 0.0498008 -0.0604199 255 255 0
-0.0034807 0.0498003 -0.0604189 255 255 0
-0.0013983 0.0497991 -0.0604167 255 255 0
0.0006839 0.0497960 -0.0604167 255 255 0
0.0027665 0.0497932 -0.0604167 255 255 0
0.0048488 0.0497912 -0.0604167 255 255 0
0.0069351 0.0497881 -0.0604167 255 255 0
0.0090218 0.0497856 -0.0604167 255 255 0
0.0111199 0.0497816 -0.0604167 255 255 0
0.0132182 0.0497786 -0.0604191 255 255 0
0.0153444 0.0497642 -0.0604191 255 255 0
0.0174924 0.0497496 -0.0604200 255 255 0
0.0197030 0.0497279 -0.0604313 255 255 0
0.0219288 0.0496600 -0.0604168 255 255 0
-0.0288617 0.0519001 -0.0604371 255 255 0
-0.0266279 0.0518810 -0.0604259 255 255 0
-0.0244965 0.0518855 -0.0604216 255 255 0
-0.0223613 0.0518851 -0.0604182 255 255 0
-0.0202053 0.0518884 -0.0604196 255 255 0
-0.0180756 0.0518896 -0.0604203 255 255 0
-0.0159785 0.0518905 -0.0604204 255 255 0
-0.0138937 0.0518907 -0.0604204 255 255 0
-0.0118119 0.0518902 -0.0604198 255 255 0
-0.0097296 0.0518915 -0.0604192 255 255 0
-0.0076453 0.0518903 -0.0604183 255 255 0
-0.0055644 0.0518891 -0.0604171 255 255 0
