ply
format ascii 1.0
element vertex 1185
property float x
property float y
property float z
property uchar red
property uchar green
property uchar blue
end_header
-0.0075833 0.0431078 0.0297764 255 255 0
-0.0055100 0.0431059 0.0297738 255 255 0
-0.0034338 0.0430967 0.0297712 255 255 0
-0.0013564 0.0430907 0.0297697 255 255 0
0.0007224 0.0430856 0.0297704 255 255 0
0.0028012 0.0430848 0.0297708 255 255 0
0.0048807 0.0430843 0.0297713 255 255 0
0.0069601 0.0430841 0.0297710 255 255 0
0.0090396 0.0430837 0.0297699 255 255 0
0.0111190 0.0430833 0.0297686 255 255 0
0.0131985 0.0430829 0.0297668 255 255 0
0.0152779 0.0430910 0.0297645 255 255 0
0.0173574 0.0431001 0.0297632 255 255 0
0.0194286 0.0430992 0.0297601 255 255 0
0.0215061 0.0430973 0.0297541 255 255 0
0.0235853 0.0430944 0.0297434 255 255 0
0.0256546 0.0430997 0.0297404 255 255 0
0.0277185 0.0431016 0.0297322 255 255 0
0.0297744 0.0430877 0.0296787 255 255 0
-0.0137769 0.0452114 0.0298243 255 255 0
-0.0117205 0.0451980 0.0297974 255 255 0
-0.0096574 0.0451894 0.0297793 255 255 0
-0.0075861 0.0451763 0.0297755 255 255 0
-0.0055123 0.0451670 0.0297726 255 255 0
-0.0034350 0.0451657 0.0297705 255 255 0
-0.0013569 0.0451648 0.0297692 255 255 0
0.0007220 0.0451646 0.0297694 255 255 0
0.0028012 0.0451643 0.0297695 255 255 0
0.0048806 0.0451642 0.0297697 255 255 0
0.0069601 0.0451640 0.0297697 255 255 0
0.0090396 0.0451639 0.0297691 255 255 0
0.0111191 0.0451637 0.0297686 255 255 0
0.0131985 0.0451634 0.0297676 255 255 0
0.0152780 0.0451629 0.0297664 255 255 0
0.0173575 0.0451631 0.0297667 255 255 0
0.0194369 0.0451705 0.0297653 255 255 0
0.0215163 0.0451781 0.0297626 255 255 0
0.0235856 0.0451787 0.0297558 255 255 0
0.0256649 0.0451781 0.0297518 255 255 0
0.0277234 0.0451760 0.0297446 255 255 0
0.0297864 0.0451658 0.0297081 255 255 0
0.0318320 0.0451578 0.0296776 255 255 0
-0.0158539 0.0473125 0.0298661 255 255 0
-0.0137848 0.0472864 0.0298145 255 255 0
-0.0117255 0.0472752 0.0297911 255 255 0
-0.0096610 0.0472493 0.0297750 255 255 0
-0.0075878 0.0472477 0.0297724 255 255 0
-0.0055133 0.0472463 0.0297704 255 255 0
-0.0034355 0.0472452 0.0297692 255 255 0
-0.0013574 0.0472446 0.0297684 255 255 0
0.0007218 0.0472444 0.0297686 255 255 0
0.0028012 0.0472442 0.0297687 255 255 0
0.0048807 0.0472439 0.0297688 255 255 0
0.0069601 0.0472438 0.0297689 255 255 0
0.0090396 0.0472437 0.0297687 255 255 0
0.0111190 0.0472436 0.0297684 255 255 0
0.0131985 0.0472434 0.0297678 255 255 0
0.0152780 0.0472432 0.0297670 255 255 0
0.0173575 0.0472434 0.0297667 255 255 0
0.0194369 0.0472434 0.0297650 255 255 0
0.0215163 0.0472430 0.0297627 255 255 0
0.0235855 0.0472419 0.0297576 255 255 0
0.0256649 0.0472418 0.0297544 255 255 0
0.0277244 0.0472470 0.0297487 255 255 0
0.0297884 0.0472469 0.0297235 255 255 0
0.0318394 0.0472451 0.0297047 255 255 0
-0.0158550 0.0493786 0.0298407 255 255 0
-0.0137941 0.0493611 0.0298020 255 255 0
-0.0117306 0.0493422 0.0297839 255 255 0
-0.0096622 0.0493281 0.0297718 255 255 0
-0.0075895 0.0493267 0.0297699 255 255 0
-0.0055150 0.0493257 0.0297683 255 255 0
-0.0034365 0.0493251 0.0297678 255 255 0
-0.0013575 0.0493246 0.0297674 255 255 0
0.0007216 0.0493243 0.0297675 255 255 0
0.0028012 0.0493243 0.0297675 255 255 0
0.0048806 0.0493241 0.0297676 255 255 0
0.0069601 0.0493240 0.0297676 255 255 0
0.0090396 0.0493240 0.0297676 255 255 0
0.0111191 0.0493240 0.0297674 255 255 0
0.0131985 0.0493239 0.0297671 255 255 0
0.0152780 0.0493238 0.0297666 255 255 0
0.0173576 0.0493238 0.0297660 255 255 0
0.0194370 0.0493237 0.0297647 255 255 0
0.0215164 0.0493234 0.0297628 255 255 0
0.0235856 0.0493229 0.0297587 255 255 0
0.0256649 0.0493226 0.0297558 255 255 0
0.0277280 0.0493215 0.0297515 255 255 0
0.0297919 0.0493172 0.0297350 255 255 0
0.0318421 0.0493259 0.0297222 255 255 0
-0.0158576 0.0514500 0.0298191 255 255 0
-0.0138006 0.0514355 0.0297850 255 255 0
-0.0117351 0.0514149 0.0297765 255 255 0
-0.0096640 0.0514075 0.0297702 255 255 0
-0.0075909 0.0514064 0.0297681 255 255 0
-0.0055154 0.0514054 0.0297666 255 255 0
-0.0034366 0.0514049 0.0297663 255 255 0
-0.0013576 0.0514045 0.0297661 255 255 0
0.0007216 0.0514042 0.0297662 255 255 0
0.0028012 0.0514040 0.0297662 255 255 0
0.0048807 0.0514040 0.0297663 255 255 0
0.0069601 0.0514040 0.0297663 255 255 0
0.0090396 0.0514039 0.0297664 255 255 0
0.0111190 0.0514041 0.0297662 255 255 0
0.0131985 0.0514041 0.0297661 255 255 0
0.0152780 0.0514042 0.0297656 255 255 0
0.0173575 0.0514043 0.0297652 255 255 0
0.0194370 0.0514043 0.0297641 255 255 0
0.0215164 0.0514043 0.0297625 255 255 0
0.0235871 0.0514038 0.0297590 255 255 0
0.0256649 0.0514038 0.0297560 255 255 0
0.0277309 0.0514028 0.0297522 255 255 0
0.0297950 0.0513997 0.0297409 255 255 0
0.0318451 0.0513975 0.0297315 255 255 0
-0.0179120 0.0535431 0.0298434 255 255 0
-0.0158642 0.0535250 0.0298034 255 255 0
-0.0138062 0.0535123 0.0297745 255 255 0
-0.0117376 0.0535044 0.0297696 255 255 0
-0.0096672 0.0534932 0.0297672 255 255 0
-0.0075921 0.0534873 0.0297655 255 255 0
-0.0055156 0.0534863 0.0297642 255 255 0
-0.0034367 0.0534857 0.0297639 255 255 0
-0.0013577 0.0534853 0.0297638 255 255 0
0.0007216 0.0534852 0.0297639 255 255 0
0.0028012 0.0534850 0.0297640 255 255 0
0.0048807 0.0534850 0.0297640 255 255 0
0.0069601 0.0534850 0.0297640 255 255 0
0.0090396 0.0534850 0.0297640 255 255 0
0.0111191 0.0534851 0.0297638 255 255 0
0.0131986 0.0534851 0.0297637 255 255 0
0.0152781 0.0534852 0.0297633 255 255 0
0.0173576 0.0534855 0.0297630 255 255 0
0.0194371 0.0534857 0.0297617 255 255 0
0.0215165 0.0534860 0.0297601 255 255 0
0.0235913 0.0534859 0.0297569 255 255 0
0.0256650 0.0534856 0.0297538 255 255 0
0.0277334 0.0534880 0.0297481 255 255 0
0.0297996 0.0534951 0.0297411 255 255 0
0.0318496 0.0534937 0.0297330 255 255 0
-0.0179166 0.0556319 0.0298262 255 255 0
-0.0158678 0.0556035 0.0297933 255 255 0
-0.0138104 0.0555922 0.0297689 255 255 0
-0.0117415 0.0555895 0.0297644 255 255 0
-0.0096692 0.0555876 0.0297617 255 255 0
-0.0075928 0.0555865 0.0297605 255 255 0
-0.0055159 0.0555857 0.0297598 255 255 0
-0.0034368 0.0555853 0.0297600 255 255 0
-0.0013577 0.0555850 0.0297600 255 255 0
0.0007218 0.0555849 0.0297601 255 255 0
0.0028012 0.0555848 0.0297600 255 255 0
0.0048807 0.0555847 0.0297601 255 255 0
0.0069602 0.0555847 0.0297600 255 255 0
0.0090396 0.0555847 0.0297600 255 255 0
0.0111191 0.0555848 0.0297597 255 255 0
0.0131986 0.0555848 0.0297595 255 255 0
0.0152781 0.0555850 0.0297588 255 255 0
0.0173576 0.0555853 0.0297580 255 255 0
0.0194371 0.0555855 0.0297566 255 255 0
0.0215165 0.0555858 0.0297551 255 255 0
0.0235956 0.0555857 0.0297523 255 255 0
0.0256649 0.0555856 0.0297500 255 255 0
0.0277335 0.0555838 0.0297414 255 255 0
0.0298024 0.0555826 0.0297366 255 255 0
0.0318587 0.0555803 0.0297259 255 255 0
-0.0179217 0.0577100 0.0298127 255 255 0
-0.0158701 0.0576839 0.0297826 255 255 0
-0.0138116 0.0576744 0.0297620 255 255 0
-0.0117428 0.0576724 0.0297582 255 255 0
-0.0096700 0.0576708 0.0297556 255 255 0
-0.0075933 0.0576699 0.0297544 255 255 0
-0.0055164 0.0576692 0.0297537 255 255 0
-0.0034370 0.0576688 0.0297537 255 255 0
-0.0013576 0.0576686 0.0297537 255 255 0
0.0007218 0.0576685 0.0297536 255 255 0
0.0028013 0.0576685 0.0297536 255 255 0
0.0048808 0.0576684 0.0297536 255 255 0
0.0069603 0.0576684 0.0297534 255 255 0
0.0090398 0.0576685 0.0297531 255 255 0
0.0111192 0.0576685 0.0297529 255 255 0
0.0131987 0.0576687 0.0297527 255 255 0
0.0152782 0.0576689 0.0297523 255 255 0
0.0173576 0.0576691 0.0297516 255 255 0
0.0194372 0.0576693 0.0297508 255 255 0
0.0215166 0.0576697 0.0297499 255 255 0
0.0235960 0.0576696 0.0297476 255 255 0
0.0256652 0.0576696 0.0297454 255 255 0
0.0277337 0.0576677 0.0297355 255 255 0
0.0298026 0.0576668 0.0297309 255 255 0
0.0318620 0.0576644 0.0297196 255 255 0
-0.0200013 0.0598075 0.0298814 255 255 0
-0.0179219 0.0597814 0.0297996 255 255 0
-0.0158700 0.0597671 0.0297718 255 255 0
-0.0138123 0.0597592 0.0297537 255 255 0
-0.0117434 0.0597577 0.0297510 255 255 0
-0.0096700 0.0597565 0.0297489 255 255 0
-0.0075932 0.0597558 0.0297478 255 255 0
-0.0055164 0.0597554 0.0297471 255 255 0
-0.0034370 0.0597551 0.0297469 255 255 0
-0.0013575 0.0597550 0.0297467 255 255 0
0.0007219 0.0597549 0.0297468 255 255 0
0.0028014 0.0597549 0.0297467 255 255 0
0.0048809 0.0597550 0.0297466 255 255 0
0.0069604 0.0597549 0.0297465 255 255 0
0.0090398 0.0597549 0.0297464 255 255 0
0.0111193 0.0597550 0.0297462 255 255 0
0.0131988 0.0597552 0.0297460 255 255 0
0.0152783 0.0597554 0.0297457 255 255 0
0.0173578 0.0597557 0.0297452 255 255 0
0.0194372 0.0597559 0.0297444 255 255 0
0.0215167 0.0597561 0.0297436 255 255 0
0.0235960 0.0597561 0.0297416 255 255 0
0.0256652 0.0597561 0.0297395 255 255 0
0.0277338 0.0597547 0.0297299 255 255 0
0.0298048 0.0597534 0.0297245 255 255 0
0.0318651 0.0597528 0.0297146 255 255 0
0.0338893 0.0597552 0.0296550 255 255 0
-0.0199983 0.0618925 0.0298731 255 255 0
-0.0179184 0.0618676 0.0297898 255 255 0
-0.0158687 0.0618587 0.0297638 255 255 0
-0.0138121 0.0618523 0.0297460 255 255 0
-0.0117430 0.0618512 0.0297420 255 255 0
-0.0096698 0.0618505 0.0297390 255 255 0
-0.0075931 0.0618501 0.0297374 255 255 0
-0.0055162 0.0618498 0.0297363 255 255 0
-0.0034368 0.0618497 0.0297360 255 255 0
-0.0013574 0.0618496 0.0297358 255 255 0
0.0007221 0.0618497 0.0297358 255 255 0
0.0028016 0.0618500 0.0297359 255 255 0
0.0048811 0.0618501 0.0297360 255 255 0
0.0069606 0.0618504 0.0297361 255 255 0
0.0090401 0.0618505 0.0297360 255 255 0
0.0111196 0.0618507 0.0297358 255 255 0
0.0131990 0.0618511 0.0297357 255 255 0
0.0152785 0.0618514 0.0297355 255 255 0
0.0173580 0.0618518 0.0297353 255 255 0
0.0194375 0.0618521 0.0297347 255 255 0
0.0215170 0.0618523 0.0297344 255 255 0
0.0235962 0.0618524 0.0297327 255 255 0
0.0256655 0.0618526 0.0297306 255 255 0
0.0277340 0.0618512 0.0297207 255 255 0
0.0298053 0.0618499 0.0297141 255 255 0
0.0318654 0.0618486 0.0297062 255 255 0
0.0338936 0.0618457 0.0296581 255 255 0
-0.0179134 0.0640039 0.0297858 255 255 0
-0.0158666 0.0639971 0.0297534 255 255 0
-0.0138107 0.0639935 0.0297317 255 255 0
-0.0117420 0.0639925 0.0297276 255 255 0
-0.0096695 0.0639917 0.0297249 255 255 0
-0.0075927 0.0639916 0.0297233 255 255 0
-0.0055156 0.0639915 0.0297222 255 255 0
-0.0034363 0.0639916 0.0297219 255 255 0
-0.0013571 0.0639916 0.0297218 255 255 0
0.0007224 0.0639920 0.0297217 255 255 0
0.0028019 0.0639922 0.0297216 255 255 0
0.0048814 0.0639926 0.0297215 255 255 0
0.0069609 0.0639930 0.0297214 255 255 0
0.0090403 0.0639935 0.0297215 255 255 0
0.0111198 0.0639940 0.0297215 255 255 0
0.0131993 0.0639945 0.0297214 255 255 0
0.0152788 0.0639952 0.0297212 255 255 0
0.0173583 0.0639960 0.0297206 255 255 0
0.0194378 0.0639968 0.0297198 255 255 0
0.0215172 0.0639974 0.0297190 255 255 0
0.0235942 0.0639978 0.0297166 255 255 0
0.0256657 0.0639978 0.0297148 255 255 0
0.0277342 0.0639963 0.0297088 255 255 0
0.0298036 0.0639948 0.0297017 255 255 0
0.0318636 0.0639928 0.0296926 255 255 0
0.0338913 0.0639850 0.0296559 255 255 0
-0.0179115 0.0660808 0.0297972 255 255 0
-0.0158645 0.0660966 0.0297535 255 255 0
-0.0138078 0.0660942 0.0297248 255 255 0
-0.0117392 0.0660934 0.0297200 255 255 0
-0.0096680 0.0660927 0.0297161 255 255 0
-0.0075918 0.0660928 0.0297135 255 255 0
-0.0055147 0.0660928 0.0297118 255 255 0
-0.0034353 0.0660926 0.0297114 255 255 0
-0.0013566 0.0660928 0.0297111 255 255 0
0.0007229 0.0660931 0.0297110 255 255 0
0.0028022 0.0660934 0.0297109 255 255 0
0.0048816 0.0660939 0.0297109 255 255 0
0.0069611 0.0660944 0.0297108 255 255 0
0.0090407 0.0660948 0.0297108 255 255 0
0.0111202 0.0660952 0.0297107 255 255 0
0.0131997 0.0660959 0.0297106 255 255 0
0.0152792 0.0660964 0.0297103 255 255 0
0.0173586 0.0660972 0.0297100 255 255 0
0.0194382 0.0660978 0.0297093 255 255 0
0.0215176 0.0660986 0.0297085 255 255 0
0.0235874 0.0660988 0.0297060 255 255 0
0.0256660 0.0660989 0.0297037 255 255 0
0.0277344 0.0660971 0.0296971 255 255 0
0.0298029 0.0660956 0.0296906 255 255 0
0.0318524 0.0660928 0.0296819 255 255 0
0.0338836 0.0660607 0.0296478 255 255 0
-0.0179092 0.0681637 0.0298215 255 255 0
-0.0158610 0.0681956 0.0297601 255 255 0
-0.0138047 0.0681938 0.0297189 255 255 0
-0.0117360 0.0681935 0.0297131 255 255 0
-0.0096643 0.0681925 0.0297084 255 255 0
-0.0075898 0.0681924 0.0297047 255 255 0
-0.0055130 0.0681922 0.0297023 255 255 0
-0.0034348 0.0681921 0.0297018 255 255 0
-0.0013560 0.0681919 0.0297013 255 255 0
0.0007232 0.0681922 0.0297011 255 255 0
0.0028024 0.0681924 0.0297010 255 255 0
0.0048820 0.0681928 0.0297009 255 255 0
0.0069615 0.0681930 0.0297009 255 255 0
0.0090409 0.0681932 0.0297007 255 255 0
0.0111205 0.0681935 0.0297006 255 255 0
0.0132000 0.0681939 0.0297005 255 255 0
0.0152795 0.0681944 0.0297003 255 255 0
0.0173590 0.0681950 0.0297001 255 255 0
0.0194385 0.0681951 0.0296996 255 255 0
0.0215178 0.0681955 0.0296991 255 255 0
0.0235869 0.0681950 0.0296972 255 255 0
0.0256661 0.0681950 0.0296956 255 255 0
0.0277337 0.0681926 0.0296889 255 255 0
0.0297959 0.0681891 0.0296818 255 255 0
0.0318461 0.0681587 0.0296740 255 255 0
-0.0179051 0.0702584 0.0298241 255 255 0
-0.0158569 0.0702699 0.0297582 255 255 0
-0.0138011 0.0702898 0.0297132 255 255 0
-0.0117334 0.0702889 0.0297082 255 255 0
-0.0096625 0.0702875 0.0297039 255 255 0
-0.0075889 0.0702872 0.0297003 255 255 0
-0.0055127 0.0702869 0.0296978 255 255 0
-0.0034345 0.0702867 0.0296973 255 255 0
-0.0013557 0.0702866 0.0296968 255 255 0
0.0007235 0.0702868 0.0296965 255 255 0
0.0028027 0.0702869 0.0296962 255 255 0
0.0048822 0.0702871 0.0296961 255 255 0
0.0069617 0.0702872 0.0296960 255 255 0
0.0090412 0.0702874 0.0296958 255 255 0
0.0111207 0.0702876 0.0296956 255 255 0
0.0132002 0.0702878 0.0296955 255 255 0
0.0152797 0.0702882 0.0296953 255 255 0
0.0173593 0.0702889 0.0296949 255 255 0
0.0194388 0.0702892 0.0296942 255 255 0
0.0215181 0.0702895 0.0296937 255 255 0
0.0235870 0.0702889 0.0296920 255 255 0
0.0256662 0.0702884 0.0296903 255 255 0
0.0277262 0.0702851 0.0296847 255 255 0
0.0297883 0.0702453 0.0296762 255 255 0
0.0318343 0.0702404 0.0296685 255 255 0
-0.0178973 0.0723489 0.0298107 255 255 0
-0.0158511 0.0723596 0.0297495 255 255 0
-0.0137985 0.0723807 0.0297084 255 255 0
-0.0117313 0.0723793 0.0297052 255 255 0
-0.0096617 0.0723777 0.0297013 255 255 0
-0.0075882 0.0723774 0.0296981 255 255 0
-0.0055125 0.0723773 0.0296958 255 255 0
-0.0034344 0.0723771 0.0296954 255 255 0
-0.0013556 0.0723769 0.0296949 255 255 0
0.0007236 0.0723772 0.0296948 255 255 0
0.0028028 0.0723775 0.0296946 255 255 0
0.0048823 0.0723776 0.0296946 255 255 0
0.0069618 0.0723777 0.0296945 255 255 0
0.0090413 0.0723778 0.0296945 255 255 0
0.0111208 0.0723780 0.0296944 255 255 0
0.0132003 0.0723783 0.0296944 255 255 0
0.0152798 0.0723787 0.0296942 255 255 0
0.0173593 0.0723794 0.0296940 255 255 0
0.0194388 0.0723795 0.0296931 255 255 0
0.0215182 0.0723798 0.0296924 255 255 0
0.0235869 0.0723787 0.0296900 255 255 0
0.0256599 0.0723781 0.0296874 255 255 0
0.0277216 0.0723755 0.0296833 255 255 0
0.0297754 0.0723342 0.0296731 255 255 0
0.0318184 0.0723266 0.0296641 255 255 0
-0.0178885 0.0744374 0.0297949 255 255 0
-0.0158472 0.0744369 0.0297413 255 255 0
-0.0137955 0.0744677 0.0297063 255 255 0
-0.0117288 0.0744655 0.0297033 255 255 0
-0.0096596 0.0744639 0.0296996 255 255 0
-0.0075870 0.0744632 0.0296968 255 255 0
-0.0055124 0.0744635 0.0296949 255 255 0
-0.0034341 0.0744632 0.0296943 255 255 0
-0.0013550 0.0744633 0.0296939 255 255 0
0.0007240 0.0744636 0.0296936 255 255 0
0.0028029 0.0744639 0.0296935 255 255 0
0.0048824 0.0744641 0.0296934 255 255 0
0.0069619 0.0744641 0.0296933 255 255 0
0.0090414 0.0744641 0.0296932 255 255 0
0.0111209 0.0744643 0.0296932 255 255 0
0.0132004 0.0744647 0.0296932 255 255 0
0.0152799 0.0744652 0.0296931 255 255 0
0.0173594 0.0744659 0.0296930 255 255 0
0.0194388 0.0744662 0.0296922 255 255 0
0.0215096 0.0744665 0.0296913 255 255 0
0.0235869 0.0744651 0.0296883 255 255 0
0.0256556 0.0744644 0.0296850 255 255 0
0.0277139 0.0744619 0.0296806 255 255 0
0.0297607 0.0744196 0.0296670 255 255 0
-0.0158418 0.0765194 0.0297368 255 255 0
-0.0137928 0.0765496 0.0297085 255 255 0
-0.0117268 0.0765491 0.0297043 255 255 0
-0.0096576 0.0765472 0.0297007 255 255 0
-0.0075857 0.0765465 0.0296976 255 255 0
-0.0055112 0.0765463 0.0296955 255 255 0
-0.0034329 0.0765460 0.0296949 255 255 0
-0.0013548 0.0765460 0.0296945 255 255 0
0.0007244 0.0765461 0.0296942 255 255 0
0.0028030 0.0765461 0.0296939 255 255 0
0.0048825 0.0765461 0.0296936 255 255 0
0.0069620 0.0765462 0.0296934 255 255 0
0.0090414 0.0765462 0.0296933 255 255 0
0.0111209 0.0765464 0.0296933 255 255 0
0.0132004 0.0765468 0.0296933 255 255 0
0.0152799 0.0765471 0.0296930 255 255 0
0.0173594 0.0765479 0.0296929 255 255 0
0.0194387 0.0765481 0.0296921 255 255 0
0.0215078 0.0765484 0.0296912 255 255 0
0.0235806 0.0765475 0.0296873 255 255 0
0.0256551 0.0765466 0.0296827 255 255 0
0.0277059 0.0765454 0.0296778 255 255 0
0.0297426 0.0765028 0.0296604 255 255 0
-0.0158394 0.0785986 0.0297476 255 255 0
-0.0137889 0.0785962 0.0297197 255 255 0
-0.0117227 0.0786178 0.0297104 255 255 0
-0.0096542 0.0786284 0.0297034 255 255 0
-0.0075828 0.0786282 0.0296989 255 255 0
-0.0055093 0.0786278 0.0296959 255 255 0
-0.0034314 0.0786267 0.0296951 255 255 0
-0.0013534 0.0786267 0.0296944 255 255 0
0.0007251 0.0786272 0.0296940 255 255 0
0.0028043 0.0786273 0.0296936 255 255 0
0.0048825 0.0786275 0.0296932 255 255 0
0.0069620 0.0786276 0.0296930 255 255 0
0.0090415 0.0786276 0.0296928 255 255 0
0.0111210 0.0786278 0.0296927 255 255 0
0.0132005 0.0786281 0.0296927 255 255 0
0.0152799 0.0786282 0.0296925 255 255 0
0.0173594 0.0786288 0.0296925 255 255 0
0.0194292 0.0786287 0.0296917 255 255 0
0.0215077 0.0786293 0.0296909 255 255 0
0.0235759 0.0786285 0.0296871 255 255 0
0.0256442 0.0786273 0.0296810 255 255 0
0.0276959 0.0786250 0.0296753 255 255 0
0.0297233 0.0785830 0.0296616 255 255 0
-0.0158390 0.0806738 0.0297719 255 255 0
-0.0137844 0.0806720 0.0297398 255 255 0
-0.0117187 0.0806719 0.0297226 255 255 0
-0.0096499 0.0806720 0.0297100 255 255 0
-0.0075783 0.0807057 0.0297020 255 255 0
-0.0055048 0.0807071 0.0296966 255 255 0
-0.0034287 0.0807070 0.0296956 255 255 0
-0.0013517 0.0807070 0.0296947 255 255 0
0.0007265 0.0807074 0.0296939 255 255 0
0.0028044 0.0807079 0.0296933 255 255 0
0.0048826 0.0807078 0.0296927 255 255 0
0.0069621 0.0807078 0.0296923 255 255 0
0.0090415 0.0807079 0.0296923 255 255 0
0.0111210 0.0807080 0.0296923 255 255 0
0.0132004 0.0807082 0.0296923 255 255 0
0.0152778 0.0807084 0.0296923 255 255 0
0.0173592 0.0807083 0.0296927 255 255 0
0.0194281 0.0807082 0.0296921 255 255 0
0.0215075 0.0807085 0.0296916 255 255 0
0.0235741 0.0807072 0.0296888 255 255 0
0.0256363 0.0807040 0.0296803 255 255 0
0.0276843 0.0806834 0.0296740 255 255 0
-0.0158404 0.0827123 0.0297974 255 255 0
-0.0137806 0.0827153 0.0297631 255 255 0
-0.0117126 0.0827394 0.0297406 255 255 0
-0.0096420 0.0827476 0.0297232 255 255 0
-0.0075703 0.0827480 0.0297087 255 255 0
-0.0054976 0.0827497 0.0296995 255 255 0
-0.0034230 0.0827527 0.0296985 255 255 0
-0.0013477 0.0827847 0.0296973 255 255 0
0.0007292 0.0827863 0.0296954 255 255 0
0.0028067 0.0827871 0.0296939 255 255 0
0.0048853 0.0827870 0.0296926 255 255 0
0.0069633 0.0827868 0.0296918 255 255 0
0.0090415 0.0827871 0.0296922 255 255 0
0.0111209 0.0827872 0.0296925 255 255 0
0.0132003 0.0827874 0.0296923 255 255 0
0.0152746 0.0827873 0.0296924 255 255 0
0.0173487 0.0827865 0.0296930 255 255 0
0.0194277 0.0827850 0.0296924 255 255 0
0.0215070 0.0827679 0.0296920 255 255 0
0.0235675 0.0827499 0.0296895 255 255 0
0.0256284 0.0827463 0.0296793 255 255 0
0.0276733 0.0827435 0.0296704 255 255 0
-0.0117061 0.0847765 0.0297614 255 255 0
-0.0096341 0.0847838 0.0297402 255 255 0
-0.0075598 0.0847969 0.0297183 255 255 0
-0.0054864 0.0848231 0.0297041 255 255 0
-0.0034147 0.0848246 0.0297051 255 255 0
-0.0013416 0.0848272 0.0297039 255 255 0
0.0007333 0.0848289 0.0297003 255 255 0
0.0028090 0.0848409 0.0296974 255 255 0
0.0048877 0.0848557 0.0296940 255 255 0
0.0069648 0.0848625 0.0296921 255 255 0
0.0090415 0.0848570 0.0296936 255 255 0
0.0111208 0.0848485 0.0296945 255 255 0
0.0131951 0.0848452 0.0296940 255 255 0
0.0152743 0.0848314 0.0296938 255 255 0
0.0173481 0.0848284 0.0296940 255 255 0
0.0194193 0.0848261 0.0296933 255 255 0
0.0214963 0.0848244 0.0296937 255 255 0
0.0235616 0.0848227 0.0296915 255 255 0
0.0256196 0.0848193 0.0296797 255 255 0
0.0276628 0.0848067 0.0296671 255 255 0
-0.0054768 0.0868581 0.0297101 255 255 0
-0.0034049 0.0868641 0.0297166 255 255 0
-0.0013325 0.0868789 0.0297171 255 255 0
0.0007392 0.0869013 0.0297109 255 255 0
0.0028129 0.0869020 0.0297053 255 255 0
0.0048907 0.0869029 0.0296950 255 255 0
0.0069676 0.0869036 0.0296899 255 255 0
0.0090415 0.0869034 0.0296961 255 255 0
0.0111154 0.0869033 0.0296997 255 255 0
0.0131947 0.0869036 0.0296981 255 255 0
0.0152700 0.0869026 0.0296976 255 255 0
0.0173394 0.0868982 0.0296970 255 255 0
0.0194113 0.0868862 0.0296957 255 255 0
0.0214923 0.0868662 0.0297029 255 255 0
0.0235551 0.0868611 0.0297047 255 255 0
0.0256118 0.0868546 0.0296894 255 255 0
0.0007464 0.0889342 0.0297241 255 255 0
0.0028169 0.0889370 0.0297156 255 255 0
0.0048948 0.0889400 0.0296935 255 255 0
0.0069712 0.0889431 0.0296816 255 255 0
0.0090415 0.0889389 0.0296973 255 255 0
0.0111152 0.0889371 0.0297054 255 255 0
0.0131922 0.0889368 0.0297027 255 255 0
0.0152668 0.0889366 0.0297022 255 255 0
0.0173297 0.0889279 0.0296984 255 255 0
0.0028086 0.0348823 0.0320106 255 255 0
0.0048882 0.0348761 0.0319900 255 255 0
0.0069643 0.0348741 0.0319717 255 255 0
0.0090410 0.0348710 0.0319633 255 255 0
0.0111124 0.0348689 0.0319463 255 255 0
-0.0096551 0.0369730 0.0320202 255 255 0
-0.0075804 0.0369635 0.0320002 255 255 0
-0.0055041 0.0369538 0.0319819 255 255 0
-0.0034287 0.0369504 0.0319742 255 255 0
-0.0013520 0.0369491 0.0319712 255 255 0
0.0007274 0.0369520 0.0319807 255 255 0
0.0028063 0.0369530 0.0319872 255 255 0
0.0048853 0.0369502 0.0319799 255 255 0
0.0069643 0.0369480 0.0319735 255 255 0
0.0090411 0.0369455 0.0319678 255 255 0
0.0111153 0.0369435 0.0319625 255 255 0
0.0131947 0.0369417 0.0319524 255 255 0
0.0152689 0.0369397 0.0319439 255 255 0
0.0173416 0.0369458 0.0319432 255 255 0
-0.0117279 0.0390450 0.0320139 255 255 0
-0.0096568 0.0390389 0.0320015 255 255 0
-0.0075821 0.0390345 0.0319929 255 255 0
-0.0055067 0.0390314 0.0319812 255 255 0
-0.0034303 0.0390294 0.0319768 255 255 0
-0.0013533 0.0390234 0.0319746 255 255 0
0.0007258 0.0390206 0.0319793 255 255 0
0.0028048 0.0390182 0.0319816 255 255 0
0.0048849 0.0390111 0.0319784 255 255 0
0.0069622 0.0390086 0.0319745 255 255 0
0.0090412 0.0390073 0.0319711 255 255 0
0.0111205 0.0390067 0.0319682 255 255 0
0.0131948 0.0390135 0.0319650 255 255 0
0.0152741 0.0390180 0.0319611 255 255 0
0.0173484 0.0390218 0.0319593 255 255 0
0.0194242 0.0390208 0.0319534 255 255 0
0.0214991 0.0390167 0.0319364 255 255 0
-0.0137975 0.0411297 0.0320432 255 255 0
-0.0117289 0.0411207 0.0320071 255 255 0
-0.0096592 0.0411032 0.0319942 255 255 0
-0.0075845 0.0410934 0.0319861 255 255 0
-0.0055082 0.0410911 0.0319805 255 255 0
-0.0034319 0.0410895 0.0319773 255 255 0
-0.0013540 0.0410885 0.0319757 255 255 0
0.0007248 0.0410886 0.0319773 255 255 0
0.0028037 0.0410885 0.0319778 255 255 0
0.0048824 0.0410881 0.0319770 255 255 0
0.0069617 0.0410876 0.0319749 255 255 0
0.0090411 0.0410870 0.0319730 255 255 0
0.0111205 0.0410865 0.0319713 255 255 0
0.0131999 0.0410858 0.0319695 255 255 0
0.0152742 0.0410849 0.0319671 255 255 0
0.0173533 0.0410849 0.0319654 255 255 0
0.0194279 0.0410915 0.0319625 255 255 0
0.0215072 0.0410925 0.0319546 255 255 0
0.0235804 0.0410925 0.0319339 255 255 0
0.0256555 0.0410978 0.0319403 255 255 0
0.0277277 0.0410971 0.0319290 255 255 0
-0.0138004 0.0431997 0.0320359 255 255 0
-0.0117317 0.0431801 0.0320036 255 255 0
-0.0096600 0.0431733 0.0319908 255 255 0
-0.0075854 0.0431712 0.0319870 255 255 0
-0.0055104 0.0431698 0.0319795 255 255 0
-0.0034328 0.0431688 0.0319766 255 255 0
-0.0013547 0.0431681 0.0319750 255 255 0
0.0007242 0.0431681 0.0319752 255 255 0
0.0028029 0.0431679 0.0319755 255 255 0
0.0048823 0.0431677 0.0319753 255 255 0
0.0069617 0.0431674 0.0319745 255 255 0
0.0090412 0.0431671 0.0319730 255 255 0
0.0111206 0.0431667 0.0319721 255 255 0
0.0131999 0.0431662 0.0319709 255 255 0
0.0152793 0.0431657 0.0319695 255 255 0
0.0173588 0.0431655 0.0319688 255 255 0
0.0194381 0.0431647 0.0319669 255 255 0
0.0215073 0.0431634 0.0319628 255 255 0
0.0235866 0.0431613 0.0319560 255 255 0
0.0256630 0.0431690 0.0319559 255 255 0
0.0277301 0.0431716 0.0319486 255 255 0
0.0297899 0.0431564 0.0318869 255 255 0
-0.0158793 0.0452841 0.0320558 255 255 0
-0.0138053 0.0452665 0.0320274 255 255 0
-0.0117339 0.0452575 0.0319999 255 255 0
-0.0096624 0.0452516 0.0319882 255 255 0
-0.0075873 0.0452500 0.0319848 255 255 0
-0.0055109 0.0452488 0.0319776 255 255 0
-0.0034333 0.0452480 0.0319754 255 255 0
-0.0013550 0.0452473 0.0319741 255 255 0
0.0007238 0.0452470 0.0319739 255 255 0
0.0028029 0.0452468 0.0319740 255 255 0
0.0048823 0.0452467 0.0319743 255 255 0
0.0069617 0.0452466 0.0319738 255 255 0
0.0090411 0.0452464 0.0319729 255 255 0
0.0111206 0.0452463 0.0319723 255 255 0
0.0132000 0.0452461 0.0319715 255 255 0
0.0152793 0.0452459 0.0319706 255 255 0
0.0173588 0.0452457 0.0319703 255 255 0
0.0194381 0.0452453 0.0319691 255 255 0
0.0215174 0.0452446 0.0319672 255 255 0
0.0235866 0.0452429 0.0319624 255 255 0
0.0256659 0.0452428 0.0319610 255 255 0
0.0277347 0.0452411 0.0319562 255 255 0
0.0297986 0.0452317 0.0319152 255 255 0
-0.0158794 0.0473545 0.0320478 255 255 0
-0.0138076 0.0473428 0.0320136 255 255 0
-0.0117368 0.0473354 0.0319961 255 255 0
-0.0096643 0.0473305 0.0319861 255 255 0
-0.0075878 0.0473292 0.0319811 255 255 0
-0.0055120 0.0473281 0.0319758 255 255 0
-0.0034341 0.0473275 0.0319744 255 255 0
-0.0013555 0.0473269 0.0319736 255 255 0
0.0007237 0.0473267 0.0319734 255 255 0
0.0028029 0.0473265 0.0319734 255 255 0
0.0048823 0.0473264 0.0319735 255 255 0
0.0069617 0.0473263 0.0319733 255 255 0
0.0090412 0.0473262 0.0319728 255 255 0
0.0111206 0.0473261 0.0319725 255 255 0
0.0132000 0.0473260 0.0319719 255 255 0
0.0152793 0.0473259 0.0319712 255 255 0
0.0173587 0.0473258 0.0319708 255 255 0
0.0194381 0.0473255 0.0319697 255 255 0
0.0215175 0.0473250 0.0319684 255 255 0
0.0235866 0.0473236 0.0319643 255 255 0
0.0256660 0.0473232 0.0319629 255 255 0
0.0277348 0.0473218 0.0319586 255 255 0
0.0298034 0.0473131 0.0319263 255 255 0
-0.0158795 0.0494282 0.0320397 255 255 0
-0.0138108 0.0494191 0.0320037 255 255 0
-0.0117388 0.0494132 0.0319922 255 255 0
-0.0096650 0.0494093 0.0319840 255 255 0
-0.0075898 0.0494079 0.0319775 255 255 0
-0.0055131 0.0494069 0.0319743 255 255 0
-0.0034345 0.0494064 0.0319733 255 255 0
-0.0013556 0.0494060 0.0319727 255 255 0
0.0007235 0.0494059 0.0319726 255 255 0
0.0028029 0.0494058 0.0319724 255 255 0
0.0048823 0.0494057 0.0319724 255 255 0
0.0069617 0.0494057 0.0319723 255 255 0
0.0090411 0.0494057 0.0319723 255 255 0
0.0111205 0.0494056 0.0319721 255 255 0
0.0132000 0.0494055 0.0319719 255 255 0
0.0152794 0.0494054 0.0319714 255 255 0
0.0173588 0.0494054 0.0319709 255 255 0
0.0194382 0.0494051 0.0319697 255 255 0
0.0215175 0.0494049 0.0319684 255 255 0
0.0235906 0.0494040 0.0319656 255 255 0
0.0256659 0.0494037 0.0319639 255 255 0
0.0277347 0.0494025 0.0319603 255 255 0
0.0298034 0.0493957 0.0319405 255 255 0
0.0318718 0.0493906 0.0319193 255 255 0
-0.0179582 0.0515293 0.0320557 255 255 0
-0.0158857 0.0515047 0.0320176 255 255 0
-0.0138131 0.0514962 0.0319967 255 255 0
-0.0117403 0.0514919 0.0319883 255 255 0
-0.0096659 0.0514886 0.0319821 255 255 0
-0.0075901 0.0514873 0.0319757 255 255 0
-0.0055133 0.0514865 0.0319731 255 255 0
-0.0034347 0.0514862 0.0319723 255 255 0
-0.0013557 0.0514858 0.0319719 255 255 0
0.0007234 0.0514857 0.0319718 255 255 0
0.0028029 0.0514856 0.0319716 255 255 0
0.0048823 0.0514856 0.0319717 255 255 0
0.0069617 0.0514856 0.0319717 255 255 0
0.0090412 0.0514856 0.0319716 255 255 0
0.0111206 0.0514856 0.0319715 255 255 0
0.0132000 0.0514856 0.0319713 255 255 0
0.0152794 0.0514856 0.0319711 255 255 0
0.0173589 0.0514856 0.0319709 255 255 0
0.0194383 0.0514855 0.0319701 255 255 0
0.0215176 0.0514854 0.0319686 255 255 0
0.0235926 0.0514845 0.0319661 255 255 0
0.0256660 0.0514840 0.0319645 255 255 0
0.0277387 0.0514829 0.0319610 255 255 0
0.0298085 0.0514786 0.0319496 255 255 0
0.0318720 0.0514753 0.0319322 255 255 0
-0.0179581 0.0536048 0.0320482 255 255 0
-0.0158896 0.0535820 0.0320070 255 255 0
-0.0138160 0.0535736 0.0319905 255 255 0
-0.0117420 0.0535703 0.0319844 255 255 0
-0.0096680 0.0535679 0.0319781 255 255 0
-0.0075909 0.0535668 0.0319735 255 255 0
-0.0055136 0.0535660 0.0319714 255 255 0
-0.0034348 0.0535658 0.0319708 255 255 0
-0.0013559 0.0535655 0.0319704 255 255 0
0.0007233 0.0535655 0.0319703 255 255 0
0.0028029 0.0535654 0.0319703 255 255 0
0.0048823 0.0535654 0.0319704 255 255 0
0.0069618 0.0535654 0.0319704 255 255 0
0.0090412 0.0535654 0.0319703 255 255 0
0.0111205 0.0535654 0.0319702 255 255 0
0.0132000 0.0535654 0.0319701 255 255 0
0.0152794 0.0535655 0.0319698 255 255 0
0.0173588 0.0535655 0.0319696 255 255 0
0.0194382 0.0535656 0.0319689 255 255 0
0.0215176 0.0535655 0.0319683 255 255 0
0.0235967 0.0535649 0.0319657 255 255 0
0.0256659 0.0535645 0.0319641 255 255 0
0.0277399 0.0535633 0.0319591 255 255 0
0.0298137 0.0535604 0.0319518 255 255 0
0.0318720 0.0535578 0.0319386 255 255 0
-0.0179582 0.0556796 0.0320404 255 255 0
-0.0158897 0.0556601 0.0320008 255 255 0
-0.0138160 0.0556526 0.0319855 255 255 0
-0.0117441 0.0556501 0.0319793 255 255 0
-0.0096681 0.0556482 0.0319736 255 255 0
-0.0075913 0.0556474 0.0319710 255 255 0
-0.0055139 0.0556468 0.0319695 255 255 0
-0.0034349 0.0556466 0.0319692 255 255 0
-0.0013558 0.0556464 0.0319689 255 255 0
0.0007233 0.0556462 0.0319688 255 255 0
0.0028029 0.0556462 0.0319688 255 255 0
0.0048823 0.0556462 0.0319688 255 255 0
0.0069618 0.0556463 0.0319688 255 255 0
0.0090412 0.0556463 0.0319687 255 255 0
0.0111206 0.0556463 0.0319686 255 255 0
0.0132000 0.0556463 0.0319686 255 255 0
0.0152794 0.0556464 0.0319684 255 255 0
0.0173588 0.0556465 0.0319681 255 255 0
0.0194382 0.0556464 0.0319675 255 255 0
0.0215176 0.0556464 0.0319669 255 255 0
0.0235969 0.0556461 0.0319648 255 255 0
0.0256660 0.0556455 0.0319628 255 255 0
0.0277410 0.0556434 0.0319552 255 255 0
0.0298138 0.0556419 0.0319508 255 255 0
0.0318718 0.0556391 0.0319343 255 255 0
-0.0200370 0.0577745 0.0320564 255 255 0
-0.0179581 0.0577551 0.0320172 255 255 0
-0.0158897 0.0577395 0.0319957 255 255 0
-0.0138184 0.0577326 0.0319795 255 255 0
-0.0117448 0.0577306 0.0319734 255 255 0
-0.0096681 0.0577292 0.0319698 255 255 0
-0.0075924 0.0577284 0.0319681 255 255 0
-0.0055145 0.0577278 0.0319671 255 255 0
-0.0034352 0.0577276 0.0319667 255 255 0
-0.0013558 0.0577274 0.0319664 255 255 0
0.0007235 0.0577273 0.0319663 255 255 0
0.0028030 0.0577273 0.0319663 255 255 0
0.0048824 0.0577273 0.0319662 255 255 0
0.0069618 0.0577274 0.0319662 255 255 0
0.0090412 0.0577273 0.0319662 255 255 0
0.0111206 0.0577275 0.0319661 255 255 0
0.0132000 0.0577276 0.0319661 255 255 0
0.0152794 0.0577276 0.0319660 255 255 0
0.0173589 0.0577277 0.0319657 255 255 0
0.0194383 0.0577278 0.0319653 255 255 0
0.0215176 0.0577277 0.0319648 255 255 0
0.0235969 0.0577272 0.0319630 255 255 0
0.0256660 0.0577269 0.0319613 255 255 0
0.0277449 0.0577245 0.0319516 255 255 0
0.0298138 0.0577234 0.0319478 255 255 0
0.0318718 0.0577206 0.0319287 255 255 0
-0.0200333 0.0598427 0.0320506 255 255 0
-0.0179581 0.0598317 0.0320120 255 255 0
-0.0158897 0.0598201 0.0319914 255 255 0
-0.0138188 0.0598141 0.0319737 255 255 0
-0.0117453 0.0598124 0.0319695 255 255 0
-0.0096700 0.0598114 0.0319666 255 255 0
-0.0075925 0.0598108 0.0319652 255 255 0
-0.0055145 0.0598104 0.0319641 255 255 0
-0.0034351 0.0598103 0.0319636 255 255 0
-0.0013558 0.0598102 0.0319634 255 255 0
0.0007236 0.0598101 0.0319633 255 255 0
0.0028030 0.0598101 0.0319632 255 255 0
0.0048824 0.0598101 0.0319633 255 255 0
0.0069618 0.0598102 0.0319632 255 255 0
0.0090413 0.0598102 0.0319632 255 255 0
0.0111207 0.0598103 0.0319632 255 255 0
0.0132001 0.0598104 0.0319632 255 255 0
0.0152795 0.0598104 0.0319630 255 255 0
0.0173589 0.0598106 0.0319629 255 255 0
0.0194384 0.0598106 0.0319623 255 255 0
0.0215177 0.0598106 0.0319618 255 255 0
0.0235970 0.0598102 0.0319600 255 255 0
0.0256660 0.0598099 0.0319585 255 255 0
0.0277450 0.0598075 0.0319488 255 255 0
0.0298139 0.0598062 0.0319439 255 255 0
0.0318815 0.0598035 0.0319275 255 255 0
-0.0200327 0.0619191 0.0320500 255 255 0
-0.0179579 0.0619113 0.0320103 255 255 0
-0.0158895 0.0619031 0.0319881 255 255 0
-0.0138188 0.0618978 0.0319691 255 255 0
-0.0117455 0.0618962 0.0319651 255 255 0
-0.0096696 0.0618953 0.0319623 255 255 0
-0.0075920 0.0618946 0.0319609 255 255 0
-0.0055145 0.0618941 0.0319599 255 255 0
-0.0034351 0.0618940 0.0319596 255 255 0
-0.0013557 0.0618939 0.0319593 255 255 0
0.0007237 0.0618939 0.0319592 255 255 0
0.0028031 0.0618939 0.0319590 255 255 0
0.0048825 0.0618940 0.0319589 255 255 0
0.0069619 0.0618940 0.0319589 255 255 0
0.0090413 0.0618942 0.0319589 255 255 0
0.0111207 0.0618942 0.0319588 255 255 0
0.0132001 0.0618943 0.0319587 255 255 0
0.0152795 0.0618945 0.0319587 255 255 0
0.0173590 0.0618946 0.0319586 255 255 0
0.0194384 0.0618947 0.0319582 255 255 0
0.0215177 0.0618948 0.0319577 255 255 0
0.0235970 0.0618944 0.0319558 255 255 0
0.0256660 0.0618939 0.0319542 255 255 0
0.0277449 0.0618922 0.0319449 255 255 0
0.0298138 0.0618907 0.0319389 255 255 0
0.0318821 0.0618885 0.0319248 255 255 0
-0.0200347 0.0640576 0.0320535 255 255 0
-0.0179576 0.0640528 0.0320109 255 255 0
-0.0158893 0.0640441 0.0319857 255 255 0
-0.0138184 0.0640395 0.0319642 255 255 0
-0.0117448 0.0640386 0.0319602 255 255 0
-0.0096679 0.0640374 0.0319570 255 255 0
-0.0075911 0.0640367 0.0319552 255 255 0
-0.0055142 0.0640364 0.0319538 255 255 0
-0.0034349 0.0640362 0.0319535 255 255 0
-0.0013557 0.0640362 0.0319532 255 255 0
0.0007237 0.0640362 0.0319531 255 255 0
0.0028031 0.0640362 0.0319530 255 255 0
0.0048826 0.0640362 0.0319530 255 255 0
0.0069620 0.0640364 0.0319530 255 255 0
0.0090414 0.0640365 0.0319530 255 255 0
0.0111208 0.0640367 0.0319529 255 255 0
0.0132002 0.0640368 0.0319529 255 255 0
0.0152796 0.0640370 0.0319527 255 255 0
0.0173591 0.0640373 0.0319526 255 255 0
0.0194385 0.0640374 0.0319518 255 255 0
0.0215178 0.0640375 0.0319514 255 255 0
0.0235971 0.0640372 0.0319490 255 255 0
0.0256661 0.0640366 0.0319468 255 255 0
0.0277451 0.0640348 0.0319384 255 255 0
0.0298138 0.0640329 0.0319308 255 255 0
0.0318812 0.0640309 0.0319206 255 255 0
0.0339301 0.0640206 0.0318725 255 255 0
-0.0200355 0.0661252 0.0320565 255 255 0
-0.0179566 0.0661342 0.0320173 255 255 0
-0.0158888 0.0661294 0.0319837 255 255 0
-0.0138175 0.0661248 0.0319589 255 255 0
-0.0117437 0.0661233 0.0319538 255 255 0
-0.0096677 0.0661225 0.0319503 255 255 0
-0.0075910 0.0661217 0.0319478 255 255 0
-0.0055138 0.0661215 0.0319462 255 255 0
-0.0034346 0.0661214 0.0319457 255 255 0
-0.0013556 0.0661213 0.0319453 255 255 0
0.0007238 0.0661213 0.0319452 255 255 0
0.0028032 0.0661213 0.0319451 255 255 0
0.0048826 0.0661215 0.0319451 255 255 0
0.0069621 0.0661215 0.0319450 255 255 0
0.0090415 0.0661216 0.0319449 255 255 0
0.0111209 0.0661217 0.0319447 255 255 0
0.0132003 0.0661218 0.0319446 255 255 0
0.0152797 0.0661220 0.0319444 255 255 0
0.0173592 0.0661223 0.0319441 255 255 0
0.0194385 0.0661224 0.0319433 255 255 0
0.0215179 0.0661224 0.0319428 255 255 0
0.0235971 0.0661220 0.0319406 255 255 0
0.0256661 0.0661217 0.0319389 255 255 0
0.0277441 0.0661196 0.0319318 255 255 0
0.0298137 0.0661172 0.0319241 255 255 0
0.0318760 0.0661161 0.0319147 255 255 0
0.0339276 0.0660865 0.0318728 255 255 0
-0.0179539 0.0682128 0.0320268 255 255 0
-0.0158866 0.0682141 0.0319825 255 255 0
-0.0138159 0.0682090 0.0319540 255 255 0
-0.0117424 0.0682078 0.0319486 255 255 0
-0.0096675 0.0682067 0.0319439 255 255 0
-0.0075909 0.0682062 0.0319414 255 255 0
-0.0055129 0.0682058 0.0319397 255 255 0
-0.0034341 0.0682057 0.0319390 255 255 0
-0.0013554 0.0682057 0.0319385 255 255 0
0.0007239 0.0682058 0.0319384 255 255 0
0.0028033 0.0682056 0.0319383 255 255 0
0.0048827 0.0682056 0.0319382 255 255 0
0.0069622 0.0682058 0.0319382 255 255 0
0.0090416 0.0682057 0.0319381 255 255 0
0.0111210 0.0682060 0.0319380 255 255 0
0.0132004 0.0682062 0.0319380 255 255 0
0.0152798 0.0682064 0.0319379 255 255 0
0.0173592 0.0682066 0.0319377 255 255 0
0.0194386 0.0682069 0.0319372 255 255 0
0.0215180 0.0682071 0.0319367 255 255 0
0.0235909 0.0682065 0.0319347 255 255 0
0.0256661 0.0682060 0.0319324 255 255 0
0.0277397 0.0682043 0.0319248 255 255 0
0.0298115 0.0682013 0.0319172 255 255 0
0.0318714 0.0681970 0.0319044 255 255 0
-0.0179517 0.0702991 0.0320262 255 255 0
-0.0158844 0.0702974 0.0319819 255 255 0
-0.0138145 0.0702945 0.0319508 255 255 0
-0.0117415 0.0702925 0.0319446 255 255 0
-0.0096674 0.0702916 0.0319401 255 255 0
-0.0075904 0.0702904 0.0319373 255 255 0
-0.0055119 0.0702900 0.0319352 255 255 0
-0.0034335 0.0702899 0.0319346 255 255 0
-0.0013550 0.0702898 0.0319341 255 255 0
0.0007241 0.0702899 0.0319341 255 255 0
0.0028034 0.0702899 0.0319339 255 255 0
0.0048828 0.0702900 0.0319337 255 255 0
0.0069622 0.0702900 0.0319336 255 255 0
0.0090416 0.0702902 0.0319335 255 255 0
0.0111210 0.0702901 0.0319335 255 255 0
0.0132005 0.0702904 0.0319335 255 255 0
0.0152799 0.0702904 0.0319334 255 255 0
0.0173593 0.0702906 0.0319333 255 255 0
0.0194386 0.0702906 0.0319326 255 255 0
0.0215179 0.0702907 0.0319318 255 255 0
0.0235868 0.0702900 0.0319291 255 255 0
0.0256660 0.0702892 0.0319271 255 255 0
0.0277354 0.0702868 0.0319196 255 255 0
0.0298052 0.0702837 0.0319058 255 255 0
0.0318682 0.0702466 0.0318925 255 255 0
-0.0179500 0.0723816 0.0320241 255 255 0
-0.0158829 0.0723806 0.0319797 255 255 0
-0.0138131 0.0723765 0.0319482 255 255 0
-0.0117406 0.0723745 0.0319423 255 255 0
-0.0096668 0.0723735 0.0319378 255 255 0
-0.0075895 0.0723724 0.0319345 255 255 0
-0.0055115 0.0723719 0.0319320 255 255 0
-0.0034335 0.0723718 0.0319313 255 255 0
-0.0013548 0.0723719 0.0319308 255 255 0
0.0007243 0.0723721 0.0319306 255 255 0
0.0028034 0.0723722 0.0319304 255 255 0
0.0048828 0.0723722 0.0319304 255 255 0
0.0069623 0.0723724 0.0319303 255 255 0
0.0090417 0.0723724 0.0319303 255 255 0
0.0111211 0.0723727 0.0319303 255 255 0
0.0132005 0.0723729 0.0319304 255 255 0
0.0152799 0.0723729 0.0319301 255 255 0
0.0173594 0.0723731 0.0319299 255 255 0
0.0194387 0.0723731 0.0319292 255 255 0
0.0215180 0.0723731 0.0319285 255 255 0
0.0235868 0.0723724 0.0319252 255 255 0
0.0256659 0.0723718 0.0319216 255 255 0
0.0277342 0.0723700 0.0319142 255 255 0
0.0297989 0.0723514 0.0318959 255 255 0
-0.0179503 0.0744558 0.0320278 255 255 0
-0.0158820 0.0744621 0.0319812 255 255 0
-0.0138122 0.0744587 0.0319484 255 255 0
-0.0117395 0.0744572 0.0319418 255 255 0
-0.0096650 0.0744560 0.0319366 255 255 0
-0.0075885 0.0744553 0.0319328 255 255 0
-0.0055114 0.0744545 0.0319304 255 255 0
-0.0034334 0.0744544 0.0319294 255 255 0
-0.0013547 0.0744543 0.0319289 255 255 0
0.0007244 0.0744543 0.0319286 255 255 0
0.0028035 0.0744543 0.0319285 255 255 0
0.0048829 0.0744543 0.0319284 255 255 0
0.0069623 0.0744543 0.0319283 255 255 0
0.0090417 0.0744543 0.0319283 255 255 0
0.0111211 0.0744544 0.0319283 255 255 0
0.0132005 0.0744545 0.0319283 255 255 0
0.0152799 0.0744547 0.0319280 255 255 0
0.0173593 0.0744548 0.0319278 255 255 0
0.0194386 0.0744550 0.0319267 255 255 0
0.0215178 0.0744549 0.0319255 255 255 0
0.0235866 0.0744537 0.0319193 255 255 0
0.0256657 0.0744529 0.0319154 255 255 0
0.0277313 0.0744518 0.0319091 255 255 0
0.0297910 0.0744241 0.0318842 255 255 0
-0.0179515 0.0765219 0.0320354 255 255 0
-0.0158816 0.0765404 0.0319866 255 255 0
-0.0138110 0.0765400 0.0319511 255 255 0
-0.0117377 0.0765378 0.0319428 255 255 0
-0.0096630 0.0765363 0.0319372 255 255 0
-0.0075879 0.0765356 0.0319331 255 255 0
-0.0055113 0.0765344 0.0319300 255 255 0
-0.0034326 0.0765342 0.0319291 255 255 0
-0.0013540 0.0765346 0.0319283 255 255 0
0.0007247 0.0765345 0.0319279 255 255 0
0.0028035 0.0765344 0.0319276 255 255 0
0.0048829 0.0765341 0.0319275 255 255 0
0.0069623 0.0765342 0.0319272 255 255 0
0.0090417 0.0765341 0.0319271 255 255 0
0.0111211 0.0765342 0.0319269 255 255 0
0.0132005 0.0765346 0.0319269 255 255 0
0.0152799 0.0765348 0.0319267 255 255 0
0.0173593 0.0765352 0.0319265 255 255 0
0.0194386 0.0765351 0.0319243 255 255 0
0.0215101 0.0765353 0.0319228 255 255 0
0.0235865 0.0765346 0.0319166 255 255 0
0.0256590 0.0765332 0.0319109 255 255 0
0.0277259 0.0765319 0.0319031 255 255 0
0.0297808 0.0765022 0.0318712 255 255 0
-0.0179520 0.0785951 0.0320410 255 255 0
-0.0158809 0.0785978 0.0319929 255 255 0
-0.0138095 0.0786071 0.0319576 255 255 0
-0.0117363 0.0786174 0.0319465 255 255 0
-0.0096616 0.0786166 0.0319390 255 255 0
-0.0075860 0.0786160 0.0319342 255 255 0
-0.0055093 0.0786151 0.0319305 255 255 0
-0.0034319 0.0786150 0.0319294 255 255 0
-0.0013533 0.0786143 0.0319284 255 255 0
0.0007254 0.0786145 0.0319278 255 255 0
0.0028047 0.0786144 0.0319274 255 255 0
0.0048830 0.0786143 0.0319270 255 255 0
0.0069624 0.0786143 0.0319268 255 255 0
0.0090417 0.0786143 0.0319267 255 255 0
0.0111211 0.0786144 0.0319266 255 255 0
0.0132005 0.0786145 0.0319266 255 255 0
0.0152799 0.0786147 0.0319263 255 255 0
0.0173592 0.0786149 0.0319260 255 255 0
0.0194384 0.0786145 0.0319241 255 255 0
0.0215074 0.0786149 0.0319221 255 255 0
0.0235862 0.0786138 0.0319151 255 255 0
0.0256546 0.0786129 0.0319066 255 255 0
0.0277208 0.0786115 0.0318970 255 255 0
-0.0158799 0.0806692 0.0320016 255 255 0
-0.0138074 0.0806644 0.0319705 255 255 0
-0.0117338 0.0806670 0.0319541 255 255 0
-0.0096596 0.0806839 0.0319429 255 255 0
-0.0075839 0.0806953 0.0319367 255 255 0
-0.0055080 0.0806943 0.0319321 255 255 0
-0.0034302 0.0806938 0.0319308 255 255 0
-0.0013523 0.0806937 0.0319296 255 255 0
0.0007262 0.0806937 0.0319286 255 255 0
0.0028049 0.0806938 0.0319278 255 255 0
0.0048830 0.0806938 0.0319270 255 255 0
0.0069624 0.0806940 0.0319266 255 255 0
0.0090417 0.0806941 0.0319265 255 255 0
0.0111211 0.0806941 0.0319264 255 255 0
0.0132005 0.0806942 0.0319263 255 255 0
0.0152798 0.0806944 0.0319258 255 255 0
0.0173592 0.0806939 0.0319255 255 255 0
0.0194291 0.0806938 0.0319236 255 255 0
0.0215073 0.0806937 0.0319229 255 255 0
0.0235813 0.0806929 0.0319153 255 255 0
0.0256523 0.0806920 0.0319028 255 255 0
0.0277148 0.0806787 0.0318915 255 255 0
-0.0158790 0.0827480 0.0320122 255 255 0
-0.0138048 0.0827425 0.0319815 255 255 0
-0.0117315 0.0827412 0.0319666 255 255 0
-0.0096569 0.0827399 0.0319514 255 255 0
-0.0075808 0.0827402 0.0319408 255 255 0
-0.0055043 0.0827588 0.0319349 255 255 0
-0.0034275 0.0827690 0.0319337 255 255 0
-0.0013503 0.0827727 0.0319324 255 255 0
0.0007276 0.0827725 0.0319305 255 255 0
0.0028060 0.0827726 0.0319287 255 255 0
0.0048851 0.0827725 0.0319274 255 255 0
0.0069624 0.0827722 0.0319264 255 255 0
0.0090418 0.0827723 0.0319265 255 255 0
0.0111211 0.0827726 0.0319263 255 255 0
0.0132004 0.0827729 0.0319255 255 255 0
0.0152746 0.0827727 0.0319248 255 255 0
0.0173590 0.0827726 0.0319244 255 255 0
0.0194277 0.0827719 0.0319223 255 255 0
0.0215070 0.0827699 0.0319226 255 255 0
0.0235771 0.0827569 0.0319165 255 255 0
0.0256463 0.0827417 0.0318986 255 255 0
0.0277082 0.0827345 0.0318834 255 255 0
-0.0117291 0.0848185 0.0319760 255 255 0
-0.0096543 0.0848170 0.0319623 255 255 0
-0.0075768 0.0848153 0.0319468 255 255 0
-0.0054998 0.0848154 0.0319387 255 255 0
-0.0034239 0.0848166 0.0319380 255 255 0
-0.0013475 0.0848214 0.0319366 255 255 0
0.0007296 0.0848375 0.0319333 255 255 0
0.0028072 0.0848466 0.0319304 255 255 0
0.0048858 0.0848500 0.0319278 255 255 0
0.0069638 0.0848506 0.0319258 255 255 0
0.0090418 0.0848507 0.0319270 255 255 0
0.0111211 0.0848499 0.0319270 255 255 0
0.0132003 0.0848477 0.0319248 255 255 0
0.0152744 0.0848389 0.0319238 255 255 0
0.0173484 0.0848247 0.0319226 255 255 0
0.0194274 0.0848152 0.0319200 255 255 0
0.0215067 0.0848145 0.0319225 255 255 0
0.0235750 0.0848128 0.0319196 255 255 0
0.0256423 0.0848107 0.0318955 255 255 0
-0.0054958 0.0868910 0.0319422 255 255 0
-0.0034201 0.0868923 0.0319446 255 255 0
-0.0013440 0.0868935 0.0319440 255 255 0
0.0007320 0.0868936 0.0319384 255 255 0
0.0028087 0.0868936 0.0319331 255 255 0
0.0048865 0.0868928 0.0319259 255 255 0
0.0069651 0.0868919 0.0319209 255 255 0
0.0090418 0.0868932 0.0319263 255 255 0
0.0111210 0.0868937 0.0319277 255 255 0
0.0131951 0.0868935 0.0319246 255 255 0
0.0152743 0.0868926 0.0319218 255 255 0
0.0173481 0.0868910 0.0319162 255 255 0
0.0194241 0.0868895 0.0319113 255 255 0
0.0215030 0.0868897 0.0319212 255 255 0
0.0235734 0.0868895 0.0319232 255 255 0
0.0256384 0.0868875 0.0318984 255 255 0
0.0007346 0.0889687 0.0319436 255 255 0
0.0028101 0.0889674 0.0319354 255 255 0
0.0048886 0.0889647 0.0319165 255 255 0
0.0069658 0.0889639 0.0319075 255 255 0
0.0090418 0.0889664 0.0319227 255 255 0
0.0111195 0.0889673 0.0319280 255 255 0
0.0131949 0.0889671 0.0319220 255 255 0
0.0152732 0.0889662 0.0319176 255 255 0
0.0028072 0.0349047 0.0341585 255 255 0
0.0048866 0.0349013 0.0341443 255 255 0
0.0069648 0.0348977 0.0341299 255 255 0
0.0090416 0.0348945 0.0341207 255 255 0
0.0111157 0.0348912 0.0341118 255 255 0
-0.0096613 0.0369886 0.0341673 255 255 0
-0.0075840 0.0369839 0.0341492 255 255 0
-0.0055071 0.0369808 0.0341432 255 255 0
-0.0034300 0.0369794 0.0341407 255 255 0
-0.0013523 0.0369788 0.0341371 255 255 0
0.0007269 0.0369803 0.0341439 255 255 0
0.0028062 0.0369808 0.0341450 255 255 0
0.0048855 0.0369789 0.0341417 255 255 0
0.0069648 0.0369769 0.0341327 255 255 0
0.0090416 0.0369746 0.0341259 255 255 0
0.0111184 0.0369731 0.0341203 255 255 0
0.0131952 0.0369721 0.0341171 255 255 0
0.0152726 0.0369707 0.0341128 255 255 0
-0.0138102 0.0390734 0.0341889 255 255 0
-0.0117362 0.0390684 0.0341672 255 255 0
-0.0096621 0.0390641 0.0341523 255 255 0
-0.0075847 0.0390607 0.0341468 255 255 0
-0.0055080 0.0390582 0.0341427 255 255 0
-0.0034312 0.0390503 0.0341406 255 255 0
-0.0013530 0.0390467 0.0341396 255 255 0
0.0007258 0.0390418 0.0341413 255 255 0
0.0028048 0.0390401 0.0341417 255 255 0
0.0048844 0.0390390 0.0341399 255 255 0
0.0069623 0.0390379 0.0341353 255 255 0
0.0090417 0.0390369 0.0341298 255 255 0
0.0111210 0.0390360 0.0341266 255 255 0
0.0131962 0.0390358 0.0341245 255 255 0
0.0152746 0.0390426 0.0341213 255 255 0
0.0173490 0.0390520 0.0341188 255 255 0
0.0194283 0.0390512 0.0341155 255 255 0
0.0215074 0.0390486 0.0341073 255 255 0
-0.0138103 0.0411499 0.0341859 255 255 0
-0.0117363 0.0411355 0.0341564 255 255 0
-0.0096622 0.0411240 0.0341483 255 255 0
-0.0075863 0.0411213 0.0341447 255 255 0
-0.0055092 0.0411197 0.0341421 255 255 0
-0.0034317 0.0411187 0.0341405 255 255 0
-0.0013536 0.0411181 0.0341396 255 255 0
0.0007252 0.0411180 0.0341399 255 255 0
0.0028042 0.0411179 0.0341398 255 255 0
0.0048829 0.0411175 0.0341390 255 255 0
0.0069623 0.0411171 0.0341379 255 255 0
0.0090417 0.0411165 0.0341338 255 255 0
0.0111210 0.0411160 0.0341309 255 255 0
0.0132004 0.0411157 0.0341289 255 255 0
0.0152781 0.0411152 0.0341268 255 255 0
0.0173591 0.0411149 0.0341252 255 255 0
0.0194333 0.0411147 0.0341225 255 255 0
0.0215076 0.0411197 0.0341165 255 255 0
0.0235867 0.0411229 0.0341061 255 255 0
0.0256659 0.0411286 0.0341083 255 255 0
0.0277351 0.0411271 0.0340996 255 255 0
-0.0158894 0.0432247 0.0341963 255 255 0
-0.0138118 0.0432117 0.0341799 255 255 0
-0.0117379 0.0432054 0.0341536 255 255 0
-0.0096622 0.0432013 0.0341460 255 255 0
-0.0075869 0.0431997 0.0341431 255 255 0
-0.0055102 0.0431986 0.0341410 255 255 0
-0.0034325 0.0431979 0.0341397 255 255 0
-0.0013542 0.0431974 0.0341388 255 255 0
0.0007247 0.0431972 0.0341388 255 255 0
0.0028035 0.0431970 0.0341386 255 255 0
0.0048829 0.0431969 0.0341383 255 255 0
