ply
format ascii 1.0
element vertex 1144
property float x
property float y
property float z
property uchar red
property uchar green
property uchar blue
end_header
-0.0642164 0.0442377 -0.0139018 255 140 0
-0.0619448 0.0442374 -0.0139026 255 140 0
-0.0596731 0.0442371 -0.0139030 255 140 0
-0.0574015 0.0442370 -0.0139033 255 140 0
-0.0551299 0.0442369 -0.0139036 255 140 0
-0.0528583 0.0442369 -0.0139040 255 140 0
-0.0505866 0.0442368 -0.0139043 255 140 0
-0.0483150 0.0442367 -0.0139045 255 140 0
-0.0460434 0.0442366 -0.0139048 255 140 0
-0.0437718 0.0442364 -0.0139050 255 140 0
-0.0415001 0.0442364 -0.0139053 255 140 0
-0.0392285 0.0442363 -0.0139055 255 140 0
-0.0369569 0.0442363 -0.0139056 255 140 0
-0.0346853 0.0442363 -0.0139057 255 140 0
-0.0324136 0.0442363 -0.0139057 255 140 0
-0.0301420 0.0442363 -0.0139057 255 140 0
-0.0278704 0.0442363 -0.0139057 255 140 0
-0.0255987 0.0442363 -0.0139057 255 140 0
-0.0233271 0.0442363 -0.0139056 255 140 0
-0.0210555 0.0442363 -0.0139056 255 140 0
-0.0187839 0.0442363 -0.0139055 255 140 0
-0.0165123 0.0442364 -0.0139053 255 140 0
-0.0142406 0.0442365 -0.0139050 255 140 0
-0.0119690 0.0442367 -0.0139047 255 140 0
-0.0096974 0.0442369 -0.0139044 255 140 0
-0.0074258 0.0442370 -0.0139042 255 140 0
-0.0051541 0.0442370 -0.0139038 255 140 0
-0.0028826 0.0442370 -0.0139035 255 140 0
-0.0006111 0.0442371 -0.0139032 255 140 0
0.0016606 0.0442371 -0.0139030 255 140 0
0.0039324 0.0442372 -0.0139029 255 140 0
-0.0687596 0.0465093 -0.0139018 255 140 0
-0.0664880 0.0465092 -0.0139021 255 140 0
-0.0642164 0.0465090 -0.0139024 255 140 0
-0.0619448 0.0465088 -0.0139029 255 140 0
-0.0596731 0.0465087 -0.0139033 255 140 0
-0.0574015 0.0465087 -0.0139036 255 140 0
-0.0551299 0.0465087 -0.0139038 255 140 0
-0.0528583 0.0465086 -0.0139041 255 140 0
-0.0505866 0.0465086 -0.0139043 255 140 0
-0.0483150 0.0465085 -0.0139046 255 140 0
-0.0460434 0.0465083 -0.0139047 255 140 0
-0.0437718 0.0465082 -0.0139050 255 140 0
-0.0415001 0.0465082 -0.0139052 255 140 0
-0.0392285 0.0465081 -0.0139053 255 140 0
-0.0369569 0.0465080 -0.0139055 255 140 0
-0.0346853 0.0465079 -0.0139056 255 140 0
-0.0324136 0.0465079 -0.0139056 255 140 0
-0.0301420 0.0465079 -0.0139056 255 140 0
-0.0278704 0.0465079 -0.0139056 255 140 0
-0.0255987 0.0465080 -0.0139055 255 140 0
-0.0233271 0.0465080 -0.0139055 255 140 0
-0.0210555 0.0465081 -0.0139054 255 140 0
-0.0187839 0.0465081 -0.0139053 255 140 0
-0.0165123 0.0465082 -0.0139052 255 140 0
-0.0142406 0.0465083 -0.0139049 255 140 0
-0.0119690 0.0465085 -0.0139046 255 140 0
-0.0096974 0.0465086 -0.0139044 255 140 0
-0.0074258 0.0465087 -0.0139043 255 140 0
-0.0051541 0.0465087 -0.0139041 255 140 0
-0.0028826 0.0465087 -0.0139038 255 140 0
-0.0006111 0.0465088 -0.0139036 255 140 0
0.0016606 0.0465089 -0.0139034 255 140 0
0.0039324 0.0465090 -0.0139032 255 140 0
0.0062040 0.0465091 -0.0139030 255 140 0
-0.0710313 0.0487809 -0.0139022 255 140 0
-0.0687596 0.0487808 -0.0139025 255 140 0
-0.0664880 0.0487808 -0.0139026 255 140 0
-0.0642164 0.0487807 -0.0139028 255 140 0
-0.0619448 0.0487807 -0.0139034 255 140 0
-0.0596731 0.0487806 -0.0139038 255 140 0
-0.0574015 0.0487805 -0.0139040 255 140 0
-0.0551299 0.0487805 -0.0139041 255 140 0
-0.0528583 0.0487805 -0.0139044 255 140 0
-0.0505866 0.0487804 -0.0139046 255 140 0
-0.0483150 0.0487803 -0.0139048 255 140 0
-0.0460434 0.0487803 -0.0139050 255 140 0
-0.0437718 0.0487800 -0.0139051 255 140 0
-0.0415001 0.0487799 -0.0139053 255 140 0
-0.0392285 0.0487798 -0.0139054 255 140 0
-0.0369569 0.0487798 -0.0139056 255 140 0
-0.0346853 0.0487798 -0.0139057 255 140 0
-0.0324136 0.0487798 -0.0139057 255 140 0
-0.0301420 0.0487798 -0.0139057 255 140 0
-0.0278704 0.0487798 -0.0139057 255 140 0
-0.0255987 0.0487798 -0.0139056 255 140 0
-0.0233271 0.0487798 -0.0139056 255 140 0
-0.0210555 0.0487798 -0.0139055 255 140 0
-0.0187839 0.0487799 -0.0139054 255 140 0
-0.0165123 0.0487800 -0.0139053 255 140 0
-0.0142406 0.0487802 -0.0139052 255 140 0
-0.0119690 0.0487804 -0.0139049 255 140 0
-0.0096974 0.0487805 -0.0139047 255 140 0
-0.0074258 0.0487805 -0.0139045 255 140 0
-0.0051541 0.0487806 -0.0139044 255 140 0
-0.0028826 0.0487806 -0.0139042 255 140 0
-0.0006111 0.0487807 -0.0139040 255 140 0
0.0016606 0.0487808 -0.0139038 255 140 0
0.0039324 0.0487807 -0.0139036 255 140 0
0.0062040 0.0487808 -0.0139033 255 140 0
0.0084756 0.0487810 -0.0139029 255 140 0
0.0107472 0.0487808 -0.0139032 255 140 0
-0.0733029 0.0510528 -0.0139023 255 140 0
-0.0710313 0.0510527 -0.0139025 255 140 0
-0.0687596 0.0510526 -0.0139027 255 140 0
-0.0664880 0.0510525 -0.0139030 255 140 0
-0.0642164 0.0510524 -0.0139033 255 140 0
-0.0619448 0.0510522 -0.0139038 255 140 0
-0.0596731 0.0510521 -0.0139043 255 140 0
-0.0574015 0.0510520 -0.0139044 255 140 0
-0.0551299 0.0510520 -0.0139047 255 140 0
-0.0528583 0.0510519 -0.0139049 255 140 0
-0.0505866 0.0510518 -0.0139051 255 140 0
-0.0483150 0.0510518 -0.0139053 255 140 0
-0.0460434 0.0510517 -0.0139055 255 140 0
-0.0437718 0.0510516 -0.0139056 255 140 0
-0.0415001 0.0510515 -0.0139057 255 140 0
-0.0392285 0.0510514 -0.0139058 255 140 0
-0.0369569 0.0510514 -0.0139058 255 140 0
-0.0346853 0.0510513 -0.0139060 255 140 0
-0.0324136 0.0510513 -0.0139060 255 140 0
-0.0301420 0.0510513 -0.0139060 255 140 0
-0.0278704 0.0510514 -0.0139060 255 140 0
-0.0255987 0.0510514 -0.0139059 255 140 0
-0.0233271 0.0510514 -0.0139059 255 140 0
-0.0210555 0.0510514 -0.0139058 255 140 0
-0.0187839 0.0510515 -0.0139058 255 140 0
-0.0165123 0.0510516 -0.0139058 255 140 0
-0.0142406 0.0510517 -0.0139057 255 140 0
-0.0119690 0.0510518 -0.0139054 255 140 0
-0.0096974 0.0510519 -0.0139052 255 140 0
-0.0074258 0.0510520 -0.0139051 255 140 0
-0.0051541 0.0510520 -0.0139049 255 140 0
-0.0028826 0.0510521 -0.0139047 255 140 0
-0.0006110 0.0510521 -0.0139045 255 140 0
0.0016606 0.0510522 -0.0139042 255 140 0
0.0039324 0.0510523 -0.0139040 255 140 0
0.0062040 0.0510524 -0.0139037 255 140 0
0.0084756 0.0510525 -0.0139034 255 140 0
0.0107472 0.0510526 -0.0139033 255 140 0
0.0130189 0.0510539 -0.0139006 255 140 0
-0.0755745 0.0533245 -0.0139024 255 140 0
-0.0733029 0.0533245 -0.0139027 255 140 0
-0.0710313 0.0533244 -0.0139028 255 140 0
-0.0687596 0.0533243 -0.0139030 255 140 0
-0.0664880 0.0533242 -0.0139034 255 140 0
-0.0642164 0.0533241 -0.0139037 255 140 0
-0.0619448 0.0533239 -0.0139043 255 140 0
-0.0596731 0.0533238 -0.0139048 255 140 0
-0.0574015 0.0533238 -0.0139049 255 140 0
-0.0551299 0.0533237 -0.0139051 255 140 0
-0.0528583 0.0533236 -0.0139053 255 140 0
-0.0505866 0.0533235 -0.0139055 255 140 0
-0.0483150 0.0533234 -0.0139057 255 140 0
-0.0460434 0.0533234 -0.0139058 255 140 0
-0.0437718 0.0533233 -0.0139058 255 140 0
-0.0415001 0.0533233 -0.0139059 255 140 0
-0.0392285 0.0533233 -0.0139060 255 140 0
-0.0369569 0.0533233 -0.0139060 255 140 0
-0.0346853 0.0533232 -0.0139060 255 140 0
-0.0324136 0.0533232 -0.0139060 255 140 0
-0.0301420 0.0533232 -0.0139061 255 140 0
-0.0278704 0.0533232 -0.0139061 255 140 0
-0.0255987 0.0533233 -0.0139061 255 140 0
-0.0233271 0.0533233 -0.0139060 255 140 0
-0.0210555 0.0533233 -0.0139060 255 140 0
-0.0187839 0.0533233 -0.0139060 255 140 0
-0.0165123 0.0533233 -0.0139059 255 140 0
-0.0142406 0.0533233 -0.0139059 255 140 0
-0.0119690 0.0533234 -0.0139058 255 140 0
-0.0096974 0.0533235 -0.0139056 255 140 0
-0.0074258 0.0533235 -0.0139055 255 140 0
-0.0051541 0.0533237 -0.0139053 255 140 0
-0.0028826 0.0533238 -0.0139051 255 140 0
-0.0006110 0.0533239 -0.0139049 255 140 0
0.0016606 0.0533240 -0.0139047 255 140 0
0.0039324 0.0533240 -0.0139044 255 140 0
0.0062040 0.0533241 -0.0139041 255 140 0
0.0084756 0.0533242 -0.0139037 255 140 0
0.0107472 0.0533243 -0.0139034 255 140 0
0.0130189 0.0533249 -0.0139019 255 140 0
0.0152905 0.0533257 -0.0139009 255 140 0
-0.0778461 0.0555964 -0.0139020 255 140 0
-0.0755745 0.0555961 -0.0139025 255 140 0
-0.0733029 0.0555959 -0.0139029 255 140 0
-0.0710313 0.0555959 -0.0139032 255 140 0
-0.0687596 0.0555958 -0.0139035 255 140 0
-0.0664880 0.0555958 -0.0139039 255 140 0
-0.0642164 0.0555957 -0.0139043 255 140 0
-0.0619448 0.0555955 -0.0139048 255 140 0
-0.0596731 0.0555954 -0.0139052 255 140 0
-0.0574015 0.0555953 -0.0139053 255 140 0
-0.0551299 0.0555952 -0.0139055 255 140 0
-0.0528583 0.0555951 -0.0139057 255 140 0
-0.0505866 0.0555951 -0.0139059 255 140 0
-0.0483150 0.0555950 -0.0139059 255 140 0
-0.0460434 0.0555950 -0.0139060 255 140 0
-0.0437718 0.0555950 -0.0139060 255 140 0
-0.0415001 0.0555950 -0.0139061 255 140 0
-0.0392285 0.0555949 -0.0139061 255 140 0
-0.0369569 0.0555949 -0.0139061 255 140 0
-0.0346853 0.0555949 -0.0139062 255 140 0
-0.0324136 0.0555949 -0.0139062 255 140 0
-0.0301420 0.0555949 -0.0139062 255 140 0
-0.0278704 0.0555949 -0.0139062 255 140 0
-0.0255987 0.0555949 -0.0139062 255 140 0
-0.0233271 0.0555949 -0.0139062 255 140 0
-0.0210555 0.0555949 -0.0139062 255 140 0
-0.0187839 0.0555949 -0.0139061 255 140 0
-0.0165123 0.0555949 -0.0139061 255 140 0
-0.0142406 0.0555950 -0.0139061 255 140 0
-0.0119690 0.0555951 -0.0139060 255 140 0
-0.0096974 0.0555951 -0.0139060 255 140 0
-0.0074258 0.0555952 -0.0139058 255 140 0
-0.0051541 0.0555953 -0.0139057 255 140 0
-0.0028826 0.0555953 -0.0139055 255 140 0
-0.0006110 0.0555954 -0.0139053 255 140 0
0.0016606 0.0555955 -0.0139051 255 140 0
0.0039324 0.0555956 -0.0139048 255 140 0
0.0062040 0.0555957 -0.0139045 255 140 0
0.0084756 0.0555958 -0.0139041 255 140 0
0.0107472 0.0555959 -0.0139038 255 140 0
0.0130189 0.0555964 -0.0139025 255 140 0
0.0152905 0.0555970 -0.0139015 255 140 0
-0.0778461 0.0578679 -0.0139024 255 140 0
-0.0755745 0.0578678 -0.0139028 255 140 0
-0.0733029 0.0578678 -0.0139031 255 140 0
-0.0710313 0.0578677 -0.0139035 255 140 0
-0.0687596 0.0578676 -0.0139039 255 140 0
-0.0664880 0.0578675 -0.0139043 255 140 0
-0.0642164 0.0578674 -0.0139047 255 140 0
-0.0619448 0.0578672 -0.0139052 255 140 0
-0.0596731 0.0578670 -0.0139056 255 140 0
-0.0574015 0.0578670 -0.0139057 255 140 0
-0.0551299 0.0578669 -0.0139058 255 140 0
-0.0528583 0.0578669 -0.0139060 255 140 0
-0.0505866 0.0578669 -0.0139061 255 140 0
-0.0483150 0.0578668 -0.0139061 255 140 0
-0.0460434 0.0578668 -0.0139062 255 140 0
-0.0437718 0.0578668 -0.0139062 255 140 0
-0.0415001 0.0578668 -0.0139062 255 140 0
-0.0392285 0.0578668 -0.0139062 255 140 0
-0.0369569 0.0578667 -0.0139063 255 140 0
-0.0346853 0.0578667 -0.0139063 255 140 0
-0.0324136 0.0578667 -0.0139063 255 140 0
-0.0301420 0.0578667 -0.0139063 255 140 0
-0.0278704 0.0578667 -0.0139063 255 140 0
-0.0255987 0.0578667 -0.0139063 255 140 0
-0.0233271 0.0578667 -0.0139063 255 140 0
-0.0210555 0.0578667 -0.0139063 255 140 0
-0.0187839 0.0578668 -0.0139063 255 140 0
-0.0165123 0.0578668 -0.0139063 255 140 0
-0.0142406 0.0578668 -0.0139062 255 140 0
-0.0119690 0.0578669 -0.0139062 255 140 0
-0.0096974 0.0578669 -0.0139062 255 140 0
-0.0074258 0.0578669 -0.0139061 255 140 0
-0.0051541 0.0578669 -0.0139060 255 140 0
-0.0028826 0.0578670 -0.0139059 255 140 0
-0.0006110 0.0578671 -0.0139057 255 140 0
0.0016606 0.0578672 -0.0139055 255 140 0
0.0039324 0.0578673 -0.0139052 255 140 0
0.0062040 0.0578674 -0.0139049 255 140 0
0.0084756 0.0578675 -0.0139044 255 140 0
0.0107472 0.0578676 -0.0139040 255 140 0
0.0130189 0.0578679 -0.0139028 255 140 0
0.0152905 0.0578684 -0.0139018 255 140 0
0.0175621 0.0578683 -0.0139022 255 140 0
-0.0801177 0.0601398 -0.0139023 255 140 0
-0.0778461 0.0601397 -0.0139028 255 140 0
-0.0755745 0.0601396 -0.0139031 255 140 0
-0.0733029 0.0601395 -0.0139035 255 140 0
-0.0710313 0.0601394 -0.0139039 255 140 0
-0.0687596 0.0601394 -0.0139043 255 140 0
-0.0664880 0.0601393 -0.0139047 255 140 0
-0.0642164 0.0601392 -0.0139051 255 140 0
-0.0619448 0.0601390 -0.0139055 255 140 0
-0.0596731 0.0601387 -0.0139059 255 140 0
-0.0574015 0.0601387 -0.0139060 255 140 0
-0.0551299 0.0601387 -0.0139061 255 140 0
-0.0528583 0.0601386 -0.0139062 255 140 0
-0.0505866 0.0601386 -0.0139062 255 140 0
-0.0483150 0.0601386 -0.0139063 255 140 0
-0.0460434 0.0601386 -0.0139063 255 140 0
-0.0437718 0.0601386 -0.0139063 255 140 0
-0.0415001 0.0601386 -0.0139063 255 140 0
-0.0392285 0.0601386 -0.0139063 255 140 0
-0.0369569 0.0601386 -0.0139064 255 140 0
-0.0346853 0.0601386 -0.0139064 255 140 0
-0.0324136 0.0601386 -0.0139064 255 140 0
-0.0301420 0.0601386 -0.0139064 255 140 0
-0.0278704 0.0601386 -0.0139064 255 140 0
-0.0255987 0.0601386 -0.0139064 255 140 0
-0.0233271 0.0601386 -0.0139064 255 140 0
-0.0210555 0.0601386 -0.0139064 255 140 0
-0.0187839 0.0601386 -0.0139064 255 140 0
-0.0165123 0.0601386 -0.0139064 255 140 0
-0.0142406 0.0601386 -0.0139064 255 140 0
-0.0119690 0.0601386 -0.0139063 255 140 0
-0.0096974 0.0601386 -0.0139063 255 140 0
-0.0074258 0.0601387 -0.0139063 255 140 0
-0.0051541 0.0601387 -0.0139062 255 140 0
-0.0028826 0.0601388 -0.0139061 255 140 0
-0.0006110 0.0601389 -0.0139059 255 140 0
0.0016606 0.0601390 -0.0139058 255 140 0
0.0039324 0.0601391 -0.0139055 255 140 0
0.0062040 0.0601392 -0.0139052 255 140 0
0.0084756 0.0601393 -0.0139047 255 140 0
0.0107472 0.0601394 -0.0139043 255 140 0
0.0130189 0.0601397 -0.0139032 255 140 0
0.0152905 0.0601400 -0.0139023 255 140 0
0.0175621 0.0601400 -0.0139024 255 140 0
0.0198338 0.0601400 -0.0139022 255 140 0
-0.0823894 0.0624119 -0.0139021 255 140 0
-0.0801177 0.0624116 -0.0139028 255 140 0
-0.0778461 0.0624115 -0.0139032 255 140 0
-0.0755745 0.0624114 -0.0139035 255 140 0
-0.0733029 0.0624113 -0.0139039 255 140 0
-0.0710313 0.0624113 -0.0139043 255 140 0
-0.0687596 0.0624112 -0.0139047 255 140 0
-0.0664880 0.0624111 -0.0139052 255 140 0
-0.0642164 0.0624110 -0.0139055 255 140 0
-0.0619448 0.0624108 -0.0139059 255 140 0
-0.0596731 0.0624107 -0.0139061 255 140 0
-0.0574015 0.0624106 -0.0139062 255 140 0
-0.0551299 0.0624106 -0.0139063 255 140 0
-0.0528583 0.0624106 -0.0139064 255 140 0
-0.0505866 0.0624106 -0.0139064 255 140 0
-0.0483150 0.0624106 -0.0139064 255 140 0
-0.0460434 0.0624106 -0.0139065 255 140 0
-0.0437718 0.0624106 -0.0139065 255 140 0
-0.0415001 0.0624106 -0.0139065 255 140 0
-0.0392285 0.0624105 -0.0139065 255 140 0
-0.0369569 0.0624105 -0.0139065 255 140 0
-0.0346853 0.0624105 -0.0139065 255 140 0
-0.0324136 0.0624105 -0.0139065 255 140 0
-0.0301420 0.0624105 -0.0139065 255 140 0
-0.0278704 0.0624105 -0.0139065 255 140 0
-0.0255987 0.0624105 -0.0139065 255 140 0
-0.0233271 0.0624106 -0.0139065 255 140 0
-0.0210555 0.0624106 -0.0139065 255 140 0
-0.0187839 0.0624106 -0.0139065 255 140 0
-0.0165123 0.0624106 -0.0139065 255 140 0
-0.0142406 0.0624106 -0.0139065 255 140 0
-0.0119690 0.0624106 -0.0139065 255 140 0
-0.0096974 0.0624106 -0.0139065 255 140 0
-0.0074258 0.0624106 -0.0139064 255 140 0
-0.0051541 0.0624107 -0.0139064 255 140 0
-0.0028826 0.0624107 -0.0139063 255 140 0
-0.0006110 0.0624108 -0.0139062 255 140 0
0.0016606 0.0624108 -0.0139060 255 140 0
0.0039324 0.0624110 -0.0139058 255 140 0
0.0062040 0.0624111 -0.0139055 255 140 0
0.0084756 0.0624112 -0.0139050 255 140 0
0.0107472 0.0624113 -0.0139046 255 140 0
0.0130189 0.0624115 -0.0139035 255 140 0
0.0152905 0.0624118 -0.0139029 255 140 0
0.0175621 0.0624118 -0.0139028 255 140 0
0.0198338 0.0624119 -0.0139026 255 140 0
0.0221054 0.0624120 -0.0139020 255 140 0
-0.0823894 0.0647019 -0.0139021 255 140 0
-0.0801177 0.0647017 -0.0139027 255 140 0
-0.0778461 0.0647010 -0.0139032 255 140 0
-0.0755745 0.0647003 -0.0139037 255 140 0
-0.0733029 0.0646992 -0.0139041 255 140 0
-0.0710313 0.0646991 -0.0139047 255 140 0
-0.0687596 0.0646984 -0.0139051 255 140 0
-0.0664880 0.0646984 -0.0139055 255 140 0
-0.0642164 0.0646983 -0.0139058 255 140 0
-0.0619448 0.0646982 -0.0139061 255 140 0
-0.0596731 0.0646977 -0.0139063 255 140 0
-0.0574015 0.0646976 -0.0139064 255 140 0
-0.0551299 0.0646976 -0.0139064 255 140 0
-0.0528583 0.0646976 -0.0139065 255 140 0
-0.0505866 0.0646976 -0.0139065 255 140 0
-0.0483150 0.0646976 -0.0139065 255 140 0
-0.0460434 0.0646976 -0.0139065 255 140 0
-0.0437718 0.0646976 -0.0139066 255 140 0
-0.0415001 0.0646975 -0.0139066 255 140 0
-0.0392285 0.0646975 -0.0139066 255 140 0
-0.0369569 0.0646975 -0.0139066 255 140 0
-0.0346853 0.0646975 -0.0139066 255 140 0
-0.0324136 0.0646975 -0.0139066 255 140 0
-0.0301420 0.0646975 -0.0139066 255 140 0
-0.0278704 0.0646974 -0.0139066 255 140 0
-0.0255987 0.0646974 -0.0139066 255 140 0
-0.0233271 0.0646974 -0.0139066 255 140 0
-0.0210555 0.0646974 -0.0139066 255 140 0
-0.0187839 0.0646974 -0.0139066 255 140 0
-0.0165123 0.0646974 -0.0139066 255 140 0
-0.0142406 0.0646974 -0.0139066 255 140 0
-0.0119690 0.0646973 -0.0139066 255 140 0
-0.0096974 0.0646973 -0.0139066 255 140 0
-0.0074258 0.0646973 -0.0139065 255 140 0
-0.0051541 0.0646973 -0.0139065 255 140 0
-0.0028826 0.0646973 -0.0139064 255 140 0
-0.0006110 0.0646973 -0.0139063 255 140 0
0.0016607 0.0646973 -0.0139062 255 140 0
0.0039324 0.0646979 -0.0139060 255 140 0
0.0062040 0.0646979 -0.0139057 255 140 0
0.0084756 0.0646979 -0.0139053 255 140 0
0.0107472 0.0646985 -0.0139049 255 140 0
0.0130189 0.0646994 -0.0139037 255 140 0
0.0152905 0.0647011 -0.0139031 255 140 0
0.0175621 0.0647013 -0.0139028 255 140 0
0.0198338 0.0647018 -0.0139024 255 140 0
0.0221054 0.0647022 -0.0139020 255 140 0
-0.0846610 0.0669737 -0.0139025 255 140 0
-0.0823894 0.0669732 -0.0139030 255 140 0
-0.0801177 0.0669725 -0.0139036 255 140 0
-0.0778461 0.0669721 -0.0139041 255 140 0
-0.0755745 0.0669714 -0.0139047 255 140 0
-0.0733029 0.0669708 -0.0139052 255 140 0
-0.0710313 0.0669707 -0.0139057 255 140 0
-0.0687596 0.0669703 -0.0139061 255 140 0
-0.0664880 0.0669700 -0.0139064 255 140 0
-0.0642164 0.0669700 -0.0139066 255 140 0
-0.0619448 0.0669700 -0.0139068 255 140 0
-0.0596731 0.0669699 -0.0139070 255 140 0
-0.0574015 0.0669699 -0.0139070 255 140 0
-0.0551299 0.0669699 -0.0139070 255 140 0
-0.0528583 0.0669699 -0.0139070 255 140 0
-0.0505866 0.0669699 -0.0139070 255 140 0
-0.0483150 0.0669699 -0.0139071 255 140 0
-0.0460434 0.0669698 -0.0139071 255 140 0
-0.0437718 0.0669698 -0.0139071 255 140 0
-0.0415001 0.0669698 -0.0139071 255 140 0
-0.0392285 0.0669698 -0.0139071 255 140 0
-0.0369569 0.0669698 -0.0139071 255 140 0
-0.0346853 0.0669697 -0.0139071 255 140 0
-0.0324136 0.0669697 -0.0139071 255 140 0
-0.0301420 0.0669697 -0.0139071 255 140 0
-0.0278704 0.0669697 -0.0139071 255 140 0
-0.0255987 0.0669697 -0.0139071 255 140 0
-0.0233271 0.0669697 -0.0139071 255 140 0
-0.0210555 0.0669697 -0.0139071 255 140 0
-0.0187839 0.0669697 -0.0139071 255 140 0
-0.0165123 0.0669696 -0.0139071 255 140 0
-0.0142406 0.0669696 -0.0139071 255 140 0
-0.0119690 0.0669696 -0.0139071 255 140 0
-0.0096974 0.0669696 -0.0139071 255 140 0
-0.0074258 0.0669696 -0.0139071 255 140 0
-0.0051541 0.0669696 -0.0139071 255 140 0
-0.0028826 0.0669696 -0.0139070 255 140 0
-0.0006110 0.0669696 -0.0139070 255 140 0
0.0016607 0.0669696 -0.0139069 255 140 0
0.0039324 0.0669696 -0.0139068 255 140 0
0.0062040 0.0669696 -0.0139066 255 140 0
0.0084756 0.0669696 -0.0139063 255 140 0
0.0107472 0.0669702 -0.0139059 255 140 0
0.0130189 0.0669703 -0.0139051 255 140 0
0.0152905 0.0669710 -0.0139044 255 140 0
0.0175621 0.0669717 -0.0139040 255 140 0
0.0198338 0.0669724 -0.0139035 255 140 0
0.0221054 0.0669733 -0.0139029 255 140 0
0.0243770 0.0669739 -0.0139023 255 140 0
-0.0846610 0.0692448 -0.0139030 255 140 0
-0.0823894 0.0692446 -0.0139037 255 140 0
-0.0801177 0.0692441 -0.0139042 255 140 0
-0.0778461 0.0692436 -0.0139047 255 140 0
-0.0755745 0.0692429 -0.0139053 255 140 0
-0.0733029 0.0692429 -0.0139058 255 140 0
-0.0710313 0.0692423 -0.0139062 255 140 0
-0.0687596 0.0692424 -0.0139066 255 140 0
-0.0664880 0.0692424 -0.0139069 255 140 0
-0.0642164 0.0692424 -0.0139071 255 140 0
-0.0619448 0.0692423 -0.0139073 255 140 0
-0.0596731 0.0692421 -0.0139074 255 140 0
-0.0574015 0.0692421 -0.0139074 255 140 0
-0.0551299 0.0692421 -0.0139074 255 140 0
-0.0528583 0.0692421 -0.0139074 255 140 0
-0.0505866 0.0692421 -0.0139074 255 140 0
-0.0483150 0.0692421 -0.0139074 255 140 0
-0.0460434 0.0692421 -0.0139075 255 140 0
-0.0437718 0.0692421 -0.0139075 255 140 0
-0.0415001 0.0692421 -0.0139075 255 140 0
-0.0392285 0.0692421 -0.0139075 255 140 0
-0.0369569 0.0692420 -0.0139075 255 140 0
-0.0346853 0.0692420 -0.0139075 255 140 0
-0.0324136 0.0692420 -0.0139075 255 140 0
-0.0301420 0.0692420 -0.0139075 255 140 0
-0.0278704 0.0692420 -0.0139075 255 140 0
-0.0255987 0.0692420 -0.0139075 255 140 0
-0.0233271 0.0692420 -0.0139075 255 140 0
-0.0210555 0.0692420 -0.0139075 255 140 0
-0.0187839 0.0692419 -0.0139075 255 140 0
-0.0165123 0.0692419 -0.0139075 255 140 0
-0.0142406 0.0692419 -0.0139075 255 140 0
-0.0119690 0.0692419 -0.0139074 255 140 0
-0.0096974 0.0692419 -0.0139074 255 140 0
-0.0074258 0.0692418 -0.0139074 255 140 0
-0.0051541 0.0692418 -0.0139074 255 140 0
-0.0028826 0.0692418 -0.0139074 255 140 0
-0.0006110 0.0692418 -0.0139074 255 140 0
0.0016607 0.0692418 -0.0139073 255 140 0
0.0039324 0.0692419 -0.0139072 255 140 0
0.0062040 0.0692420 -0.0139071 255 140 0
0.0084756 0.0692420 -0.0139068 255 140 0
0.0107472 0.0692420 -0.0139065 255 140 0
0.0130189 0.0692425 -0.0139058 255 140 0
0.0152905 0.0692425 -0.0139052 255 140 0
0.0175621 0.0692431 -0.0139047 255 140 0
0.0198338 0.0692437 -0.0139042 255 140 0
0.0221054 0.0692447 -0.0139037 255 140 0
0.0243770 0.0692451 -0.0139029 255 140 0
-0.0846610 0.0715165 -0.0139028 255 140 0
-0.0823894 0.0715162 -0.0139036 255 140 0
-0.0801177 0.0715157 -0.0139042 255 140 0
-0.0778461 0.0715152 -0.0139047 255 140 0
-0.0755745 0.0715145 -0.0139053 255 140 0
-0.0733029 0.0715142 -0.0139058 255 140 0
-0.0710313 0.0715140 -0.0139062 255 140 0
-0.0687596 0.0715134 -0.0139065 255 140 0
-0.0664880 0.0715134 -0.0139068 255 140 0
-0.0642164 0.0715134 -0.0139070 255 140 0
-0.0619448 0.0715134 -0.0139072 255 140 0
-0.0596731 0.0715133 -0.0139072 255 140 0
-0.0574015 0.0715133 -0.0139072 255 140 0
-0.0551299 0.0715133 -0.0139073 255 140 0
-0.0528583 0.0715133 -0.0139073 255 140 0
-0.0505866 0.0715133 -0.0139073 255 140 0
-0.0483150 0.0715133 -0.0139074 255 140 0
-0.0460434 0.0715133 -0.0139074 255 140 0
-0.0437718 0.0715133 -0.0139074 255 140 0
-0.0415001 0.0715133 -0.0139074 255 140 0
-0.0392285 0.0715132 -0.0139074 255 140 0
-0.0369569 0.0715132 -0.0139074 255 140 0
-0.0346853 0.0715132 -0.0139074 255 140 0
-0.0324136 0.0715132 -0.0139074 255 140 0
-0.0301420 0.0715132 -0.0139074 255 140 0
-0.0278704 0.0715132 -0.0139074 255 140 0
-0.0255987 0.0715131 -0.0139074 255 140 0
-0.0233271 0.0715131 -0.0139074 255 140 0
-0.0210555 0.0715131 -0.0139074 255 140 0
-0.0187839 0.0715131 -0.0139074 255 140 0
-0.0165123 0.0715131 -0.0139074 255 140 0
-0.0142406 0.0715131 -0.0139073 255 140 0
-0.0119690 0.0715130 -0.0139073 255 140 0
-0.0096974 0.0715130 -0.0139073 255 140 0
-0.0074258 0.0715130 -0.0139073 255 140 0
-0.0051541 0.0715130 -0.0139073 255 140 0
-0.0028826 0.0715130 -0.0139073 255 140 0
-0.0006110 0.0715130 -0.0139072 255 140 0
0.0016607 0.0715130 -0.0139072 255 140 0
0.0039324 0.0715130 -0.0139071 255 140 0
0.0062040 0.0715130 -0.0139070 255 140 0
0.0084756 0.0715130 -0.0139067 255 140 0
0.0107472 0.0715130 -0.0139064 255 140 0
0.0130189 0.0715138 -0.0139057 255 140 0
0.0152905 0.0715145 -0.0139051 255 140 0
0.0175621 0.0715147 -0.0139046 255 140 0
0.0198338 0.0715153 -0.0139042 255 140 0
0.0221054 0.0715159 -0.0139037 255 140 0
0.0243770 0.0715164 -0.0139031 255 140 0
0.0266486 0.0715169 -0.0139027 255 140 0
-0.0869326 0.0737883 -0.0139022 255 140 0
-0.0846610 0.0737877 -0.0139028 255 140 0
-0.0823894 0.0737873 -0.0139038 255 140 0
-0.0801177 0.0737869 -0.0139043 255 140 0
-0.0778461 0.0737863 -0.0139049 255 140 0
-0.0755745 0.0737862 -0.0139054 255 140 0
-0.0733029 0.0737856 -0.0139059 255 140 0
-0.0710313 0.0737856 -0.0139063 255 140 0
-0.0687596 0.0737855 -0.0139066 255 140 0
-0.0664880 0.0737849 -0.0139068 255 140 0
-0.0642164 0.0737849 -0.0139070 255 140 0
-0.0619448 0.0737848 -0.0139072 255 140 0
-0.0596731 0.0737848 -0.0139072 255 140 0
-0.0574015 0.0737848 -0.0139072 255 140 0
-0.0551299 0.0737848 -0.0139073 255 140 0
-0.0528583 0.0737848 -0.0139073 255 140 0
-0.0505866 0.0737848 -0.0139073 255 140 0
-0.0483150 0.0737847 -0.0139074 255 140 0
-0.0460434 0.0737847 -0.0139074 255 140 0
-0.0437718 0.0737847 -0.0139074 255 140 0
-0.0415001 0.0737847 -0.0139074 255 140 0
-0.0392285 0.0737847 -0.0139074 255 140 0
-0.0369569 0.0737846 -0.0139074 255 140 0
-0.0346853 0.0737846 -0.0139074 255 140 0
-0.0324136 0.0737846 -0.0139074 255 140 0
-0.0301420 0.0737846 -0.0139074 255 140 0
-0.0278704 0.0737846 -0.0139074 255 140 0
-0.0255987 0.0737846 -0.0139074 255 140 0
-0.0233271 0.0737846 -0.0139074 255 140 0
-0.0210555 0.0737846 -0.0139074 255 140 0
-0.0187839 0.0737846 -0.0139074 255 140 0
-0.0165123 0.0737845 -0.0139074 255 140 0
-0.0142406 0.0737845 -0.0139074 255 140 0
-0.0119690 0.0737845 -0.0139074 255 140 0
-0.0096974 0.0737845 -0.0139073 255 140 0
-0.0074258 0.0737845 -0.0139073 255 140 0
-0.0051541 0.0737845 -0.0139073 255 140 0
-0.0028826 0.0737845 -0.0139073 255 140 0
-0.0006110 0.0737845 -0.0139073 255 140 0
0.0016607 0.0737844 -0.0139072 255 140 0
0.0039324 0.0737844 -0.0139072 255 140 0
0.0062040 0.0737844 -0.0139070 255 140 0
0.0084756 0.0737844 -0.0139067 255 140 0
0.0107472 0.0737850 -0.0139064 255 140 0
0.0130189 0.0737851 -0.0139057 255 140 0
0.0152905 0.0737857 -0.0139052 255 140 0
0.0175621 0.0737858 -0.0139048 255 140 0
0.0198338 0.0737864 -0.0139044 255 140 0
0.0221054 0.0737868 -0.0139039 255 140 0
0.0243770 0.0737874 -0.0139034 255 140 0
0.0266486 0.0737878 -0.0139030 255 140 0
-0.0869326 0.0760597 -0.0139026 255 140 0
-0.0846610 0.0760593 -0.0139034 255 140 0
-0.0823894 0.0760589 -0.0139040 255 140 0
-0.0801177 0.0760586 -0.0139046 255 140 0
-0.0778461 0.0760579 -0.0139051 255 140 0
-0.0755745 0.0760578 -0.0139055 255 140 0
-0.0733029 0.0760572 -0.0139060 255 140 0
-0.0710313 0.0760572 -0.0139064 255 140 0
-0.0687596 0.0760571 -0.0139067 255 140 0
-0.0664880 0.0760571 -0.0139070 255 140 0
-0.0642164 0.0760571 -0.0139071 255 140 0
-0.0619448 0.0760570 -0.0139073 255 140 0
-0.0596731 0.0760570 -0.0139073 255 140 0
-0.0574015 0.0760570 -0.0139073 255 140 0
-0.0551299 0.0760569 -0.0139073 255 140 0
-0.0528583 0.0760569 -0.0139074 255 140 0
-0.0505866 0.0760569 -0.0139074 255 140 0
-0.0483150 0.0760569 -0.0139074 255 140 0
-0.0460434 0.0760569 -0.0139074 255 140 0
-0.0437718 0.0760569 -0.0139074 255 140 0
-0.0415001 0.0760569 -0.0139074 255 140 0
-0.0392285 0.0760568 -0.0139074 255 140 0
-0.0369569 0.0760568 -0.0139074 255 140 0
-0.0346853 0.0760568 -0.0139074 255 140 0
-0.0324136 0.0760568 -0.0139074 255 140 0
-0.0301420 0.0760568 -0.0139074 255 140 0
-0.0278704 0.0760568 -0.0139074 255 140 0
-0.0255987 0.0760568 -0.0139075 255 140 0
-0.0233271 0.0760567 -0.0139074 255 140 0
-0.0210555 0.0760567 -0.0139075 255 140 0
-0.0187839 0.0760567 -0.0139075 255 140 0
-0.0165123 0.0760567 -0.0139074 255 140 0
-0.0142406 0.0760567 -0.0139074 255 140 0
-0.0119690 0.0760567 -0.0139074 255 140 0
-0.0096974 0.0760567 -0.0139074 255 140 0
-0.0074258 0.0760567 -0.0139074 255 140 0
-0.0051541 0.0760567 -0.0139074 255 140 0
-0.0028826 0.0760567 -0.0139074 255 140 0
-0.0006110 0.0760567 -0.0139074 255 140 0
0.0016607 0.0760567 -0.0139073 255 140 0
0.0039324 0.0760567 -0.0139072 255 140 0
0.0062040 0.0760567 -0.0139071 255 140 0
0.0084756 0.0760567 -0.0139069 255 140 0
0.0107472 0.0760567 -0.0139066 255 140 0
0.0130189 0.0760572 -0.0139059 255 140 0
0.0152905 0.0760573 -0.0139054 255 140 0
0.0175621 0.0760574 -0.0139049 255 140 0
0.0198338 0.0760580 -0.0139045 255 140 0
0.0221054 0.0760585 -0.0139040 255 140 0
0.0243770 0.0760590 -0.0139036 255 140 0
0.0266486 0.0760596 -0.0139030 255 140 0
-0.0869326 0.0783313 -0.0139028 255 140 0
-0.0846610 0.0783309 -0.0139036 255 140 0
-0.0823894 0.0783306 -0.0139042 255 140 0
-0.0801177 0.0783301 -0.0139048 255 140 0
-0.0778461 0.0783295 -0.0139053 255 140 0
-0.0755745 0.0783294 -0.0139057 255 140 0
-0.0733029 0.0783294 -0.0139062 255 140 0
-0.0710313 0.0783293 -0.0139065 255 140 0
-0.0687596 0.0783287 -0.0139068 255 140 0
-0.0664880 0.0783286 -0.0139070 255 140 0
-0.0642164 0.0783285 -0.0139071 255 140 0
-0.0619448 0.0783285 -0.0139072 255 140 0
-0.0596731 0.0783284 -0.0139073 255 140 0
-0.0574015 0.0783284 -0.0139073 255 140 0
-0.0551299 0.0783284 -0.0139073 255 140 0
-0.0528583 0.0783284 -0.0139073 255 140 0
-0.0505866 0.0783283 -0.0139074 255 140 0
-0.0483150 0.0783283 -0.0139074 255 140 0
-0.0460434 0.0783283 -0.0139074 255 140 0
-0.0437718 0.0783283 -0.0139074 255 140 0
-0.0415001 0.0783283 -0.0139074 255 140 0
-0.0392285 0.0783283 -0.0139074 255 140 0
-0.0369569 0.0783283 -0.0139074 255 140 0
-0.0346853 0.0783283 -0.0139074 255 140 0
-0.0324136 0.0783283 -0.0139074 255 140 0
-0.0301420 0.0783282 -0.0139074 255 140 0
-0.0278704 0.0783282 -0.0139074 255 140 0
-0.0255987 0.0783282 -0.0139074 255 140 0
-0.0233271 0.0783282 -0.0139074 255 140 0
-0.0210555 0.0783282 -0.0139074 255 140 0
-0.0187839 0.0783282 -0.0139074 255 140 0
-0.0165123 0.0783282 -0.0139074 255 140 0
-0.0142406 0.0783281 -0.0139074 255 140 0
-0.0119690 0.0783281 -0.0139074 255 140 0
-0.0096974 0.0783281 -0.0139073 255 140 0
-0.0074258 0.0783281 -0.0139073 255 140 0
-0.0051541 0.0783281 -0.0139073 255 140 0
-0.0028826 0.0783281 -0.0139073 255 140 0
-0.0006110 0.0783281 -0.0139073 255 140 0
0.0016607 0.0783281 -0.0139072 255 140 0
0.0039324 0.0783281 -0.0139072 255 140 0
0.0062040 0.0783281 -0.0139071 255 140 0
0.0084756 0.0783281 -0.0139069 255 140 0
0.0107472 0.0783282 -0.0139066 255 140 0
0.0130189 0.0783289 -0.0139061 255 140 0
0.0152905 0.0783289 -0.0139056 255 140 0
0.0175621 0.0783295 -0.0139051 255 140 0
0.0198338 0.0783296 -0.0139047 255 140 0
0.0221054 0.0783302 -0.0139042 255 140 0
0.0243770 0.0783306 -0.0139037 255 140 0
0.0266486 0.0783312 -0.0139031 255 140 0
0.0289202 0.0783315 -0.0139027 255 140 0
-0.0869326 0.0806032 -0.0139029 255 140 0
-0.0846610 0.0806025 -0.0139037 255 140 0
-0.0823894 0.0806020 -0.0139043 255 140 0
-0.0801177 0.0806013 -0.0139049 255 140 0
-0.0778461 0.0806012 -0.0139054 255 140 0
-0.0755745 0.0806006 -0.0139059 255 140 0
-0.0733029 0.0806005 -0.0139063 255 140 0
-0.0710313 0.0806005 -0.0139065 255 140 0
-0.0687596 0.0806004 -0.0139067 255 140 0
-0.0664880 0.0806004 -0.0139069 255 140 0
-0.0642164 0.0806004 -0.0139071 255 140 0
-0.0619448 0.0806002 -0.0139072 255 140 0
-0.0596731 0.0806000 -0.0139073 255 140 0
-0.0574015 0.0805999 -0.0139073 255 140 0
-0.0551299 0.0805998 -0.0139073 255 140 0
-0.0528583 0.0805997 -0.0139073 255 140 0
-0.0505866 0.0805997 -0.0139073 255 140 0
-0.0483150 0.0805997 -0.0139073 255 140 0
-0.0460434 0.0805997 -0.0139073 255 140 0
-0.0437718 0.0805996 -0.0139073 255 140 0
-0.0415001 0.0805996 -0.0139073 255 140 0
-0.0392285 0.0805996 -0.0139073 255 140 0
-0.0369569 0.0805996 -0.0139073 255 140 0
-0.0346853 0.0805996 -0.0139073 255 140 0
-0.0324136 0.0805995 -0.0139073 255 140 0
-0.0301420 0.0805995 -0.0139073 255 140 0
-0.0278704 0.0805995 -0.0139073 255 140 0
-0.0255987 0.0805995 -0.0139073 255 140 0
-0.0233271 0.0805995 -0.0139073 255 140 0
-0.0210555 0.0805995 -0.0139073 255 140 0
-0.0187839 0.0805995 -0.0139073 255 140 0
-0.0165123 0.0805995 -0.0139073 255 140 0
-0.0142406 0.0805994 -0.0139073 255 140 0
-0.0119690 0.0805994 -0.0139073 255 140 0
-0.0096974 0.0805994 -0.0139073 255 140 0
-0.0074258 0.0805994 -0.0139073 255 140 0
-0.0051541 0.0805994 -0.0139073 255 140 0
-0.0028826 0.0805994 -0.0139073 255 140 0
-0.0006110 0.0805994 -0.0139073 255 140 0
0.0016607 0.0805999 -0.0139073 255 140 0
0.0039324 0.0805999 -0.0139072 255 140 0
0.0062040 0.0805999 -0.0139071 255 140 0
0.0084756 0.0806000 -0.0139069 255 140 0
0.0107472 0.0806000 -0.0139066 255 140 0
0.0130189 0.0806000 -0.0139061 255 140 0
0.0152905 0.0806005 -0.0139057 255 140 0
0.0175621 0.0806006 -0.0139052 255 140 0
0.0198338 0.0806007 -0.0139047 255 140 0
0.0221054 0.0806014 -0.0139042 255 140 0
0.0243770 0.0806018 -0.0139038 255 140 0
0.0266486 0.0806024 -0.0139035 255 140 0
0.0289202 0.0806027 -0.0139031 255 140 0
-0.0869326 0.0828745 -0.0139031 255 140 0
-0.0846610 0.0828738 -0.0139038 255 140 0
-0.0823894 0.0828735 -0.0139044 255 140 0
-0.0801177 0.0828728 -0.0139050 255 140 0
-0.0778461 0.0828723 -0.0139055 255 140 0
-0.0755745 0.0828722 -0.0139059 255 140 0
-0.0733029 0.0828716 -0.0139063 255 140 0
-0.0710313 0.0828715 -0.0139066 255 140 0
-0.0687596 0.0828715 -0.0139068 255 140 0
-0.0664880 0.0828715 -0.0139069 255 140 0
-0.0642164 0.0828714 -0.0139071 255 140 0
-0.0619448 0.0828714 -0.0139072 255 140 0
-0.0596731 0.0828714 -0.0139072 255 140 0
-0.0574015 0.0828714 -0.0139073 255 140 0
-0.0551299 0.0828714 -0.0139073 255 140 0
-0.0528583 0.0828713 -0.0139073 255 140 0
-0.0505866 0.0828713 -0.0139073 255 140 0
-0.0483150 0.0828713 -0.0139073 255 140 0
-0.0460434 0.0828713 -0.0139073 255 140 0
-0.0437718 0.0828713 -0.0139073 255 140 0
-0.0415001 0.0828713 -0.0139073 255 140 0
-0.0392285 0.0828713 -0.0139073 255 140 0
-0.0369569 0.0828712 -0.0139073 255 140 0
-0.0346853 0.0828712 -0.0139073 255 140 0
-0.0324136 0.0828712 -0.0139073 255 140 0
-0.0301420 0.0828712 -0.0139073 255 140 0
-0.0278704 0.0828712 -0.0139073 255 140 0
-0.0255987 0.0828712 -0.0139073 255 140 0
-0.0233271 0.0828711 -0.0139073 255 140 0
-0.0210555 0.0828711 -0.0139073 255 140 0
-0.0187839 0.0828711 -0.0139073 255 140 0
-0.0165123 0.0828711 -0.0139073 255 140 0
-0.0142406 0.0828711 -0.0139073 255 140 0
-0.0119690 0.0828711 -0.0139073 255 140 0
-0.0096974 0.0828710 -0.0139073 255 140 0
-0.0074258 0.0828710 -0.0139073 255 140 0
-0.0051541 0.0828710 -0.0139073 255 140 0
-0.0028826 0.0828710 -0.0139073 255 140 0
-0.0006110 0.0828710 -0.0139073 255 140 0
0.0016607 0.0828710 -0.0139072 255 140 0
0.0039324 0.0828710 -0.0139071 255 140 0
0.0062040 0.0828710 -0.0139070 255 140 0
0.0084756 0.0828710 -0.0139069 255 140 0
0.0107472 0.0828710 -0.0139067 255 140 0
0.0130189 0.0828711 -0.0139062 255 140 0
0.0152905 0.0828717 -0.0139057 255 140 0
0.0175621 0.0828718 -0.0139053 255 140 0
0.0198338 0.0828723 -0.0139049 255 140 0
0.0221054 0.0828729 -0.0139043 255 140 0
0.0243770 0.0828735 -0.0139040 255 140 0
0.0266486 0.0828736 -0.0139036 255 140 0
0.0289202 0.0828739 -0.0139034 255 140 0
-0.0892043 0.0851471 -0.0139021 255 140 0
-0.0869326 0.0851461 -0.0139032 255 140 0
-0.0846610 0.0851450 -0.0139038 255 140 0
-0.0823894 0.0851445 -0.0139044 255 140 0
-0.0801177 0.0851443 -0.0139050 255 140 0
-0.0778461 0.0851438 -0.0139055 255 140 0
-0.0755745 0.0851438 -0.0139059 255 140 0
-0.0733029 0.0851437 -0.0139064 255 140 0
-0.0710313 0.0851437 -0.0139066 255 140 0
-0.0687596 0.0851431 -0.0139068 255 140 0
-0.0664880 0.0851430 -0.0139069 255 140 0
-0.0642164 0.0851430 -0.0139070 255 140 0
-0.0619448 0.0851430 -0.0139071 255 140 0
-0.0596731 0.0851429 -0.0139072 255 140 0
-0.0574015 0.0851429 -0.0139072 255 140 0
-0.0551299 0.0851429 -0.0139072 255 140 0
-0.0528583 0.0851429 -0.0139072 255 140 0
-0.0505866 0.0851429 -0.0139072 255 140 0
-0.0483150 0.0851429 -0.0139073 255 140 0
-0.0460434 0.0851429 -0.0139073 255 140 0
-0.0437718 0.0851429 -0.0139073 255 140 0
-0.0415001 0.0851428 -0.0139073 255 140 0
-0.0392285 0.0851428 -0.0139073 255 140 0
-0.0369569 0.0851428 -0.0139073 255 140 0
-0.0346853 0.0851428 -0.0139072 255 140 0
-0.0324136 0.0851428 -0.0139072 255 140 0
-0.0301420 0.0851428 -0.0139073 255 140 0
-0.0278704 0.0851427 -0.0139072 255 140 0
-0.0255987 0.0851427 -0.0139072 255 140 0
-0.0233271 0.0851427 -0.0139072 255 140 0
-0.0210555 0.0851427 -0.0139072 255 140 0
-0.0187839 0.0851427 -0.0139072 255 140 0
-0.0165123 0.0851427 -0.0139072 255 140 0
-0.0142406 0.0851427 -0.0139072 255 140 0
-0.0119690 0.0851427 -0.0139072 255 140 0
-0.0096974 0.0851426 -0.0139072 255 140 0
-0.0074258 0.0851426 -0.0139072 255 140 0
-0.0051541 0.0851426 -0.0139072 255 140 0
-0.0028826 0.0851426 -0.0139072 255 140 0
-0.0006110 0.0851426 -0.0139071 255 140 0
0.0016607 0.0851426 -0.0139071 255 140 0
0.0039324 0.0851426 -0.0139071 255 140 0
0.0062040 0.0851426 -0.0139070 255 140 0
0.0084756 0.0851426 -0.0139068 255 140 0
0.0107472 0.0851432 -0.0139067 255 140 0
0.0130189 0.0851432 -0.0139063 255 140 0
0.0152905 0.0851432 -0.0139057 255 140 0
0.0175621 0.0851433 -0.0139054 255 140 0
0.0198338 0.0851439 -0.0139049 255 140 0
0.0221054 0.0851440 -0.0139044 255 140 0
0.0243770 0.0851446 -0.0139039 255 140 0
0.0266486 0.0851449 -0.0139036 255 140 0
0.0289202 0.0851455 -0.0139034 255 140 0
-0.0892043 0.0874183 -0.0139021 255 140 0
-0.0869326 0.0874175 -0.0139033 255 140 0
-0.0846610 0.0874167 -0.0139039 255 140 0
-0.0823894 0.0874161 -0.0139044 255 140 0
-0.0801177 0.0874159 -0.0139049 255 140 0
-0.0778461 0.0874154 -0.0139055 255 140 0
-0.0755745 0.0874148 -0.0139059 255 140 0
-0.0733029 0.0874148 -0.0139063 255 140 0
-0.0710313 0.0874148 -0.0139065 255 140 0
-0.0687596 0.0874147 -0.0139067 255 140 0
-0.0664880 0.0874147 -0.0139069 255 140 0
-0.0642164 0.0874147 -0.0139070 255 140 0
-0.0619448 0.0874146 -0.0139071 255 140 0
-0.0596731 0.0874146 -0.0139071 255 140 0
-0.0574015 0.0874146 -0.0139071 255 140 0
-0.0551299 0.0874146 -0.0139071 255 140 0
-0.0528583 0.0874146 -0.0139071 255 140 0
-0.0505866 0.0874146 -0.0139071 255 140 0
-0.0483150 0.0874146 -0.0139072 255 140 0
-0.0460434 0.0874145 -0.0139072 255 140 0
-0.0437718 0.0874145 -0.0139072 255 140 0
-0.0415001 0.0874145 -0.0139072 255 140 0
-0.0392285 0.0874145 -0.0139072 255 140 0
-0.0369569 0.0874145 -0.0139072 255 140 0
-0.0346853 0.0874145 -0.0139072 255 140 0
-0.0324136 0.0874144 -0.0139072 255 140 0
-0.0301420 0.0874144 -0.0139072 255 140 0
-0.0278704 0.0874144 -0.0139072 255 140 0
-0.0255987 0.0874144 -0.0139072 255 140 0
-0.0233271 0.0874144 -0.0139072 255 140 0
-0.0210555 0.0874144 -0.0139072 255 140 0
-0.0187839 0.0874144 -0.0139072 255 140 0
-0.0165123 0.0874143 -0.0139072 255 140 0
-0.0142406 0.0874143 -0.0139072 255 140 0
-0.0119690 0.0874143 -0.0139072 255 140 0
-0.0096974 0.0874143 -0.0139072 255 140 0
-0.0074258 0.0874143 -0.0139072 255 140 0
-0.0051541 0.0874143 -0.0139072 255 140 0
-0.0028826 0.0874143 -0.0139071 255 140 0
-0.0006110 0.0874143 -0.0139071 255 140 0
0.0016607 0.0874143 -0.0139070 255 140 0
0.0039324 0.0874143 -0.0139070 255 140 0
0.0062040 0.0874143 -0.0139069 255 140 0
0.0084756 0.0874143 -0.0139068 255 140 0
0.0107472 0.0874143 -0.0139066 255 140 0
0.0130189 0.0874143 -0.0139062 255 140 0
0.0152905 0.0874144 -0.0139058 255 140 0
0.0175621 0.0874149 -0.0139054 255 140 0
0.0198338 0.0874150 -0.0139049 255 140 0
0.0221054 0.0874161 -0.0139043 255 140 0
0.0243770 0.0874162 -0.0139039 255 140 0
0.0266486 0.0874169 -0.0139036 255 140 0
0.0289202 0.0874174 -0.0139033 255 140 0
-0.0892043 0.0896899 -0.0139023 255 140 0
-0.0869326 0.0896891 -0.0139033 255 140 0
-0.0846610 0.0896882 -0.0139038 255 140 0
-0.0823894 0.0896874 -0.0139044 255 140 0
-0.0801177 0.0896871 -0.0139049 255 140 0
-0.0778461 0.0896870 -0.0139054 255 140 0
-0.0755745 0.0896870 -0.0139058 255 140 0
-0.0733029 0.0896864 -0.0139062 255 140 0
-0.0710313 0.0896863 -0.0139065 255 140 0
-0.0687596 0.0896862 -0.0139067 255 140 0
-0.0664880 0.0896860 -0.0139068 255 140 0
-0.0642164 0.0896858 -0.0139069 255 140 0
-0.0619448 0.0896858 -0.0139069 255 140 0
-0.0596731 0.0896857 -0.0139069 255 140 0
-0.0574015 0.0896857 -0.0139070 255 140 0
-0.0551299 0.0896857 -0.0139070 255 140 0
-0.0528583 0.0896857 -0.0139070 255 140 0
-0.0505866 0.0896857 -0.0139070 255 140 0
-0.0483150 0.0896857 -0.0139070 255 140 0
-0.0460434 0.0896857 -0.0139070 255 140 0
-0.0437718 0.0896856 -0.0139070 255 140 0
-0.0415001 0.0896856 -0.0139070 255 140 0
-0.0392285 0.0896856 -0.0139070 255 140 0
-0.0369569 0.0896856 -0.0139070 255 140 0
-0.0346853 0.0896856 -0.0139070 255 140 0
-0.0324136 0.0896855 -0.0139070 255 140 0
-0.0301420 0.0896855 -0.0139070 255 140 0
-0.0278704 0.0896855 -0.0139070 255 140 0
-0.0255987 0.0896855 -0.0139070 255 140 0
-0.0233271 0.0896855 -0.0139070 255 140 0
-0.0210555 0.0896855 -0.0139070 255 140 0
-0.0187839 0.0896855 -0.0139070 255 140 0
-0.0165123 0.0896855 -0.0139070 255 140 0
-0.0142406 0.0896854 -0.0139070 255 140 0
-0.0119690 0.0896854 -0.0139070 255 140 0
-0.0096974 0.0896854 -0.0139070 255 140 0
-0.0074258 0.0896854 -0.0139070 255 140 0
-0.0051541 0.0896854 -0.0139070 255 140 0
-0.0028826 0.0896854 -0.0139070 255 140 0
-0.0006110 0.0896854 -0.0139070 255 140 0
0.0016607 0.0896854 -0.0139070 255 140 0
0.0039324 0.0896854 -0.0139069 255 140 0
0.0062040 0.0896854 -0.0139069 255 140 0
0.0084756 0.0896856 -0.0139067 255 140 0
0.0107472 0.0896857 -0.0139065 255 140 0
0.0130189 0.0896864 -0.0139062 255 140 0
0.0152905 0.0896865 -0.0139057 255 140 0
0.0175621 0.0896865 -0.0139053 255 140 0
0.0198338 0.0896866 -0.0139049 255 140 0
0.0221054 0.0896872 -0.0139043 255 140 0
0.0243770 0.0896877 -0.0139038 255 140 0
0.0266486 0.0896890 -0.0139034 255 140 0
0.0289202 0.0896896 -0.0139032 255 140 0
-0.0892043 0.0919616 -0.0139019 255 140 0
-0.0869326 0.0919610 -0.0139033 255 140 0
-0.0846610 0.0919601 -0.0139039 255 140 0
-0.0823894 0.0919594 -0.0139044 255 140 0
-0.0801177 0.0919593 -0.0139049 255 140 0
-0.0778461 0.0919587 -0.0139054 255 140 0
-0.0755745 0.0919587 -0.0139058 255 140 0
-0.0733029 0.0919586 -0.0139063 255 140 0
-0.0710313 0.0919582 -0.0139066 255 140 0
-0.0687596 0.0919581 -0.0139067 255 140 0
-0.0664880 0.0919581 -0.0139068 255 140 0
-0.0642164 0.0919581 -0.0139070 255 140 0
-0.0619448 0.0919580 -0.0139070 255 140 0
-0.0596731 0.0919580 -0.0139071 255 140 0
-0.0574015 0.0919580 -0.0139071 255 140 0
-0.0551299 0.0919580 -0.0139071 255 140 0
-0.0528583 0.0919580 -0.0139071 255 140 0
-0.0505866 0.0919580 -0.0139071 255 140 0
-0.0483150 0.0919579 -0.0139071 255 140 0
-0.0460434 0.0919579 -0.0139071 255 140 0
-0.0437718 0.0919579 -0.0139071 255 140 0
-0.0415001 0.0919579 -0.0139071 255 140 0
-0.0392285 0.0919579 -0.0139071 255 140 0
-0.0369569 0.0919579 -0.0139071 255 140 0
-0.0346853 0.0919578 -0.0139071 255 140 0
-0.0324136 0.0919578 -0.0139071 255 140 0
-0.0301420 0.0919578 -0.0139071 255 140 0
-0.0278704 0.0919578 -0.0139071 255 140 0
-0.0255987 0.0919578 -0.0139071 255 140 0
-0.0233271 0.0919578 -0.0139071 255 140 0
-0.0210555 0.0919578 -0.0139071 255 140 0
-0.0187839 0.0919578 -0.0139071 255 140 0
-0.0165123 0.0919577 -0.0139071 255 140 0
-0.0142406 0.0919577 -0.0139071 255 140 0
-0.0119690 0.0919577 -0.0139071 255 140 0
-0.0096974 0.0919577 -0.0139071 255 140 0
-0.0074258 0.0919577 -0.0139071 255 140 0
-0.0051541 0.0919577 -0.0139071 255 140 0
-0.0028826 0.0919577 -0.0139071 255 140 0
-0.0006110 0.0919577 -0.0139070 255 140 0
0.0016607 0.0919576 -0.0139070 255 140 0
0.0039324 0.0919576 -0.0139070 255 140 0
0.0062040 0.0919576 -0.0139069 255 140 0
0.0084756 0.0919576 -0.0139068 255 140 0
0.0107472 0.0919577 -0.0139066 255 140 0
0.0130189 0.0919582 -0.0139062 255 140 0
0.0152905 0.0919582 -0.0139058 255 140 0
0.0175621 0.0919582 -0.0139055 255 140 0
0.0198338 0.0919588 -0.0139050 255 140 0
0.0221054 0.0919589 -0.0139045 255 140 0
0.0243770 0.0919595 -0.0139041 255 140 0
0.0266486 0.0919602 -0.0139036 255 140 0
0.0289202 0.0919604 -0.0139030 255 140 0
-0.0892043 0.0942336 -0.0139016 255 140 0
-0.0869326 0.0942330 -0.0139033 255 140 0
-0.0846610 0.0942323 -0.0139039 255 140 0
-0.0823894 0.0942316 -0.0139044 255 140 0
-0.0801177 0.0942311 -0.0139049 255 140 0
-0.0778461 0.0942305 -0.0139054 255 140 0
-0.0755745 0.0942304 -0.0139059 255 140 0
-0.0733029 0.0942304 -0.0139062 255 140 0
-0.0710313 0.0942303 -0.0139065 255 140 0
-0.0687596 0.0942302 -0.0139067 255 140 0
-0.0664880 0.0942301 -0.0139068 255 140 0
-0.0642164 0.0942300 -0.0139069 255 140 0
-0.0619448 0.0942299 -0.0139069 255 140 0
-0.0596731 0.0942299 -0.0139069 255 140 0
-0.0574015 0.0942298 -0.0139070 255 140 0
-0.0551299 0.0942298 -0.0139070 255 140 0
-0.0528583 0.0942298 -0.0139070 255 140 0
-0.0505866 0.0942298 -0.0139070 255 140 0
-0.0483150 0.0942298 -0.0139070 255 140 0
-0.0460434 0.0942298 -0.0139070 255 140 0
-0.0437718 0.0942297 -0.0139070 255 140 0
-0.0415001 0.0942297 -0.0139070 255 140 0
-0.0392285 0.0942297 -0.0139070 255 140 0
-0.0369569 0.0942297 -0.0139070 255 140 0
-0.0346853 0.0942297 -0.0139070 255 140 0
-0.0324136 0.0942297 -0.0139070 255 140 0
-0.0301420 0.0942296 -0.0139070 255 140 0
-0.0278704 0.0942296 -0.0139071 255 140 0
-0.0255987 0.0942296 -0.0139071 255 140 0
-0.0233271 0.0942296 -0.0139071 255 140 0
-0.0210555 0.0942296 -0.0139071 255 140 0
-0.0187839 0.0942296 -0.0139071 255 140 0
-0.0165123 0.0942296 -0.0139071 255 140 0
-0.0142406 0.0942296 -0.0139070 255 140 0
-0.0119690 0.0942295 -0.0139070 255 140 0
-0.0096974 0.0942295 -0.0139070 255 140 0
-0.0074258 0.0942295 -0.0139070 255 140 0
-0.0051541 0.0942295 -0.0139070 255 140 0
-0.0028826 0.0942295 -0.0139070 255 140 0
-0.0006110 0.0942295 -0.0139070 255 140 0
0.0016607 0.0942295 -0.0139070 255 140 0
0.0039324 0.0942295 -0.0139069 255 140 0
0.0062040 0.0942295 -0.0139069 255 140 0
0.0084756 0.0942296 -0.0139067 255 140 0
0.0107472 0.0942297 -0.0139066 255 140 0
0.0130189 0.0942299 -0.0139063 255 140 0
0.0152905 0.0942299 -0.0139058 255 140 0
0.0175621 0.0942299 -0.0139056 255 140 0
0.0198338 0.0942305 -0.0139051 255 140 0
0.0221054 0.0942309 -0.0139046 255 140 0
0.0243770 0.0942318 -0.0139040 255 140 0
0.0266486 0.0942326 -0.0139036 255 140 0
0.0289202 0.0942332 -0.0139029 255 140 0
-0.0892043 0.0965048 -0.0139019 255 140 0
-0.0869326 0.0965045 -0.0139032 255 140 0
-0.0846610 0.0965037 -0.0139037 255 140 0
-0.0823894 0.0965027 -0.0139043 255 140 0
-0.0801177 0.0965026 -0.0139048 255 140 0
-0.0778461 0.0965020 -0.0139053 255 140 0
-0.0755745 0.0965020 -0.0139057 255 140 0
-0.0733029 0.0965020 -0.0139061 255 140 0
-0.0710313 0.0965019 -0.0139064 255 140 0
-0.0687596 0.0965019 -0.0139066 255 140 0
-0.0664880 0.0965018 -0.0139067 255 140 0
-0.0642164 0.0965015 -0.0139068 255 140 0
-0.0619448 0.0965014 -0.0139069 255 140 0
-0.0596731 0.0965014 -0.0139069 255 140 0
-0.0574015 0.0965014 -0.0139069 255 140 0
-0.0551299 0.0965014 -0.0139069 255 140 0
-0.0528583 0.0965014 -0.0139069 255 140 0
-0.0505866 0.0965014 -0.0139069 255 140 0
-0.0483150 0.0965014 -0.0139070 255 140 0
-0.0460434 0.0965014 -0.0139070 255 140 0
-0.0437718 0.0965013 -0.0139070 255 140 0
-0.0415001 0.0965013 -0.0139070 255 140 0
-0.0392285 0.0965013 -0.0139070 255 140 0
-0.0369569 0.0965013 -0.0139070 255 140 0
-0.0346853 0.0965013 -0.0139069 255 140 0
-0.0324136 0.0965013 -0.0139070 255 140 0
-0.0301420 0.0965013 -0.0139069 255 140 0
-0.0278704 0.0965013 -0.0139069 255 140 0
-0.0255987 0.0965013 -0.0139069 255 140 0
-0.0233271 0.0965013 -0.0139069 255 140 0
-0.0210555 0.0965013 -0.0139069 255 140 0
-0.0187839 0.0965013 -0.0139069 255 140 0
-0.0165123 0.0965013 -0.0139069 255 140 0
-0.0142406 0.0965013 -0.0139069 255 140 0
-0.0119690 0.0965013 -0.0139069 255 140 0
-0.0096974 0.0965013 -0.0139069 255 140 0
-0.0074258 0.0965013 -0.0139069 255 140 0
-0.0051541 0.0965013 -0.0139069 255 140 0
-0.0028826 0.0965013 -0.0139069 255 140 0
-0.0006110 0.0965013 -0.0139069 255 140 0
0.0016607 0.0965013 -0.0139068 255 140 0
0.0039324 0.0965014 -0.0139068 255 140 0
0.0062040 0.0965014 -0.0139067 255 140 0
0.0084756 0.0965014 -0.0139067 255 140 0
0.0107472 0.0965015 -0.0139065 255 140 0
0.0130189 0.0965015 -0.0139061 255 140 0
0.0152905 0.0965015 -0.0139056 255 140 0
0.0175621 0.0965015 -0.0139054 255 140 0
0.0198338 0.0965021 -0.0139049 255 140 0
0.0221054 0.0965022 -0.0139044 255 140 0
0.0243770 0.0965029 -0.0139039 255 140 0
0.0266486 0.0965041 -0.0139035 255 140 0
0.0289202 0.0965047 -0.0139028 255 140 0
-0.0892043 0.0987763 -0.0139019 255 140 0
-0.0869326 0.0987756 -0.0139032 255 140 0
-0.0846610 0.0987749 -0.0139037 255 140 0
-0.0823894 0.0987744 -0.0139041 255 140 0
-0.0801177 0.0987742 -0.0139046 255 140 0
-0.0778461 0.0987741 -0.0139051 255 140 0
-0.0755745 0.0987735 -0.0139056 255 140 0
-0.0733029 0.0987731 -0.0139059 255 140 0
-0.0710313 0.0987731 -0.0139062 255 140 0
-0.0687596 0.0987730 -0.0139064 255 140 0
-0.0664880 0.0987730 -0.0139066 255 140 0
-0.0642164 0.0987730 -0.0139068 255 140 0
-0.0619448 0.0987730 -0.0139068 255 140 0
-0.0596731 0.0987730 -0.0139069 255 140 0
