ply
format ascii 1.0
element vertex 1171
property float x
property float y
property float z
property uchar red
property uchar green
property uchar blue
end_header
-0.0074220 0.1444045 0.0067062 255 140 0
-0.0051508 0.1444011 0.0067172 255 140 0
-0.0028791 0.1444215 0.0067327 255 140 0
-0.0006078 0.1444701 0.0067545 255 140 0
0.0016631 0.1445433 0.0067846 255 140 0
0.0039301 0.1446271 0.0068216 255 140 0
-0.0619438 0.1468321 0.0068033 255 140 0
-0.0596725 0.1467865 0.0067816 255 140 0
-0.0574010 0.1467416 0.0067641 255 140 0
-0.0551295 0.1467014 0.0067478 255 140 0
-0.0528580 0.1466729 0.0067329 255 140 0
-0.0505864 0.1466580 0.0067222 255 140 0
-0.0483147 0.1466625 0.0067151 255 140 0
-0.0460431 0.1466680 0.0067098 255 140 0
-0.0437715 0.1466696 0.0067058 255 140 0
-0.0414999 0.1466724 0.0067020 255 140 0
-0.0392282 0.1466730 0.0066987 255 140 0
-0.0369566 0.1466722 0.0066952 255 140 0
-0.0346849 0.1466725 0.0066929 255 140 0
-0.0324133 0.1466730 0.0066927 255 140 0
-0.0301414 0.1466744 0.0066926 255 140 0
-0.0278700 0.1466749 0.0066927 255 140 0
-0.0255983 0.1466757 0.0066933 255 140 0
-0.0233264 0.1466779 0.0066945 255 140 0
-0.0210548 0.1466803 0.0066958 255 140 0
-0.0187831 0.1466839 0.0066976 255 140 0
-0.0165114 0.1466897 0.0067002 255 140 0
-0.0142396 0.1466809 0.0067044 255 140 0
-0.0119653 0.1466714 0.0067117 255 140 0
-0.0096915 0.1466714 0.0067206 255 140 0
-0.0074216 0.1466877 0.0067307 255 140 0
-0.0051512 0.1467080 0.0067421 255 140 0
-0.0028804 0.1467384 0.0067554 255 140 0
-0.0006120 0.1467665 0.0067648 255 140 0
-0.0551292 0.1490185 0.0067726 255 140 0
-0.0528578 0.1489780 0.0067514 255 140 0
-0.0505862 0.1489553 0.0067382 255 140 0
-0.0483146 0.1489484 0.0067310 255 140 0
-0.0460430 0.1489402 0.0067263 255 140 0
-0.0437714 0.1489490 0.0067226 255 140 0
-0.0414998 0.1489505 0.0067188 255 140 0
-0.0392282 0.1489483 0.0067152 255 140 0
-0.0369564 0.1489463 0.0067101 255 140 0
-0.0346847 0.1489449 0.0067069 255 140 0
-0.0324130 0.1489420 0.0067063 255 140 0
-0.0301414 0.1489413 0.0067067 255 140 0
-0.0278698 0.1489424 0.0067074 255 140 0
-0.0255980 0.1489461 0.0067086 255 140 0
-0.0233263 0.1489504 0.0067107 255 140 0
-0.0210545 0.1489537 0.0067127 255 140 0
-0.0187828 0.1489557 0.0067149 255 140 0
-0.0165111 0.1489558 0.0067172 255 140 0
-0.0142393 0.1489594 0.0067213 255 140 0
-0.0119673 0.1489583 0.0067296 255 140 0
-0.0096918 0.1489841 0.0067403 255 140 0
-0.0074226 0.1490017 0.0067530 255 140 0
-0.0051515 0.1490246 0.0067663 255 140 0
-0.0505862 0.1512433 0.0067440 255 140 0
-0.0483146 0.1512486 0.0067481 255 140 0
-0.0460428 0.1512468 0.0067488 255 140 0
-0.0437711 0.1512412 0.0067469 255 140 0
-0.0414995 0.1512351 0.0067442 255 140 0
-0.0392278 0.1512307 0.0067419 255 140 0
-0.0369561 0.1512211 0.0067342 255 140 0
-0.0346845 0.1512137 0.0067294 255 140 0
-0.0324128 0.1512134 0.0067297 255 140 0
-0.0301411 0.1512147 0.0067302 255 140 0
-0.0278695 0.1512182 0.0067324 255 140 0
-0.0255978 0.1512229 0.0067355 255 140 0
-0.0233260 0.1512274 0.0067376 255 140 0
-0.0210542 0.1512320 0.0067400 255 140 0
-0.0187825 0.1512363 0.0067417 255 140 0
-0.0165108 0.1512419 0.0067426 255 140 0
-0.0142397 0.1512481 0.0067443 255 140 0
-0.0119669 0.1512869 0.0067554 255 140 0
-0.0096950 0.1513174 0.0067659 255 140 0
-0.0437710 0.1535545 0.0067649 255 140 0
-0.0414993 0.1535574 0.0067670 255 140 0
-0.0392276 0.1535586 0.0067675 255 140 0
-0.0369560 0.1535407 0.0067575 255 140 0
-0.0346843 0.1535307 0.0067514 255 140 0
-0.0324125 0.1535336 0.0067506 255 140 0
-0.0301408 0.1535378 0.0067522 255 140 0
-0.0278691 0.1535435 0.0067554 255 140 0
-0.0255973 0.1535486 0.0067593 255 140 0
-0.0233255 0.1535539 0.0067641 255 140 0
-0.0210538 0.1535572 0.0067661 255 140 0
-0.0187821 0.1535552 0.0067648 255 140 0
-0.0165121 0.1535461 0.0067563 255 140 0
-0.0461290 0.0309621 0.0124162 255 140 0
-0.0438290 0.0309703 0.0124203 255 140 0
-0.0415557 0.0309758 0.0124179 255 140 0
-0.0392832 0.0309810 0.0124140 255 140 0
-0.0370399 0.0309834 0.0124062 255 140 0
-0.0347684 0.0309841 0.0124021 255 140 0
-0.0324889 0.0309823 0.0124039 255 140 0
-0.0301954 0.0309801 0.0124067 255 140 0
-0.0279228 0.0309783 0.0124101 255 140 0
-0.0256369 0.0309748 0.0124141 255 140 0
-0.0233659 0.0309690 0.0124204 255 140 0
-0.0210784 0.0309598 0.0124360 255 140 0
-0.0187906 0.0309529 0.0124459 255 140 0
-0.0165200 0.0309413 0.0124493 255 140 0
-0.0507013 0.0331916 0.0125246 255 140 0
-0.0484027 0.0332027 0.0125323 255 140 0
-0.0461186 0.0332071 0.0125364 255 140 0
-0.0438299 0.0332085 0.0125360 255 140 0
-0.0415571 0.0332117 0.0125308 255 140 0
-0.0392846 0.0332191 0.0125238 255 140 0
-0.0370416 0.0332236 0.0125109 255 140 0
-0.0347706 0.0332261 0.0125035 255 140 0
-0.0324947 0.0332263 0.0125042 255 140 0
-0.0301963 0.0332257 0.0125035 255 140 0
-0.0279238 0.0332240 0.0125038 255 140 0
-0.0256378 0.0332212 0.0125060 255 140 0
-0.0233670 0.0332167 0.0125102 255 140 0
-0.0210794 0.0332106 0.0125196 255 140 0
-0.0187953 0.0332073 0.0125260 255 140 0
-0.0165239 0.0332023 0.0125293 255 140 0
-0.0142454 0.0331989 0.0125277 255 140 0
-0.0119921 0.0331741 0.0125468 255 140 0
-0.0552591 0.0354309 0.0125827 255 140 0
-0.0529731 0.0354519 0.0125791 255 140 0
-0.0506754 0.0354707 0.0125787 255 140 0
-0.0483978 0.0354720 0.0125813 255 140 0
-0.0461031 0.0354718 0.0125831 255 140 0
-0.0438296 0.0354721 0.0125833 255 140 0
-0.0415571 0.0354732 0.0125841 255 140 0
-0.0392845 0.0354744 0.0125816 255 140 0
-0.0370418 0.0354894 0.0125729 255 140 0
-0.0347705 0.0354998 0.0125668 255 140 0
-0.0324856 0.0354990 0.0125656 255 140 0
-0.0301970 0.0354982 0.0125651 255 140 0
-0.0279245 0.0354977 0.0125653 255 140 0
-0.0256391 0.0354965 0.0125660 255 140 0
-0.0233679 0.0354949 0.0125673 255 140 0
-0.0210934 0.0354896 0.0125720 255 140 0
-0.0188045 0.0354889 0.0125713 255 140 0
-0.0165327 0.0354868 0.0125687 255 140 0
-0.0142590 0.0354807 0.0125697 255 140 0
-0.0120095 0.0354553 0.0125738 255 140 0
-0.0097425 0.0354278 0.0125804 255 140 0
-0.0074305 0.0354128 0.0125936 255 140 0
-0.0051248 0.0353917 0.0126018 255 140 0
-0.0598164 0.0376941 0.0125665 255 140 0
-0.0575227 0.0377512 0.0125545 255 140 0
-0.0552366 0.0377889 0.0125432 255 140 0
-0.0529481 0.0378124 0.0125340 255 140 0
-0.0506757 0.0378163 0.0125274 255 140 0
-0.0483760 0.0378251 0.0125222 255 140 0
-0.0461033 0.0378397 0.0125158 255 140 0
-0.0438306 0.0378403 0.0125082 255 140 0
-0.0415580 0.0378401 0.0124988 255 140 0
-0.0392856 0.0378390 0.0124921 255 140 0
-0.0370434 0.0378395 0.0124767 255 140 0
-0.0347747 0.0378481 0.0124659 255 140 0
-0.0324875 0.0378473 0.0124630 255 140 0
-0.0301978 0.0378458 0.0124617 255 140 0
-0.0279252 0.0378445 0.0124617 255 140 0
-0.0256392 0.0378426 0.0124633 255 140 0
-0.0233689 0.0378400 0.0124667 255 140 0
-0.0210919 0.0378240 0.0124757 255 140 0
-0.0188047 0.0378211 0.0124815 255 140 0
-0.0165330 0.0378196 0.0124888 255 140 0
-0.0142634 0.0378140 0.0124998 255 140 0
-0.0120205 0.0377949 0.0125155 255 140 0
-0.0097552 0.0377914 0.0125299 255 140 0
-0.0074506 0.0377747 0.0125436 255 140 0
-0.0051500 0.0377438 0.0125580 255 140 0
-0.0028575 0.0377153 0.0125724 255 140 0
-0.0005537 0.0376836 0.0125852 255 140 0
-0.0643449 0.0399605 0.0125809 255 140 0
-0.0620723 0.0400167 0.0125605 255 140 0
-0.0597988 0.0400534 0.0125468 255 140 0
-0.0575027 0.0400897 0.0125380 255 140 0
-0.0552212 0.0401084 0.0125280 255 140 0
-0.0529429 0.0401139 0.0125169 255 140 0
-0.0506480 0.0401180 0.0125091 255 140 0
-0.0483757 0.0401217 0.0124997 255 140 0
-0.0461030 0.0401444 0.0124897 255 140 0
-0.0438183 0.0401457 0.0124784 255 140 0
-0.0415542 0.0401452 0.0124656 255 140 0
-0.0392781 0.0401448 0.0124535 255 140 0
-0.0370431 0.0401527 0.0124362 255 140 0
-0.0347778 0.0401627 0.0124257 255 140 0
-0.0324854 0.0401612 0.0124223 255 140 0
-0.0301974 0.0401593 0.0124206 255 140 0
-0.0279248 0.0401569 0.0124205 255 140 0
-0.0256389 0.0401544 0.0124224 255 140 0
-0.0233681 0.0401514 0.0124265 255 140 0
-0.0210912 0.0401336 0.0124364 255 140 0
-0.0188047 0.0401203 0.0124451 255 140 0
-0.0165336 0.0401173 0.0124544 255 140 0
-0.0142669 0.0401109 0.0124696 255 140 0
-0.0120270 0.0400930 0.0124909 255 140 0
-0.0097653 0.0400916 0.0125093 255 140 0
-0.0074647 0.0400862 0.0125204 255 140 0
-0.0051686 0.0400801 0.0125309 255 140 0
-0.0028812 0.0400532 0.0125478 255 140 0
-0.0005884 0.0400402 0.0125579 255 140 0
0.0017078 0.0400057 0.0125610 255 140 0
-0.0666182 0.0422563 0.0125734 255 140 0
-0.0643048 0.0422936 0.0125599 255 140 0
-0.0620653 0.0423345 0.0125422 255 140 0
-0.0597981 0.0423675 0.0125282 255 140 0
-0.0574953 0.0423897 0.0125292 255 140 0
-0.0552212 0.0424226 0.0125258 255 140 0
-0.0529204 0.0424257 0.0125202 255 140 0
-0.0506478 0.0424277 0.0125148 255 140 0
-0.0483756 0.0424273 0.0125124 255 140 0
-0.0461029 0.0424269 0.0125074 255 140 0
-0.0438174 0.0424275 0.0125018 255 140 0
-0.0415531 0.0424368 0.0124956 255 140 0
-0.0392787 0.0424471 0.0124896 255 140 0
-0.0370428 0.0424463 0.0124814 255 140 0
-0.0347720 0.0424451 0.0124757 255 140 0
-0.0324716 0.0424436 0.0124739 255 140 0
-0.0301974 0.0424420 0.0124733 255 140 0
-0.0279248 0.0424398 0.0124734 255 140 0
-0.0256392 0.0424372 0.0124742 255 140 0
-0.0233681 0.0424342 0.0124755 255 140 0
-0.0210942 0.0424286 0.0124813 255 140 0
-0.0188072 0.0424263 0.0124844 255 140 0
-0.0165434 0.0424118 0.0124863 255 140 0
-0.0142688 0.0423976 0.0124940 255 140 0
-0.0120283 0.0423986 0.0125042 255 140 0
-0.0097687 0.0423981 0.0125131 255 140 0
-0.0074687 0.0423941 0.0125181 255 140 0
-0.0051763 0.0423753 0.0125245 255 140 0
-0.0028942 0.0423649 0.0125334 255 140 0
-0.0006083 0.0423543 0.0125381 255 140 0
0.0016804 0.0423177 0.0125458 255 140 0
0.0039696 0.0422897 0.0125578 255 140 0
0.0062588 0.0422592 0.0125810 255 140 0
-0.0711841 0.0445065 0.0126184 255 140 0
-0.0688906 0.0445363 0.0125886 255 140 0
-0.0666179 0.0445648 0.0125642 255 140 0
-0.0642899 0.0446022 0.0125485 255 140 0
-0.0620450 0.0446287 0.0125322 255 140 0
-0.0597903 0.0446700 0.0125248 255 140 0
-0.0574955 0.0446955 0.0125271 255 140 0
-0.0551940 0.0447108 0.0125270 255 140 0
-0.0529208 0.0447160 0.0125270 255 140 0
-0.0506480 0.0447195 0.0125244 255 140 0
-0.0483758 0.0447301 0.0125210 255 140 0
-0.0461031 0.0447410 0.0125207 255 140 0
-0.0438097 0.0447411 0.0125195 255 140 0
-0.0415495 0.0447409 0.0125166 255 140 0
-0.0392771 0.0447408 0.0125139 255 140 0
-0.0370433 0.0447412 0.0125091 255 140 0
-0.0347726 0.0447406 0.0125059 255 140 0
-0.0324707 0.0447390 0.0125051 255 140 0
-0.0301975 0.0447373 0.0125049 255 140 0
-0.0279249 0.0447347 0.0125050 255 140 0
-0.0256395 0.0447323 0.0125050 255 140 0
-0.0233683 0.0447297 0.0125049 255 140 0
-0.0210943 0.0447238 0.0125109 255 140 0
-0.0188139 0.0447217 0.0125080 255 140 0
-0.0165471 0.0447191 0.0125089 255 140 0
-0.0142700 0.0447145 0.0125119 255 140 0
-0.0120305 0.0446986 0.0125165 255 140 0
-0.0097706 0.0446841 0.0125173 255 140 0
-0.0074726 0.0446798 0.0125210 255 140 0
-0.0051835 0.0446756 0.0125220 255 140 0
-0.0029039 0.0446696 0.0125259 255 140 0
-0.0006221 0.0446387 0.0125310 255 140 0
0.0016611 0.0446209 0.0125357 255 140 0
0.0039488 0.0446005 0.0125487 255 140 0
0.0062378 0.0445616 0.0125598 255 140 0
0.0085238 0.0445450 0.0125683 255 140 0
-0.0734571 0.0468141 0.0126077 255 140 0
-0.0711639 0.0468324 0.0125854 255 140 0
-0.0688913 0.0468638 0.0125630 255 140 0
-0.0665628 0.0468867 0.0125502 255 140 0
-0.0642895 0.0469067 0.0125404 255 140 0
-0.0620446 0.0469418 0.0125311 255 140 0
-0.0597851 0.0469584 0.0125229 255 140 0
-0.0574955 0.0469800 0.0125262 255 140 0
-0.0551934 0.0469934 0.0125241 255 140 0
-0.0529204 0.0469995 0.0125199 255 140 0
-0.0506478 0.0470102 0.0125181 255 140 0
-0.0483756 0.0470159 0.0125143 255 140 0
-0.0460969 0.0470272 0.0125110 255 140 0
-0.0438020 0.0470276 0.0125085 255 140 0
-0.0415426 0.0470276 0.0125084 255 140 0
-0.0392730 0.0470271 0.0125058 255 140 0
-0.0370433 0.0470272 0.0125017 255 140 0
-0.0347728 0.0470264 0.0124991 255 140 0
-0.0324714 0.0470249 0.0124977 255 140 0
-0.0301975 0.0470230 0.0124970 255 140 0
-0.0279249 0.0470203 0.0124967 255 140 0
-0.0256394 0.0470179 0.0124962 255 140 0
-0.0233678 0.0470155 0.0124958 255 140 0
-0.0210941 0.0470096 0.0124990 255 140 0
-0.0188144 0.0470080 0.0124988 255 140 0
-0.0165470 0.0470055 0.0124989 255 140 0
-0.0142725 0.0470011 0.0125006 255 140 0
-0.0120339 0.0469929 0.0125064 255 140 0
-0.0097752 0.0469761 0.0125111 255 140 0
-0.0074764 0.0469640 0.0125121 255 140 0
-0.0051872 0.0469583 0.0125158 255 140 0
-0.0029084 0.0469520 0.0125189 255 140 0
-0.0006284 0.0469428 0.0125214 255 140 0
0.0016533 0.0469283 0.0125253 255 140 0
0.0039386 0.0469010 0.0125313 255 140 0
0.0062245 0.0468752 0.0125427 255 140 0
0.0085070 0.0468551 0.0125525 255 140 0
0.0108062 0.0468074 0.0126050 255 140 0
-0.0757329 0.0490842 0.0126157 255 140 0
-0.0734369 0.0491201 0.0125883 255 140 0
-0.0711634 0.0491422 0.0125660 255 140 0
-0.0688349 0.0491595 0.0125533 255 140 0
-0.0665622 0.0491976 0.0125449 255 140 0
-0.0642894 0.0492171 0.0125418 255 140 0
-0.0620453 0.0492283 0.0125330 255 140 0
-0.0597789 0.0492403 0.0125291 255 140 0
-0.0574960 0.0492572 0.0125281 255 140 0
-0.0551937 0.0492685 0.0125257 255 140 0
-0.0529204 0.0492734 0.0125229 255 140 0
-0.0506479 0.0492765 0.0125186 255 140 0
-0.0483757 0.0492851 0.0125144 255 140 0
-0.0460909 0.0492866 0.0125140 255 140 0
-0.0438018 0.0492873 0.0125114 255 140 0
-0.0415373 0.0492930 0.0125088 255 140 0
-0.0392704 0.0492964 0.0125067 255 140 0
-0.0370436 0.0492960 0.0125035 255 140 0
-0.0347730 0.0492950 0.0125011 255 140 0
-0.0324718 0.0492936 0.0124999 255 140 0
-0.0301974 0.0492917 0.0124989 255 140 0
-0.0279248 0.0492891 0.0124985 255 140 0
-0.0256397 0.0492868 0.0124978 255 140 0
-0.0233681 0.0492846 0.0124971 255 140 0
-0.0210941 0.0492789 0.0125029 255 140 0
-0.0188150 0.0492776 0.0124996 255 140 0
-0.0165469 0.0492765 0.0124998 255 140 0
-0.0142736 0.0492693 0.0125034 255 140 0
-0.0120358 0.0492549 0.0125086 255 140 0
-0.0097775 0.0492486 0.0125110 255 140 0
-0.0074799 0.0492450 0.0125141 255 140 0
-0.0051907 0.0492342 0.0125158 255 140 0
-0.0029127 0.0492295 0.0125208 255 140 0
-0.0006337 0.0492225 0.0125244 255 140 0
0.0016462 0.0492131 0.0125234 255 140 0
0.0039299 0.0492028 0.0125287 255 140 0
0.0062139 0.0491903 0.0125341 255 140 0
0.0084946 0.0491546 0.0125435 255 140 0
0.0107910 0.0491390 0.0125535 255 140 0
0.0130115 0.0490831 0.0125863 255 140 0
0.0152781 0.0490428 0.0126128 255 140 0
-0.0757128 0.0513904 0.0125831 255 140 0
-0.0734374 0.0514104 0.0125638 255 140 0
-0.0711631 0.0514464 0.0125477 255 140 0
-0.0688341 0.0514642 0.0125392 255 140 0
-0.0665620 0.0514828 0.0125333 255 140 0
-0.0642892 0.0515023 0.0125275 255 140 0
-0.0620449 0.0515118 0.0125210 255 140 0
-0.0597746 0.0515225 0.0125149 255 140 0
-0.0574954 0.0515384 0.0125174 255 140 0
-0.0551930 0.0515479 0.0125154 255 140 0
-0.0529200 0.0515514 0.0125112 255 140 0
-0.0506474 0.0515535 0.0125100 255 140 0
-0.0483752 0.0515547 0.0125076 255 140 0
-0.0460863 0.0515560 0.0125051 255 140 0
-0.0438013 0.0515593 0.0125033 255 140 0
-0.0415344 0.0515599 0.0125014 255 140 0
-0.0392687 0.0515592 0.0125021 255 140 0
-0.0370432 0.0515588 0.0124993 255 140 0
-0.0347729 0.0515578 0.0124971 255 140 0
-0.0324715 0.0515563 0.0124961 255 140 0
-0.0301972 0.0515545 0.0124953 255 140 0
-0.0279244 0.0515521 0.0124949 255 140 0
-0.0256392 0.0515497 0.0124940 255 140 0
-0.0233677 0.0515473 0.0124931 255 140 0
-0.0210937 0.0515418 0.0124956 255 140 0
-0.0188149 0.0515407 0.0124946 255 140 0
-0.0165465 0.0515398 0.0124914 255 140 0
-0.0142738 0.0515363 0.0124939 255 140 0
-0.0120364 0.0515277 0.0124976 255 140 0
-0.0097788 0.0515195 0.0125012 255 140 0
-0.0074807 0.0515173 0.0125012 255 140 0
-0.0051933 0.0515151 0.0125055 255 140 0
-0.0029151 0.0515128 0.0125084 255 140 0
-0.0006379 0.0515080 0.0125124 255 140 0
0.0016403 0.0515021 0.0125123 255 140 0
0.0039228 0.0514989 0.0125169 255 140 0
0.0062058 0.0514943 0.0125197 255 140 0
0.0084848 0.0514765 0.0125264 255 140 0
0.0107745 0.0514581 0.0125362 255 140 0
0.0130106 0.0513952 0.0125626 255 140 0
0.0152856 0.0513638 0.0125809 255 140 0
0.0176491 0.0513583 0.0125932 255 140 0
-0.0780150 0.0536396 0.0125959 255 140 0
-0.0757125 0.0536611 0.0125837 255 140 0
-0.0734371 0.0536975 0.0125671 255 140 0
-0.0711066 0.0537147 0.0125586 255 140 0
-0.0688337 0.0537314 0.0125503 255 140 0
-0.0665618 0.0537470 0.0125447 255 140 0
-0.0642894 0.0537633 0.0125379 255 140 0
-0.0620453 0.0537741 0.0125312 255 140 0
-0.0597743 0.0537887 0.0125271 255 140 0
-0.0574921 0.0538046 0.0125270 255 140 0
-0.0551936 0.0538137 0.0125252 255 140 0
-0.0529204 0.0538165 0.0125240 255 140 0
-0.0506479 0.0538193 0.0125209 255 140 0
-0.0483756 0.0538198 0.0125182 255 140 0
-0.0460820 0.0538232 0.0125164 255 140 0
-0.0438015 0.0538272 0.0125174 255 140 0
-0.0415316 0.0538276 0.0125159 255 140 0
-0.0392671 0.0538266 0.0125146 255 140 0
-0.0370440 0.0538259 0.0125120 255 140 0
-0.0347738 0.0538241 0.0125102 255 140 0
-0.0324723 0.0538226 0.0125094 255 140 0
-0.0301973 0.0538206 0.0125089 255 140 0
-0.0279246 0.0538181 0.0125088 255 140 0
-0.0256394 0.0538156 0.0125080 255 140 0
-0.0233677 0.0538133 0.0125069 255 140 0
-0.0210937 0.0538082 0.0125092 255 140 0
-0.0188146 0.0538075 0.0125078 255 140 0
-0.0165465 0.0538059 0.0125071 255 140 0
-0.0142740 0.0538028 0.0125068 255 140 0
-0.0120375 0.0537973 0.0125095 255 140 0
-0.0097807 0.0537937 0.0125122 255 140 0
-0.0074824 0.0537884 0.0125118 255 140 0
-0.0051942 0.0537811 0.0125157 255 140 0
-0.0029168 0.0537779 0.0125211 255 140 0
-0.0006403 0.0537734 0.0125225 255 140 0
0.0016372 0.0537634 0.0125253 255 140 0
0.0039189 0.0537640 0.0125279 255 140 0
0.0062012 0.0537649 0.0125317 255 140 0
0.0084780 0.0537540 0.0125398 255 140 0
0.0107633 0.0537389 0.0125463 255 140 0
0.0130065 0.0536878 0.0125663 255 140 0
0.0152837 0.0536546 0.0125826 255 140 0
0.0176262 0.0536445 0.0125961 255 140 0
-0.0803222 0.0558790 0.0126172 255 140 0
-0.0779888 0.0559097 0.0125923 255 140 0
-0.0757125 0.0559498 0.0125738 255 140 0
-0.0734362 0.0559674 0.0125601 255 140 0
-0.0711055 0.0559821 0.0125529 255 140 0
-0.0688333 0.0559963 0.0125445 255 140 0
-0.0665613 0.0560129 0.0125370 255 140 0
-0.0642889 0.0560349 0.0125308 255 140 0
-0.0620451 0.0560510 0.0125184 255 140 0
-0.0597739 0.0560595 0.0125134 255 140 0
-0.0574898 0.0560749 0.0125138 255 140 0
-0.0551936 0.0560836 0.0125129 255 140 0
-0.0529205 0.0560856 0.0125129 255 140 0
-0.0506479 0.0560868 0.0125109 255 140 0
-0.0483754 0.0560864 0.0125092 255 140 0
-0.0460791 0.0560857 0.0125112 255 140 0
-0.0438015 0.0560843 0.0125111 255 140 0
-0.0415297 0.0560828 0.0125105 255 140 0
-0.0392656 0.0560811 0.0125103 255 140 0
-0.0370439 0.0560789 0.0125090 255 140 0
-0.0347744 0.0560773 0.0125077 255 140 0
-0.0324726 0.0560752 0.0125076 255 140 0
-0.0301975 0.0560729 0.0125076 255 140 0
-0.0279246 0.0560700 0.0125077 255 140 0
-0.0256392 0.0560679 0.0125066 255 140 0
-0.0233675 0.0560656 0.0125056 255 140 0
-0.0210933 0.0560604 0.0125098 255 140 0
-0.0188137 0.0560591 0.0125063 255 140 0
-0.0165460 0.0560576 0.0125060 255 140 0
-0.0142738 0.0560538 0.0125076 255 140 0
-0.0120378 0.0560489 0.0125060 255 140 0
-0.0097815 0.0560458 0.0125081 255 140 0
-0.0074830 0.0560445 0.0125095 255 140 0
-0.0051942 0.0560432 0.0125095 255 140 0
-0.0029180 0.0560425 0.0125130 255 140 0
-0.0006410 0.0560397 0.0125139 255 140 0
0.0016363 0.0560367 0.0125162 255 140 0
0.0039177 0.0560308 0.0125195 255 140 0
0.0061993 0.0560326 0.0125275 255 140 0
0.0084731 0.0560232 0.0125343 255 140 0
0.0107556 0.0560158 0.0125413 255 140 0
0.0129998 0.0559890 0.0125540 255 140 0
0.0152745 0.0559597 0.0125658 255 140 0
0.0176046 0.0559387 0.0125761 255 140 0
0.0199323 0.0559233 0.0125872 255 140 0
-0.0825766 0.0581534 0.0126945 255 140 0
-0.0802987 0.0581771 0.0126587 255 140 0
-0.0779888 0.0582023 0.0126305 255 140 0
-0.0757122 0.0582364 0.0126109 255 140 0
-0.0733797 0.0582484 0.0125964 255 140 0
-0.0711054 0.0582600 0.0125888 255 140 0
-0.0688328 0.0582709 0.0125807 255 140 0
-0.0665606 0.0582831 0.0125736 255 140 0
-0.0642883 0.0583015 0.0125685 255 140 0
-0.0620457 0.0583156 0.0125587 255 140 0
-0.0597735 0.0583220 0.0125553 255 140 0
-0.0574858 0.0583375 0.0125564 255 140 0
-0.0551935 0.0583456 0.0125564 255 140 0
-0.0529203 0.0583481 0.0125558 255 140 0
-0.0506477 0.0583498 0.0125532 255 140 0
-0.0483752 0.0583495 0.0125513 255 140 0
-0.0460789 0.0583489 0.0125528 255 140 0
-0.0438012 0.0583483 0.0125518 255 140 0
-0.0415310 0.0583473 0.0125510 255 140 0
-0.0392672 0.0583464 0.0125501 255 140 0
-0.0370442 0.0583458 0.0125479 255 140 0
-0.0347750 0.0583446 0.0125464 255 140 0
-0.0324730 0.0583431 0.0125454 255 140 0
-0.0301970 0.0583412 0.0125448 255 140 0
-0.0279242 0.0583390 0.0125446 255 140 0
-0.0256390 0.0583370 0.0125438 255 140 0
-0.0233673 0.0583349 0.0125427 255 140 0
-0.0210932 0.0583292 0.0125478 255 140 0
-0.0188144 0.0583288 0.0125436 255 140 0
-0.0165459 0.0583273 0.0125428 255 140 0
-0.0142739 0.0583236 0.0125448 255 140 0
-0.0120377 0.0583199 0.0125440 255 140 0
-0.0097813 0.0583168 0.0125460 255 140 0
-0.0074831 0.0583155 0.0125477 255 140 0
-0.0051940 0.0583149 0.0125476 255 140 0
-0.0029180 0.0583141 0.0125517 255 140 0
-0.0006418 0.0583125 0.0125515 255 140 0
0.0016352 0.0583100 0.0125542 255 140 0
0.0039162 0.0583050 0.0125578 255 140 0
0.0061971 0.0583083 0.0125635 255 140 0
0.0084717 0.0583035 0.0125740 255 140 0
0.0107505 0.0582992 0.0125827 255 140 0
0.0129941 0.0582784 0.0125969 255 140 0
0.0152670 0.0582594 0.0126108 255 140 0
0.0175871 0.0582339 0.0126189 255 140 0
0.0199089 0.0582204 0.0126357 255 140 0
0.0222354 0.0582043 0.0126563 255 140 0
-0.0825759 0.0604967 0.0127548 255 140 0
-0.0802653 0.0605184 0.0127276 255 140 0
-0.0779889 0.0605319 0.0127086 255 140 0
-0.0757107 0.0605420 0.0126942 255 140 0
-0.0733798 0.0605567 0.0126813 255 140 0
-0.0711054 0.0605751 0.0126744 255 140 0
-0.0688329 0.0605833 0.0126669 255 140 0
-0.0665611 0.0605918 0.0126620 255 140 0
-0.0642887 0.0606022 0.0126587 255 140 0
-0.0620454 0.0606044 0.0126524 255 140 0
-0.0597738 0.0606096 0.0126507 255 140 0
-0.0574751 0.0606248 0.0126517 255 140 0
-0.0551927 0.0606339 0.0126512 255 140 0
-0.0529196 0.0606362 0.0126516 255 140 0
-0.0506469 0.0606379 0.0126500 255 140 0
-0.0483745 0.0606388 0.0126488 255 140 0
-0.0460820 0.0606387 0.0126502 255 140 0
-0.0438006 0.0606379 0.0126503 255 140 0
-0.0415351 0.0606372 0.0126499 255 140 0
-0.0392705 0.0606374 0.0126493 255 140 0
-0.0370438 0.0606375 0.0126475 255 140 0
-0.0347747 0.0606386 0.0126462 255 140 0
-0.0324720 0.0606403 0.0126455 255 140 0
-0.0301967 0.0606391 0.0126454 255 140 0
-0.0279239 0.0606377 0.0126457 255 140 0
-0.0256396 0.0606366 0.0126455 255 140 0
-0.0233669 0.0606354 0.0126451 255 140 0
-0.0210926 0.0606316 0.0126478 255 140 0
-0.0188159 0.0606314 0.0126468 255 140 0
-0.0165451 0.0606311 0.0126462 255 140 0
-0.0142739 0.0606287 0.0126457 255 140 0
-0.0120367 0.0606251 0.0126480 255 140 0
-0.0097792 0.0606228 0.0126503 255 140 0
-0.0074825 0.0606233 0.0126493 255 140 0
-0.0051951 0.0606228 0.0126518 255 140 0
-0.0029188 0.0606235 0.0126548 255 140 0
-0.0006425 0.0606185 0.0126543 255 140 0
0.0016341 0.0606164 0.0126556 255 140 0
0.0039149 0.0606236 0.0126577 255 140 0
0.0061950 0.0606344 0.0126612 255 140 0
0.0084671 0.0606373 0.0126676 255 140 0
0.0107466 0.0606373 0.0126773 255 140 0
0.0129911 0.0606202 0.0126921 255 140 0
0.0152620 0.0605943 0.0127055 255 140 0
0.0175683 0.0605885 0.0127121 255 140 0
0.0198861 0.0605839 0.0127239 255 140 0
0.0222021 0.0605784 0.0127409 255 140 0
-0.0848723 0.0629952 0.0129065 255 140 0
-0.0825729 0.0630186 0.0128657 255 140 0
-0.0802663 0.0630177 0.0128352 255 140 0
-0.0779891 0.0630228 0.0128161 255 140 0
-0.0756553 0.0630254 0.0127974 255 140 0
-0.0733785 0.0630289 0.0127776 255 140 0
-0.0711041 0.0630348 0.0127657 255 140 0
-0.0688318 0.0630414 0.0127545 255 140 0
-0.0665602 0.0630513 0.0127474 255 140 0
-0.0642877 0.0630633 0.0127427 255 140 0
-0.0620453 0.0630788 0.0127355 255 140 0
-0.0597841 0.0631012 0.0127338 255 140 0
-0.0574928 0.0630960 0.0127355 255 140 0
-0.0551925 0.0631034 0.0127357 255 140 0
-0.0529193 0.0631063 0.0127363 255 140 0
-0.0506467 0.0631090 0.0127346 255 140 0
-0.0483743 0.0631105 0.0127333 255 140 0
-0.0460736 0.0631105 0.0127352 255 140 0
-0.0438002 0.0631101 0.0127351 255 140 0
-0.0415279 0.0631098 0.0127351 255 140 0
-0.0392562 0.0631098 0.0127350 255 140 0
-0.0370438 0.0631103 0.0127343 255 140 0
-0.0347807 0.0631099 0.0127337 255 140 0
-0.0324857 0.0631095 0.0127325 255 140 0
-0.0301961 0.0631089 0.0127317 255 140 0
-0.0279230 0.0631085 0.0127317 255 140 0
-0.0256371 0.0631082 0.0127313 255 140 0
-0.0233660 0.0631082 0.0127304 255 140 0
-0.0210914 0.0631040 0.0127329 255 140 0
-0.0188068 0.0631055 0.0127324 255 140 0
-0.0165433 0.0630996 0.0127331 255 140 0
-0.0142702 0.0630992 0.0127334 255 140 0
-0.0120386 0.0631001 0.0127371 255 140 0
-0.0097847 0.0631022 0.0127401 255 140 0
-0.0074832 0.0631060 0.0127395 255 140 0
-0.0051934 0.0631081 0.0127423 255 140 0
-0.0029167 0.0631134 0.0127439 255 140 0
-0.0006399 0.0631158 0.0127468 255 140 0
0.0016370 0.0631186 0.0127494 255 140 0
0.0039180 0.0631297 0.0127547 255 140 0
0.0061993 0.0631442 0.0127625 255 140 0
0.0084700 0.0631500 0.0127732 255 140 0
0.0107487 0.0631519 0.0127878 255 140 0
0.0129862 0.0631490 0.0128110 255 140 0
0.0152517 0.0631481 0.0128319 255 140 0
0.0175665 0.0631538 0.0128455 255 140 0
0.0198764 0.0631559 0.0128646 255 140 0
0.0221947 0.0631311 0.0128890 255 140 0
0.0245170 0.0631476 0.0129085 255 140 0
-0.0848727 0.0654587 0.0130834 255 140 0
-0.0825465 0.0654700 0.0130463 255 140 0
-0.0802649 0.0654895 0.0130205 255 140 0
-0.0779873 0.0654878 0.0130028 255 140 0
-0.0756543 0.0654897 0.0129826 255 140 0
-0.0733767 0.0654933 0.0129654 255 140 0
-0.0711024 0.0654971 0.0129541 255 140 0
-0.0688302 0.0655021 0.0129443 255 140 0
-0.0665586 0.0655130 0.0129390 255 140 0
-0.0642862 0.0655245 0.0129364 255 140 0
-0.0620441 0.0655276 0.0129314 255 140 0
-0.0597937 0.0655326 0.0129313 255 140 0
-0.0574941 0.0655450 0.0129346 255 140 0
-0.0551912 0.0655522 0.0129364 255 140 0
-0.0529181 0.0655564 0.0129383 255 140 0
-0.0506454 0.0655604 0.0129376 255 140 0
-0.0483727 0.0655629 0.0129372 255 140 0
-0.0460717 0.0655641 0.0129375 255 140 0
-0.0437985 0.0655655 0.0129405 255 140 0
-0.0415261 0.0655674 0.0129415 255 140 0
-0.0392536 0.0655694 0.0129424 255 140 0
-0.0370426 0.0655706 0.0129427 255 140 0
-0.0347890 0.0655720 0.0129431 255 140 0
-0.0324968 0.0655732 0.0129428 255 140 0
-0.0301943 0.0655748 0.0129434 255 140 0
-0.0279208 0.0655769 0.0129448 255 140 0
-0.0256347 0.0655798 0.0129454 255 140 0
-0.0233632 0.0655829 0.0129461 255 140 0
-0.0210887 0.0655822 0.0129497 255 140 0
-0.0187998 0.0655874 0.0129507 255 140 0
-0.0165408 0.0655941 0.0129504 255 140 0
-0.0142662 0.0655999 0.0129550 255 140 0
-0.0120391 0.0656068 0.0129602 255 140 0
-0.0097868 0.0656139 0.0129645 255 140 0
-0.0074819 0.0656209 0.0129657 255 140 0
-0.0051906 0.0656283 0.0129698 255 140 0
-0.0029135 0.0656377 0.0129725 255 140 0
-0.0006366 0.0656456 0.0129763 255 140 0
0.0016404 0.0656533 0.0129785 255 140 0
0.0039221 0.0656693 0.0129857 255 140 0
0.0062033 0.0656890 0.0129937 255 140 0
0.0084733 0.0656989 0.0130043 255 140 0
0.0107507 0.0657063 0.0130169 255 140 0
0.0129835 0.0657189 0.0130398 255 140 0
0.0152472 0.0657310 0.0130637 255 140 0
0.0175573 0.0657188 0.0130789 255 140 0
0.0198773 0.0657331 0.0131008 255 140 0
0.0221851 0.0657495 0.0131294 255 140 0
0.0245143 0.0657459 0.0131589 255 140 0
-0.0848731 0.0681211 0.0131832 255 140 0
-0.0825402 0.0681115 0.0131554 255 140 0
-0.0802650 0.0681204 0.0131329 255 140 0
-0.0779627 0.0681308 0.0131192 255 140 0
-0.0756532 0.0681356 0.0131066 255 140 0
-0.0733753 0.0681351 0.0130934 255 140 0
-0.0711010 0.0681354 0.0130877 255 140 0
-0.0688282 0.0681385 0.0130841 255 140 0
-0.0665566 0.0681474 0.0130831 255 140 0
-0.0642843 0.0681562 0.0130838 255 140 0
-0.0620418 0.0681586 0.0130819 255 140 0
-0.0597920 0.0681617 0.0130837 255 140 0
-0.0574910 0.0681673 0.0130862 255 140 0
-0.0551891 0.0681714 0.0130875 255 140 0
-0.0529159 0.0681755 0.0130897 255 140 0
-0.0506432 0.0681801 0.0130899 255 140 0
-0.0483708 0.0681827 0.0130901 255 140 0
-0.0460700 0.0681816 0.0130897 255 140 0
-0.0437966 0.0681797 0.0130914 255 140 0
-0.0415241 0.0681812 0.0130916 255 140 0
-0.0392517 0.0681830 0.0130918 255 140 0
-0.0370406 0.0681866 0.0130911 255 140 0
-0.0347854 0.0681876 0.0130905 255 140 0
-0.0324931 0.0681841 0.0130893 255 140 0
-0.0301919 0.0681835 0.0130893 255 140 0
-0.0279179 0.0681866 0.0130905 255 140 0
-0.0256319 0.0681877 0.0130906 255 140 0
-0.0233600 0.0681878 0.0130902 255 140 0
-0.0210853 0.0681870 0.0130930 255 140 0
-0.0187985 0.0681920 0.0130933 255 140 0
-0.0165373 0.0681964 0.0130912 255 140 0
-0.0142640 0.0681974 0.0130931 255 140 0
-0.0120358 0.0681973 0.0130943 255 140 0
-0.0097834 0.0681991 0.0130957 255 140 0
-0.0074793 0.0682023 0.0130950 255 140 0
-0.0051871 0.0682062 0.0130972 255 140 0
-0.0029101 0.0682158 0.0130984 255 140 0
-0.0006333 0.0682213 0.0130998 255 140 0
0.0016437 0.0682262 0.0130977 255 140 0
0.0039255 0.0682349 0.0131001 255 140 0
0.0062061 0.0682470 0.0131014 255 140 0
0.0084778 0.0682544 0.0131045 255 140 0
0.0107512 0.0682469 0.0131099 255 140 0
0.0129836 0.0682457 0.0131214 255 140 0
0.0152454 0.0682414 0.0131359 255 140 0
0.0175610 0.0682481 0.0131462 255 140 0
0.0198677 0.0682567 0.0131615 255 140 0
0.0221738 0.0682669 0.0131811 255 140 0
0.0244988 0.0682784 0.0132036 255 140 0
0.0268448 0.0682665 0.0132324 255 140 0
-0.0872060 0.0707139 0.0133354 255 140 0
-0.0848692 0.0707029 0.0132763 255 140 0
-0.0825410 0.0706888 0.0132477 255 140 0
-0.0802647 0.0706819 0.0132274 255 140 0
-0.0779298 0.0706804 0.0132163 255 140 0
-0.0756527 0.0706776 0.0132068 255 140 0
-0.0733741 0.0706753 0.0131996 255 140 0
-0.0710988 0.0706759 0.0131966 255 140 0
-0.0688263 0.0706796 0.0131946 255 140 0
-0.0665550 0.0706863 0.0131953 255 140 0
-0.0642828 0.0706951 0.0131949 255 140 0
-0.0620412 0.0707013 0.0131959 255 140 0
-0.0597949 0.0707054 0.0131957 255 140 0
-0.0574897 0.0707057 0.0132002 255 140 0
-0.0551883 0.0707064 0.0132015 255 140 0
-0.0529147 0.0707101 0.0132014 255 140 0
-0.0506419 0.0707122 0.0132034 255 140 0
-0.0483693 0.0707134 0.0132030 255 140 0
-0.0460688 0.0707124 0.0132023 255 140 0
-0.0437953 0.0707109 0.0132015 255 140 0
-0.0415231 0.0707127 0.0132015 255 140 0
-0.0392503 0.0707152 0.0132016 255 140 0
-0.0370399 0.0707180 0.0132005 255 140 0
-0.0347958 0.0707184 0.0132008 255 140 0
-0.0324915 0.0707144 0.0131997 255 140 0
-0.0301902 0.0707136 0.0131996 255 140 0
-0.0279158 0.0707172 0.0132005 255 140 0
-0.0256293 0.0707176 0.0132001 255 140 0
-0.0233574 0.0707168 0.0131969 255 140 0
-0.0210826 0.0707141 0.0132011 255 140 0
-0.0187933 0.0707193 0.0131984 255 140 0
-0.0165341 0.0707222 0.0131977 255 140 0
-0.0142593 0.0707216 0.0131987 255 140 0
-0.0120352 0.0707192 0.0131982 255 140 0
-0.0097837 0.0707188 0.0131962 255 140 0
-0.0074763 0.0707177 0.0131971 255 140 0
-0.0051834 0.0707215 0.0131966 255 140 0
-0.0029062 0.0707283 0.0131990 255 140 0
-0.0006291 0.0707332 0.0131970 255 140 0
0.0016485 0.0707348 0.0131956 255 140 0
0.0039304 0.0707400 0.0131940 255 140 0
0.0062120 0.0707460 0.0131954 255 140 0
0.0084821 0.0707523 0.0131966 255 140 0
0.0107555 0.0707572 0.0131994 255 140 0
0.0129837 0.0707571 0.0132058 255 140 0
0.0152414 0.0707574 0.0132131 255 140 0
0.0175520 0.0707589 0.0132190 255 140 0
0.0198658 0.0707620 0.0132290 255 140 0
0.0221643 0.0707673 0.0132413 255 140 0
0.0244900 0.0707679 0.0132583 255 140 0
0.0268336 0.0707401 0.0132796 255 140 0
-0.0872055 0.0730274 0.0133536 255 140 0
-0.0848687 0.0729984 0.0133128 255 140 0
-0.0825415 0.0729922 0.0132807 255 140 0
-0.0802655 0.0729881 0.0132593 255 140 0
-0.0779302 0.0729856 0.0132497 255 140 0
-0.0756521 0.0729841 0.0132419 255 140 0
-0.0733740 0.0729834 0.0132357 255 140 0
-0.0710985 0.0729851 0.0132316 255 140 0
-0.0688257 0.0729868 0.0132323 255 140 0
-0.0665544 0.0729935 0.0132331 255 140 0
-0.0642819 0.0730022 0.0132328 255 140 0
-0.0620409 0.0729988 0.0132327 255 140 0
-0.0597947 0.0730003 0.0132322 255 140 0
-0.0574892 0.0730067 0.0132373 255 140 0
-0.0551875 0.0730119 0.0132389 255 140 0
-0.0529143 0.0730163 0.0132388 255 140 0
-0.0506414 0.0730178 0.0132381 255 140 0
-0.0483677 0.0730160 0.0132392 255 140 0
-0.0460683 0.0730165 0.0132389 255 140 0
-0.0437946 0.0730173 0.0132389 255 140 0
-0.0415226 0.0730194 0.0132390 255 140 0
-0.0392500 0.0730215 0.0132392 255 140 0
-0.0370397 0.0730209 0.0132368 255 140 0
-0.0347959 0.0730204 0.0132354 255 140 0
-0.0324914 0.0730204 0.0132353 255 140 0
-0.0301900 0.0730213 0.0132356 255 140 0
-0.0279154 0.0730240 0.0132363 255 140 0
-0.0256283 0.0730245 0.0132360 255 140 0
-0.0233568 0.0730230 0.0132349 255 140 0
-0.0210801 0.0730185 0.0132362 255 140 0
-0.0187928 0.0730202 0.0132350 255 140 0
-0.0165271 0.0730250 0.0132344 255 140 0
-0.0142562 0.0730271 0.0132341 255 140 0
-0.0120373 0.0730253 0.0132341 255 140 0
-0.0097889 0.0730248 0.0132347 255 140 0
-0.0074781 0.0730243 0.0132348 255 140 0
-0.0051823 0.0730250 0.0132365 255 140 0
-0.0029049 0.0730281 0.0132363 255 140 0
-0.0006277 0.0730299 0.0132363 255 140 0
0.0016504 0.0730337 0.0132336 255 140 0
0.0039334 0.0730406 0.0132354 255 140 0
0.0062156 0.0730524 0.0132365 255 140 0
0.0084838 0.0730597 0.0132387 255 140 0
0.0107566 0.0730652 0.0132415 255 140 0
0.0129790 0.0730631 0.0132485 255 140 0
0.0152332 0.0730641 0.0132535 255 140 0
0.0175516 0.0730621 0.0132577 255 140 0
0.0198579 0.0730622 0.0132634 255 140 0
0.0221626 0.0730703 0.0132709 255 140 0
0.0244821 0.0730728 0.0132766 255 140 0
0.0268203 0.0730498 0.0132792 255 140 0
-0.0871699 0.0752744 0.0133497 255 140 0
-0.0848716 0.0752626 0.0133123 255 140 0
-0.0825425 0.0752592 0.0132877 255 140 0
-0.0802653 0.0752566 0.0132698 255 140 0
-0.0779302 0.0752532 0.0132603 255 140 0
-0.0756522 0.0752529 0.0132538 255 140 0
-0.0733735 0.0752553 0.0132468 255 140 0
-0.0710973 0.0752541 0.0132454 255 140 0
-0.0688245 0.0752555 0.0132442 255 140 0
-0.0665536 0.0752605 0.0132457 255 140 0
-0.0642814 0.0752689 0.0132484 255 140 0
-0.0620411 0.0752646 0.0132467 255 140 0
-0.0597950 0.0752644 0.0132487 255 140 0
-0.0574894 0.0752737 0.0132523 255 140 0
-0.0551875 0.0752795 0.0132539 255 140 0
-0.0529141 0.0752812 0.0132551 255 140 0
-0.0506414 0.0752821 0.0132543 255 140 0
-0.0483678 0.0752811 0.0132536 255 140 0
-0.0460679 0.0752826 0.0132537 255 140 0
-0.0437941 0.0752850 0.0132538 255 140 0
-0.0415222 0.0752852 0.0132557 255 140 0
-0.0392496 0.0752866 0.0132553 255 140 0
-0.0370398 0.0752852 0.0132526 255 140 0
-0.0347959 0.0752852 0.0132511 255 140 0
-0.0324912 0.0752876 0.0132517 255 140 0
-0.0301895 0.0752893 0.0132521 255 140 0
-0.0279149 0.0752902 0.0132523 255 140 0
-0.0256280 0.0752909 0.0132520 255 140 0
-0.0233565 0.0752907 0.0132513 255 140 0
-0.0210800 0.0752855 0.0132525 255 140 0
-0.0187922 0.0752861 0.0132503 255 140 0
-0.0165267 0.0752914 0.0132479 255 140 0
-0.0142555 0.0752942 0.0132491 255 140 0
-0.0120376 0.0752944 0.0132493 255 140 0
-0.0097887 0.0752962 0.0132472 255 140 0
-0.0074784 0.0752963 0.0132477 255 140 0
-0.0051824 0.0752975 0.0132459 255 140 0
-0.0029045 0.0752982 0.0132464 255 140 0
-0.0006272 0.0753010 0.0132432 255 140 0
0.0016507 0.0753039 0.0132415 255 140 0
0.0039340 0.0753138 0.0132398 255 140 0
0.0062159 0.0753250 0.0132412 255 140 0
0.0084837 0.0753340 0.0132408 255 140 0
0.0107570 0.0753400 0.0132416 255 140 0
0.0129786 0.0753369 0.0132443 255 140 0
0.0152314 0.0753356 0.0132484 255 140 0
0.0175501 0.0753327 0.0132518 255 140 0
0.0198583 0.0753342 0.0132573 255 140 0
0.0221505 0.0753426 0.0132655 255 140 0
0.0244684 0.0753504 0.0132725 255 140 0
0.0267958 0.0753575 0.0132795 255 140 0
0.0291568 0.0753545 0.0132838 255 140 0
-0.0895012 0.0774074 0.0133351 255 140 0
-0.0871618 0.0774090 0.0132928 255 140 0
-0.0848469 0.0774360 0.0132587 255 140 0
-0.0825435 0.0774317 0.0132393 255 140 0
-0.0802606 0.0774284 0.0132253 255 140 0
-0.0779295 0.0774214 0.0132132 255 140 0
-0.0756520 0.0774208 0.0132068 255 140 0
-0.0733735 0.0774212 0.0132039 255 140 0
-0.0710983 0.0774175 0.0131979 255 140 0
-0.0688251 0.0774150 0.0131990 255 140 0
-0.0665540 0.0774210 0.0132006 255 140 0
-0.0642819 0.0774296 0.0132035 255 140 0
-0.0620413 0.0774280 0.0132051 255 140 0
-0.0597951 0.0774274 0.0132032 255 140 0
-0.0574891 0.0774391 0.0132080 255 140 0
-0.0551876 0.0774409 0.0132102 255 140 0
-0.0529143 0.0774394 0.0132096 255 140 0
-0.0506413 0.0774375 0.0132069 255 140 0
-0.0483677 0.0774391 0.0132074 255 140 0
-0.0460678 0.0774419 0.0132108 255 140 0
-0.0437942 0.0774449 0.0132118 255 140 0
-0.0415222 0.0774438 0.0132114 255 140 0
-0.0392496 0.0774402 0.0132084 255 140 0
-0.0370400 0.0774417 0.0132063 255 140 0
-0.0347962 0.0774434 0.0132057 255 140 0
-0.0324915 0.0774475 0.0132072 255 140 0
-0.0301900 0.0774495 0.0132078 255 140 0
-0.0279155 0.0774461 0.0132051 255 140 0
-0.0256286 0.0774475 0.0132055 255 140 0
-0.0233571 0.0774508 0.0132063 255 140 0
-0.0210810 0.0774417 0.0132032 255 140 0
-0.0187923 0.0774428 0.0132018 255 140 0
-0.0165275 0.0774473 0.0131996 255 140 0
-0.0142564 0.0774470 0.0131984 255 140 0
-0.0120386 0.0774519 0.0132003 255 140 0
-0.0097901 0.0774532 0.0131990 255 140 0
-0.0074797 0.0774559 0.0131976 255 140 0
-0.0051838 0.0774548 0.0131958 255 140 0
-0.0029058 0.0774571 0.0131946 255 140 0
-0.0006288 0.0774575 0.0131919 255 140 0
0.0016490 0.0774635 0.0131894 255 140 0
0.0039326 0.0774802 0.0131939 255 140 0
0.0062134 0.0775011 0.0131973 255 140 0
0.0084822 0.0775134 0.0131986 255 140 0
0.0107555 0.0775237 0.0132003 255 140 0
0.0129761 0.0775096 0.0131971 255 140 0
0.0152284 0.0775018 0.0131953 255 140 0
0.0175448 0.0775051 0.0132004 255 140 0
0.0198543 0.0775064 0.0132062 255 140 0
0.0221465 0.0775169 0.0132154 255 140 0
0.0244524 0.0775249 0.0132246 255 140 0
0.0267742 0.0775339 0.0132363 255 140 0
0.0291344 0.0775211 0.0132377 255 140 0
-0.0894777 0.0798551 0.0133806 255 140 0
-0.0871540 0.0798574 0.0133378 255 140 0
-0.0848697 0.0798516 0.0133064 255 140 0
-0.0825428 0.0798488 0.0132936 255 140 0
-0.0802367 0.0798505 0.0132848 255 140 0
-0.0779298 0.0798513 0.0132761 255 140 0
-0.0756518 0.0798634 0.0132671 255 140 0
-0.0733729 0.0798600 0.0132629 255 140 0
-0.0710975 0.0798581 0.0132618 255 140 0
-0.0688245 0.0798573 0.0132611 255 140 0
-0.0665535 0.0798624 0.0132632 255 140 0
-0.0642813 0.0798701 0.0132641 255 140 0
-0.0620413 0.0798717 0.0132665 255 140 0
-0.0597950 0.0798759 0.0132673 255 140 0
-0.0574890 0.0798810 0.0132722 255 140 0
-0.0551873 0.0798850 0.0132735 255 140 0
-0.0529139 0.0798857 0.0132725 255 140 0
-0.0506412 0.0798879 0.0132722 255 140 0
-0.0483673 0.0798905 0.0132745 255 140 0
-0.0460675 0.0798913 0.0132743 255 140 0
-0.0437938 0.0798899 0.0132737 255 140 0
-0.0415218 0.0798891 0.0132731 255 140 0
-0.0392492 0.0798878 0.0132723 255 140 0
-0.0370400 0.0798924 0.0132707 255 140 0
-0.0347961 0.0798950 0.0132697 255 140 0
-0.0324913 0.0798939 0.0132693 255 140 0
-0.0301893 0.0798929 0.0132691 255 140 0
-0.0279146 0.0798923 0.0132691 255 140 0
-0.0256275 0.0798930 0.0132687 255 140 0
-0.0233559 0.0798945 0.0132682 255 140 0
-0.0210760 0.0798920 0.0132699 255 140 0
-0.0187907 0.0798940 0.0132686 255 140 0
-0.0165241 0.0798953 0.0132670 255 140 0
-0.0142542 0.0798940 0.0132651 255 140 0
-0.0120381 0.0798957 0.0132653 255 140 0
-0.0097898 0.0798979 0.0132654 255 140 0
-0.0074783 0.0798989 0.0132632 255 140 0
-0.0051820 0.0799008 0.0132635 255 140 0
-0.0029040 0.0799063 0.0132623 255 140 0
-0.0006266 0.0799101 0.0132612 255 140 0
0.0016513 0.0799143 0.0132566 255 140 0
0.0039347 0.0799215 0.0132554 255 140 0
0.0062160 0.0799324 0.0132530 255 140 0
0.0084844 0.0799405 0.0132513 255 140 0
0.0107577 0.0799481 0.0132509 255 140 0
0.0129771 0.0799389 0.0132511 255 140 0
0.0152296 0.0799333 0.0132546 255 140 0
0.0175452 0.0799376 0.0132587 255 140 0
0.0198539 0.0799412 0.0132636 255 140 0
0.0221490 0.0799459 0.0132670 255 140 0
0.0244548 0.0799401 0.0132751 255 140 0
0.0267742 0.0799254 0.0132846 255 140 0
0.0291334 0.0799145 0.0132885 255 140 0
-0.0894518 0.0821842 0.0134145 255 140 0
-0.0871509 0.0822050 0.0133721 255 140 0
-0.0848686 0.0822034 0.0133428 255 140 0
-0.0825426 0.0821997 0.0133353 255 140 0
-0.0802070 0.0821968 0.0133260 255 140 0
-0.0779296 0.0821905 0.0133143 255 140 0
-0.0756517 0.0821866 0.0133075 255 140 0
-0.0733722 0.0821802 0.0132987 255 140 0
-0.0710971 0.0821797 0.0132976 255 140 0
-0.0688232 0.0821834 0.0132968 255 140 0
-0.0665529 0.0821908 0.0132985 255 140 0
-0.0642809 0.0821996 0.0133003 255 140 0
-0.0620410 0.0822041 0.0133009 255 140 0
-0.0597953 0.0822086 0.0133033 255 140 0
-0.0574895 0.0822093 0.0133046 255 140 0
-0.0551877 0.0822128 0.0133063 255 140 0
-0.0529142 0.0822166 0.0133066 255 140 0
-0.0506413 0.0822188 0.0133091 255 140 0
-0.0483638 0.0822219 0.0133100 255 140 0
-0.0460674 0.0822169 0.0133091 255 140 0
-0.0437939 0.0822142 0.0133093 255 140 0
-0.0415217 0.0822109 0.0133081 255 140 0
-0.0392489 0.0822114 0.0133089 255 140 0
-0.0370402 0.0822165 0.0133085 255 140 0
-0.0347967 0.0822186 0.0133084 255 140 0
-0.0324916 0.0822110 0.0133067 255 140 0
-0.0301896 0.0822096 0.0133073 255 140 0
-0.0279146 0.0822119 0.0133085 255 140 0
-0.0256273 0.0822095 0.0133076 255 140 0
-0.0233557 0.0822108 0.0133075 255 140 0
-0.0210729 0.0822058 0.0133093 255 140 0
-0.0187900 0.0822124 0.0133080 255 140 0
-0.0165224 0.0822107 0.0133064 255 140 0
-0.0142537 0.0822115 0.0133054 255 140 0
-0.0120382 0.0822087 0.0133037 255 140 0
-0.0097903 0.0822068 0.0133031 255 140 0
-0.0074783 0.0822104 0.0133013 255 140 0
-0.0051817 0.0822117 0.0133010 255 140 0
-0.0029036 0.0822226 0.0133002 255 140 0
-0.0006260 0.0822300 0.0133001 255 140 0
0.0016519 0.0822366 0.0132958 255 140 0
0.0039354 0.0822415 0.0132936 255 140 0
0.0062170 0.0822541 0.0132910 255 140 0
0.0084849 0.0822639 0.0132895 255 140 0
0.0107582 0.0822734 0.0132888 255 140 0
0.0129763 0.0822627 0.0132861 255 140 0
0.0152291 0.0822581 0.0132879 255 140 0
0.0175406 0.0822665 0.0132903 255 140 0
0.0198524 0.0822742 0.0132925 255 140 0
0.0221495 0.0822771 0.0132917 255 140 0
0.0244554 0.0822814 0.0132926 255 140 0
0.0267764 0.0822853 0.0132922 255 140 0
0.0291335 0.0822792 0.0132839 255 140 0
-0.0894375 0.0844551 0.0133941 255 140 0
-0.0871477 0.0844458 0.0133431 255 140 0
-0.0848681 0.0844373 0.0133078 255 140 0
-0.0825419 0.0844342 0.0133021 255 140 0
-0.0802058 0.0844313 0.0132937 255 140 0
-0.0779291 0.0844284 0.0132835 255 140 0
-0.0756513 0.0844257 0.0132761 255 140 0
-0.0733725 0.0844246 0.0132702 255 140 0
-0.0710971 0.0844241 0.0132697 255 140 0
-0.0688238 0.0844278 0.0132697 255 140 0
-0.0665535 0.0844335 0.0132720 255 140 0
-0.0642809 0.0844408 0.0132752 255 140 0
-0.0620418 0.0844408 0.0132750 255 140 0
-0.0597969 0.0844407 0.0132778 255 140 0
-0.0574914 0.0844464 0.0132806 255 140 0
-0.0551874 0.0844512 0.0132820 255 140 0
-0.0529142 0.0844563 0.0132819 255 140 0
-0.0506414 0.0844569 0.0132835 255 140 0
-0.0483630 0.0844567 0.0132826 255 140 0
-0.0460673 0.0844561 0.0132820 255 140 0
-0.0437937 0.0844558 0.0132816 255 140 0
-0.0415215 0.0844585 0.0132817 255 140 0
-0.0392489 0.0844611 0.0132817 255 140 0
-0.0370406 0.0844618 0.0132793 255 140 0
-0.0347978 0.0844619 0.0132777 255 140 0
-0.0324935 0.0844591 0.0132770 255 140 0
-0.0301892 0.0844588 0.0132768 255 140 0
-0.0279146 0.0844620 0.0132775 255 140 0
-0.0256272 0.0844629 0.0132769 255 140 0
-0.0233558 0.0844608 0.0132755 255 140 0
-0.0210737 0.0844570 0.0132769 255 140 0
-0.0187900 0.0844602 0.0132757 255 140 0
-0.0165228 0.0844642 0.0132748 255 140 0
-0.0142536 0.0844669 0.0132738 255 140 0
-0.0120386 0.0844644 0.0132732 255 140 0
-0.0097908 0.0844636 0.0132729 255 140 0
-0.0074786 0.0844648 0.0132709 255 140 0
-0.0051820 0.0844667 0.0132713 255 140 0
-0.0029039 0.0844741 0.0132701 255 140 0
-0.0006264 0.0844775 0.0132690 255 140 0
0.0016516 0.0844820 0.0132641 255 140 0
0.0039351 0.0844882 0.0132628 255 140 0
0.0062168 0.0844977 0.0132595 255 140 0
0.0084847 0.0845049 0.0132569 255 140 0
0.0107579 0.0845091 0.0132545 255 140 0
0.0129752 0.0845051 0.0132524 255 140 0
0.0152273 0.0845044 0.0132497 255 140 0
0.0175383 0.0845046 0.0132464 255 140 0
0.0198460 0.0845068 0.0132420 255 140 0
0.0221490 0.0845137 0.0132361 255 140 0
0.0244551 0.0845190 0.0132255 255 140 0
0.0267790 0.0845267 0.0132099 255 140 0
0.0291369 0.0845291 0.0131858 255 140 0
-0.0917616 0.0868886 0.0135446 255 140 0
-0.0894300 0.0868210 0.0134155 255 140 0
-0.0871455 0.0868039 0.0133595 255 140 0
-0.0848662 0.0868126 0.0133226 255 140 0
-0.0825424 0.0868129 0.0133150 255 140 0
-0.0802059 0.0868111 0.0133083 255 140 0
-0.0779298 0.0868099 0.0132980 255 140 0
-0.0756517 0.0868112 0.0132896 255 140 0
-0.0733727 0.0868115 0.0132862 255 140 0
-0.0710973 0.0868138 0.0132870 255 140 0
-0.0688203 0.0868164 0.0132870 255 140 0
-0.0665532 0.0868225 0.0132894 255 140 0
-0.0642810 0.0868310 0.0132900 255 140 0
-0.0620417 0.0868255 0.0132920 255 140 0
-0.0597964 0.0868267 0.0132932 255 140 0
-0.0574908 0.0868351 0.0132991 255 140 0
-0.0551868 0.0868416 0.0133014 255 140 0
-0.0529132 0.0868461 0.0133009 255 140 0
-0.0506403 0.0868470 0.0132999 255 140 0
-0.0483516 0.0868446 0.0133009 255 140 0
-0.0460664 0.0868446 0.0133004 255 140 0
-0.0437926 0.0868487 0.0133008 255 140 0
-0.0415206 0.0868523 0.0133015 255 140 0
-0.0392481 0.0868558 0.0133012 255 140 0
-0.0370401 0.0868527 0.0132982 255 140 0
-0.0347989 0.0868524 0.0132968 255 140 0
-0.0324928 0.0868535 0.0132969 255 140 0
-0.0301888 0.0868566 0.0132969 255 140 0
-0.0279138 0.0868614 0.0132974 255 140 0
-0.0256264 0.0868629 0.0132969 255 140 0
-0.0233549 0.0868618 0.0132957 255 140 0
-0.0210691 0.0868579 0.0132979 255 140 0
-0.0187887 0.0868596 0.0132957 255 140 0
-0.0165202 0.0868674 0.0132933 255 140 0
-0.0142523 0.0868725 0.0132961 255 140 0
-0.0120386 0.0868708 0.0132975 255 140 0
-0.0097910 0.0868722 0.0132965 255 140 0
-0.0074773 0.0868725 0.0132969 255 140 0
-0.0051805 0.0868764 0.0132952 255 140 0
-0.0029023 0.0868796 0.0132952 255 140 0
-0.0006244 0.0868837 0.0132919 255 140 0
0.0016537 0.0868870 0.0132887 255 140 0
0.0039371 0.0868964 0.0132832 255 140 0
0.0062192 0.0869061 0.0132789 255 140 0
0.0084868 0.0869136 0.0132735 255 140 0
0.0107599 0.0869190 0.0132684 255 140 0
0.0129759 0.0869179 0.0132651 255 140 0
0.0152269 0.0869171 0.0132610 255 140 0
0.0175404 0.0869157 0.0132530 255 140 0
0.0198479 0.0869200 0.0132440 255 140 0
0.0221511 0.0869323 0.0132329 255 140 0
0.0244570 0.0869336 0.0132171 255 140 0
0.0267824 0.0869504 0.0131914 255 140 0
0.0291430 0.0869765 0.0131509 255 140 0
-0.0917524 0.0891026 0.0134559 255 140 0
-0.0894348 0.0890360 0.0133691 255 140 0
-0.0871460 0.0890242 0.0133154 255 140 0
-0.0848680 0.0890197 0.0132774 255 140 0
-0.0825430 0.0890149 0.0132696 255 140 0
-0.0802063 0.0890109 0.0132592 255 140 0
-0.0779294 0.0890085 0.0132460 255 140 0
-0.0756516 0.0890071 0.0132377 255 140 0
-0.0733730 0.0890077 0.0132310 255 140 0
-0.0710972 0.0890062 0.0132294 255 140 0
-0.0688109 0.0890068 0.0132286 255 140 0
-0.0665533 0.0890133 0.0132314 255 140 0
-0.0642813 0.0890239 0.0132336 255 140 0
-0.0620427 0.0890218 0.0132376 255 140 0
-0.0597983 0.0890236 0.0132395 255 140 0
-0.0574920 0.0890323 0.0132450 255 140 0
-0.0551878 0.0890364 0.0132466 255 140 0
-0.0529144 0.0890369 0.0132454 255 140 0
-0.0506416 0.0890382 0.0132442 255 140 0
-0.0483466 0.0890379 0.0132456 255 140 0
-0.0460671 0.0890389 0.0132456 255 140 0
-0.0437935 0.0890411 0.0132456 255 140 0
-0.0415214 0.0890408 0.0132452 255 140 0
-0.0392489 0.0890403 0.0132446 255 140 0
-0.0370415 0.0890405 0.0132426 255 140 0
-0.0348004 0.0890408 0.0132410 255 140 0
-0.0324944 0.0890427 0.0132396 255 140 0
-0.0301898 0.0890431 0.0132387 255 140 0
-0.0279148 0.0890419 0.0132377 255 140 0
-0.0256276 0.0890423 0.0132367 255 140 0
