ply
format ascii 1.0
element vertex 1170
property float x
property float y
property float z
property uchar red
property uchar green
property uchar blue
end_header
-0.0278704 0.0942392 0.0383486 255 140 0
-0.0255987 0.0942391 0.0383486 255 140 0
-0.0233271 0.0942391 0.0383486 255 140 0
-0.0210555 0.0942390 0.0383486 255 140 0
-0.0187839 0.0942390 0.0383486 255 140 0
-0.0165123 0.0942390 0.0383486 255 140 0
-0.0142406 0.0942389 0.0383486 255 140 0
-0.0119690 0.0942389 0.0383486 255 140 0
-0.0096974 0.0942388 0.0383486 255 140 0
-0.0074258 0.0942388 0.0383486 255 140 0
-0.0051541 0.0942389 0.0383486 255 140 0
-0.0028825 0.0942389 0.0383486 255 140 0
-0.0006109 0.0942389 0.0383486 255 140 0
0.0016607 0.0942389 0.0383486 255 140 0
0.0039324 0.0942390 0.0383486 255 140 0
0.0062040 0.0942390 0.0383486 255 140 0
0.0084756 0.0942390 0.0383486 255 140 0
0.0107472 0.0942391 0.0383486 255 140 0
0.0130189 0.0942392 0.0383486 255 140 0
0.0152905 0.0942392 0.0383486 255 140 0
0.0175621 0.0942392 0.0383486 255 140 0
-0.0755745 0.0965108 0.0383486 255 140 0
-0.0733029 0.0965108 0.0383486 255 140 0
-0.0710313 0.0965108 0.0383486 255 140 0
-0.0687596 0.0965108 0.0383486 255 140 0
-0.0664880 0.0965108 0.0383486 255 140 0
-0.0642164 0.0965108 0.0383486 255 140 0
-0.0619448 0.0965108 0.0383486 255 140 0
-0.0596731 0.0965108 0.0383486 255 140 0
-0.0574015 0.0965108 0.0383486 255 140 0
-0.0551299 0.0965108 0.0383486 255 140 0
-0.0528583 0.0965108 0.0383486 255 140 0
-0.0505866 0.0965108 0.0383486 255 140 0
-0.0483150 0.0965108 0.0383486 255 140 0
-0.0460434 0.0965108 0.0383486 255 140 0
-0.0437718 0.0965108 0.0383486 255 140 0
-0.0415001 0.0965108 0.0383486 255 140 0
-0.0392285 0.0965108 0.0383486 255 140 0
-0.0369569 0.0965108 0.0383486 255 140 0
-0.0346853 0.0965108 0.0383486 255 140 0
-0.0324136 0.0965108 0.0383486 255 140 0
-0.0301420 0.0965108 0.0383486 255 140 0
-0.0278704 0.0965108 0.0383486 255 140 0
-0.0255987 0.0965107 0.0383486 255 140 0
-0.0233271 0.0965107 0.0383486 255 140 0
-0.0210555 0.0965107 0.0383486 255 140 0
-0.0187839 0.0965106 0.0383486 255 140 0
-0.0165123 0.0965106 0.0383486 255 140 0
-0.0142406 0.0965105 0.0383486 255 140 0
-0.0119690 0.0965105 0.0383486 255 140 0
-0.0096974 0.0965104 0.0383486 255 140 0
-0.0074258 0.0965104 0.0383486 255 140 0
-0.0051541 0.0965105 0.0383486 255 140 0
-0.0028825 0.0965105 0.0383486 255 140 0
-0.0006109 0.0965105 0.0383486 255 140 0
0.0016607 0.0965106 0.0383486 255 140 0
0.0039324 0.0965106 0.0383486 255 140 0
0.0062040 0.0965106 0.0383486 255 140 0
0.0084756 0.0965107 0.0383486 255 140 0
0.0107472 0.0965107 0.0383486 255 140 0
0.0130189 0.0965108 0.0383486 255 140 0
0.0152905 0.0965108 0.0383486 255 140 0
0.0175621 0.0965108 0.0383486 255 140 0
-0.0755745 0.0987824 0.0383486 255 140 0
-0.0733029 0.0987824 0.0383486 255 140 0
-0.0710313 0.0987824 0.0383486 255 140 0
-0.0687596 0.0987824 0.0383486 255 140 0
-0.0664880 0.0987824 0.0383486 255 140 0
-0.0642164 0.0987824 0.0383486 255 140 0
-0.0619448 0.0987824 0.0383486 255 140 0
-0.0596731 0.0987824 0.0383486 255 140 0
-0.0574015 0.0987824 0.0383486 255 140 0
-0.0551299 0.0987824 0.0383486 255 140 0
-0.0528583 0.0987824 0.0383486 255 140 0
-0.0505866 0.0987824 0.0383486 255 140 0
-0.0483150 0.0987824 0.0383486 255 140 0
-0.0460434 0.0987824 0.0383486 255 140 0
-0.0437718 0.0987824 0.0383486 255 140 0
-0.0415001 0.0987824 0.0383486 255 140 0
-0.0392285 0.0987824 0.0383486 255 140 0
-0.0369569 0.0987824 0.0383486 255 140 0
-0.0346853 0.0987824 0.0383486 255 140 0
-0.0324136 0.0987824 0.0383486 255 140 0
-0.0301420 0.0987824 0.0383486 255 140 0
-0.0278704 0.0987824 0.0383486 255 140 0
-0.0255987 0.0987824 0.0383486 255 140 0
-0.0233271 0.0987823 0.0383486 255 140 0
-0.0210555 0.0987823 0.0383486 255 140 0
-0.0187839 0.0987823 0.0383486 255 140 0
-0.0165123 0.0987822 0.0383486 255 140 0
-0.0142406 0.0987822 0.0383486 255 140 0
-0.0119690 0.0987821 0.0383486 255 140 0
-0.0096974 0.0987821 0.0383486 255 140 0
-0.0074258 0.0987821 0.0383486 255 140 0
-0.0051541 0.0987821 0.0383486 255 140 0
-0.0028825 0.0987821 0.0383486 255 140 0
-0.0006109 0.0987821 0.0383486 255 140 0
0.0016607 0.0987822 0.0383486 255 140 0
0.0039324 0.0987822 0.0383486 255 140 0
0.0062040 0.0987822 0.0383486 255 140 0
0.0084756 0.0987823 0.0383486 255 140 0
0.0107472 0.0987823 0.0383486 255 140 0
0.0130189 0.0987824 0.0383486 255 140 0
0.0152905 0.0987824 0.0383486 255 140 0
-0.0755745 0.1010541 0.0383486 255 140 0
-0.0733029 0.1010541 0.0383486 255 140 0
-0.0710313 0.1010541 0.0383486 255 140 0
-0.0687596 0.1010541 0.0383486 255 140 0
-0.0664880 0.1010541 0.0383486 255 140 0
-0.0642164 0.1010541 0.0383486 255 140 0
-0.0619448 0.1010541 0.0383486 255 140 0
-0.0596731 0.1010541 0.0383486 255 140 0
-0.0574015 0.1010541 0.0383486 255 140 0
-0.0551299 0.1010541 0.0383486 255 140 0
-0.0528583 0.1010541 0.0383486 255 140 0
-0.0505866 0.1010541 0.0383486 255 140 0
-0.0483150 0.1010541 0.0383486 255 140 0
-0.0460434 0.1010541 0.0383486 255 140 0
-0.0437718 0.1010541 0.0383486 255 140 0
-0.0415001 0.1010541 0.0383486 255 140 0
-0.0392285 0.1010541 0.0383486 255 140 0
-0.0369569 0.1010541 0.0383486 255 140 0
-0.0346853 0.1010541 0.0383486 255 140 0
-0.0324136 0.1010541 0.0383486 255 140 0
-0.0301420 0.1010541 0.0383486 255 140 0
-0.0278704 0.1010541 0.0383486 255 140 0
-0.0255987 0.1010540 0.0383486 255 140 0
-0.0233271 0.1010540 0.0383486 255 140 0
-0.0210555 0.1010539 0.0383486 255 140 0
-0.0187839 0.1010539 0.0383486 255 140 0
-0.0165123 0.1010539 0.0383486 255 140 0
-0.0142406 0.1010538 0.0383486 255 140 0
-0.0119690 0.1010537 0.0383486 255 140 0
-0.0096974 0.1010537 0.0383486 255 140 0
-0.0074258 0.1010537 0.0383486 255 140 0
-0.0051541 0.1010537 0.0383486 255 140 0
-0.0028825 0.1010538 0.0383486 255 140 0
-0.0006109 0.1010538 0.0383486 255 140 0
0.0016607 0.1010538 0.0383486 255 140 0
0.0039324 0.1010538 0.0383486 255 140 0
0.0062040 0.1010539 0.0383486 255 140 0
0.0084756 0.1010539 0.0383486 255 140 0
0.0107472 0.1010540 0.0383486 255 140 0
0.0130189 0.1010540 0.0383486 255 140 0
0.0152905 0.1010541 0.0383486 255 140 0
-0.0755745 0.1033257 0.0383486 255 140 0
-0.0733029 0.1033257 0.0383486 255 140 0
-0.0710313 0.1033257 0.0383486 255 140 0
-0.0687596 0.1033257 0.0383486 255 140 0
-0.0664880 0.1033257 0.0383486 255 140 0
-0.0642164 0.1033257 0.0383486 255 140 0
-0.0619448 0.1033257 0.0383486 255 140 0
-0.0596731 0.1033257 0.0383486 255 140 0
-0.0574015 0.1033257 0.0383486 255 140 0
-0.0551299 0.1033257 0.0383486 255 140 0
-0.0528583 0.1033257 0.0383486 255 140 0
-0.0505866 0.1033257 0.0383486 255 140 0
-0.0483150 0.1033257 0.0383486 255 140 0
-0.0460434 0.1033257 0.0383486 255 140 0
-0.0437718 0.1033257 0.0383486 255 140 0
-0.0415001 0.1033257 0.0383486 255 140 0
-0.0392285 0.1033257 0.0383486 255 140 0
-0.0369569 0.1033257 0.0383486 255 140 0
-0.0346853 0.1033257 0.0383486 255 140 0
-0.0324136 0.1033257 0.0383486 255 140 0
-0.0301420 0.1033257 0.0383486 255 140 0
-0.0278704 0.1033257 0.0383486 255 140 0
-0.0255987 0.1033256 0.0383486 255 140 0
-0.0233271 0.1033256 0.0383486 255 140 0
-0.0210555 0.1033256 0.0383486 255 140 0
-0.0187839 0.1033255 0.0383486 255 140 0
-0.0165123 0.1033255 0.0383486 255 140 0
-0.0142406 0.1033255 0.0383486 255 140 0
-0.0119690 0.1033254 0.0383486 255 140 0
-0.0096974 0.1033254 0.0383486 255 140 0
-0.0074258 0.1033254 0.0383486 255 140 0
-0.0051541 0.1033254 0.0383486 255 140 0
-0.0028825 0.1033254 0.0383486 255 140 0
-0.0006109 0.1033254 0.0383486 255 140 0
0.0016607 0.1033255 0.0383486 255 140 0
0.0039324 0.1033255 0.0383486 255 140 0
0.0062040 0.1033255 0.0383486 255 140 0
0.0084756 0.1033256 0.0383486 255 140 0
0.0107472 0.1033256 0.0383486 255 140 0
0.0130189 0.1033257 0.0383486 255 140 0
0.0152905 0.1033257 0.0383486 255 140 0
-0.0755745 0.1055973 0.0383486 255 140 0
-0.0733029 0.1055973 0.0383486 255 140 0
-0.0710313 0.1055973 0.0383486 255 140 0
-0.0687596 0.1055973 0.0383486 255 140 0
-0.0664880 0.1055973 0.0383486 255 140 0
-0.0642164 0.1055973 0.0383486 255 140 0
-0.0619448 0.1055973 0.0383486 255 140 0
-0.0596731 0.1055973 0.0383486 255 140 0
-0.0574015 0.1055973 0.0383486 255 140 0
-0.0551299 0.1055973 0.0383486 255 140 0
-0.0528583 0.1055973 0.0383486 255 140 0
-0.0505866 0.1055973 0.0383486 255 140 0
-0.0483150 0.1055973 0.0383486 255 140 0
-0.0460434 0.1055973 0.0383486 255 140 0
-0.0437718 0.1055973 0.0383486 255 140 0
-0.0415001 0.1055973 0.0383486 255 140 0
-0.0392285 0.1055973 0.0383486 255 140 0
-0.0369569 0.1055973 0.0383486 255 140 0
-0.0346853 0.1055973 0.0383486 255 140 0
-0.0324136 0.1055973 0.0383486 255 140 0
-0.0301420 0.1055973 0.0383486 255 140 0
-0.0278704 0.1055973 0.0383486 255 140 0
-0.0255987 0.1055973 0.0383486 255 140 0
-0.0233271 0.1055972 0.0383486 255 140 0
-0.0210555 0.1055972 0.0383486 255 140 0
-0.0187839 0.1055972 0.0383486 255 140 0
-0.0165123 0.1055971 0.0383486 255 140 0
-0.0142406 0.1055971 0.0383486 255 140 0
-0.0119690 0.1055971 0.0383486 255 140 0
-0.0096974 0.1055970 0.0383486 255 140 0
-0.0074258 0.1055970 0.0383486 255 140 0
-0.0051541 0.1055971 0.0383486 255 140 0
-0.0028825 0.1055971 0.0383486 255 140 0
-0.0006109 0.1055971 0.0383486 255 140 0
0.0016607 0.1055971 0.0383486 255 140 0
0.0039324 0.1055971 0.0383486 255 140 0
0.0062040 0.1055972 0.0383486 255 140 0
0.0084756 0.1055972 0.0383486 255 140 0
0.0107472 0.1055972 0.0383486 255 140 0
0.0130189 0.1055973 0.0383486 255 140 0
0.0152905 0.1055973 0.0383486 255 140 0
-0.0755745 0.1078689 0.0383486 255 140 0
-0.0733029 0.1078689 0.0383486 255 140 0
-0.0710313 0.1078689 0.0383486 255 140 0
-0.0687596 0.1078689 0.0383486 255 140 0
-0.0664880 0.1078689 0.0383486 255 140 0
-0.0642164 0.1078689 0.0383486 255 140 0
-0.0619448 0.1078689 0.0383486 255 140 0
-0.0596731 0.1078689 0.0383486 255 140 0
-0.0574015 0.1078689 0.0383486 255 140 0
-0.0551299 0.1078689 0.0383486 255 140 0
-0.0528583 0.1078689 0.0383486 255 140 0
-0.0505866 0.1078689 0.0383486 255 140 0
-0.0483150 0.1078689 0.0383486 255 140 0
-0.0460434 0.1078689 0.0383486 255 140 0
-0.0437718 0.1078689 0.0383486 255 140 0
-0.0415001 0.1078689 0.0383486 255 140 0
-0.0392285 0.1078689 0.0383486 255 140 0
-0.0369569 0.1078689 0.0383486 255 140 0
-0.0346853 0.1078689 0.0383486 255 140 0
-0.0324136 0.1078689 0.0383486 255 140 0
-0.0301420 0.1078689 0.0383486 255 140 0
-0.0278704 0.1078689 0.0383486 255 140 0
-0.0255987 0.1078689 0.0383486 255 140 0
-0.0233271 0.1078689 0.0383486 255 140 0
-0.0210555 0.1078688 0.0383486 255 140 0
-0.0187839 0.1078688 0.0383486 255 140 0
-0.0165123 0.1078688 0.0383486 255 140 0
-0.0142406 0.1078688 0.0383486 255 140 0
-0.0119690 0.1078687 0.0383486 255 140 0
-0.0096974 0.1078687 0.0383486 255 140 0
-0.0074258 0.1078687 0.0383486 255 140 0
-0.0051541 0.1078687 0.0383486 255 140 0
-0.0028825 0.1078687 0.0383486 255 140 0
-0.0006109 0.1078687 0.0383486 255 140 0
0.0016607 0.1078688 0.0383486 255 140 0
0.0039324 0.1078688 0.0383486 255 140 0
0.0062040 0.1078688 0.0383486 255 140 0
0.0084756 0.1078688 0.0383486 255 140 0
0.0107472 0.1078689 0.0383486 255 140 0
0.0130189 0.1078689 0.0383486 255 140 0
0.0152905 0.1078689 0.0383486 255 140 0
-0.0733029 0.1101406 0.0383486 255 140 0
-0.0710313 0.1101406 0.0383486 255 140 0
-0.0687596 0.1101406 0.0383486 255 140 0
-0.0664880 0.1101406 0.0383486 255 140 0
-0.0642164 0.1101406 0.0383486 255 140 0
-0.0619448 0.1101406 0.0383486 255 140 0
-0.0596731 0.1101406 0.0383486 255 140 0
-0.0574015 0.1101406 0.0383486 255 140 0
-0.0551299 0.1101406 0.0383486 255 140 0
-0.0528583 0.1101406 0.0383486 255 140 0
-0.0505866 0.1101406 0.0383486 255 140 0
-0.0483150 0.1101406 0.0383486 255 140 0
-0.0460434 0.1101406 0.0383486 255 140 0
-0.0437718 0.1101406 0.0383486 255 140 0
-0.0415001 0.1101406 0.0383486 255 140 0
-0.0392285 0.1101406 0.0383486 255 140 0
-0.0369569 0.1101406 0.0383486 255 140 0
-0.0346853 0.1101406 0.0383486 255 140 0
-0.0324136 0.1101406 0.0383486 255 140 0
-0.0301420 0.1101406 0.0383486 255 140 0
-0.0278704 0.1101406 0.0383486 255 140 0
-0.0255987 0.1101406 0.0383486 255 140 0
-0.0233271 0.1101405 0.0383486 255 140 0
-0.0210555 0.1101405 0.0383486 255 140 0
-0.0187839 0.1101404 0.0383486 255 140 0
-0.0165123 0.1101404 0.0383486 255 140 0
-0.0142406 0.1101404 0.0383486 255 140 0
-0.0119690 0.1101404 0.0383486 255 140 0
-0.0096974 0.1101404 0.0383486 255 140 0
-0.0074258 0.1101404 0.0383486 255 140 0
-0.0051541 0.1101404 0.0383486 255 140 0
-0.0028825 0.1101404 0.0383486 255 140 0
-0.0006109 0.1101404 0.0383486 255 140 0
0.0016607 0.1101404 0.0383486 255 140 0
0.0039324 0.1101404 0.0383486 255 140 0
0.0062040 0.1101405 0.0383486 255 140 0
0.0084756 0.1101405 0.0383486 255 140 0
0.0107472 0.1101405 0.0383486 255 140 0
0.0130189 0.1101406 0.0383486 255 140 0
0.0152905 0.1101406 0.0383486 255 140 0
-0.0733029 0.1124122 0.0383486 255 140 0
-0.0710313 0.1124122 0.0383486 255 140 0
-0.0687596 0.1124122 0.0383486 255 140 0
-0.0664880 0.1124122 0.0383486 255 140 0
-0.0642164 0.1124122 0.0383486 255 140 0
-0.0619448 0.1124122 0.0383486 255 140 0
-0.0596731 0.1124122 0.0383486 255 140 0
-0.0574015 0.1124122 0.0383486 255 140 0
-0.0551299 0.1124122 0.0383486 255 140 0
-0.0528583 0.1124122 0.0383486 255 140 0
-0.0505866 0.1124122 0.0383486 255 140 0
-0.0483150 0.1124122 0.0383486 255 140 0
-0.0460434 0.1124122 0.0383486 255 140 0
-0.0437718 0.1124122 0.0383486 255 140 0
-0.0415001 0.1124122 0.0383486 255 140 0
-0.0392285 0.1124122 0.0383486 255 140 0
-0.0369569 0.1124122 0.0383486 255 140 0
-0.0346853 0.1124122 0.0383486 255 140 0
-0.0324136 0.1124122 0.0383486 255 140 0
-0.0301420 0.1124122 0.0383486 255 140 0
-0.0278704 0.1124122 0.0383486 255 140 0
-0.0255987 0.1124122 0.0383486 255 140 0
-0.0233271 0.1124122 0.0383486 255 140 0
-0.0210555 0.1124121 0.0383486 255 140 0
-0.0187839 0.1124121 0.0383486 255 140 0
-0.0165123 0.1124121 0.0383486 255 140 0
-0.0142406 0.1124121 0.0383486 255 140 0
-0.0119690 0.1124120 0.0383486 255 140 0
-0.0096974 0.1124120 0.0383486 255 140 0
-0.0074258 0.1124120 0.0383486 255 140 0
-0.0051541 0.1124120 0.0383486 255 140 0
-0.0028825 0.1124120 0.0383486 255 140 0
-0.0006109 0.1124120 0.0383486 255 140 0
0.0016607 0.1124121 0.0383486 255 140 0
0.0039324 0.1124121 0.0383486 255 140 0
0.0062040 0.1124121 0.0383486 255 140 0
0.0084756 0.1124121 0.0383486 255 140 0
0.0107472 0.1124122 0.0383486 255 140 0
0.0130189 0.1124122 0.0383486 255 140 0
0.0152905 0.1124122 0.0383486 255 140 0
-0.0710313 0.1146838 0.0383486 255 140 0
-0.0687596 0.1146838 0.0383486 255 140 0
-0.0664880 0.1146838 0.0383486 255 140 0
-0.0642164 0.1146838 0.0383486 255 140 0
-0.0619448 0.1146838 0.0383486 255 140 0
-0.0596731 0.1146838 0.0383486 255 140 0
-0.0574015 0.1146838 0.0383486 255 140 0
-0.0551299 0.1146838 0.0383486 255 140 0
-0.0528583 0.1146838 0.0383486 255 140 0
-0.0505866 0.1146838 0.0383486 255 140 0
-0.0483150 0.1146838 0.0383486 255 140 0
-0.0460434 0.1146838 0.0383486 255 140 0
-0.0437718 0.1146838 0.0383486 255 140 0
-0.0415001 0.1146838 0.0383486 255 140 0
-0.0392285 0.1146838 0.0383486 255 140 0
-0.0369569 0.1146838 0.0383486 255 140 0
-0.0346853 0.1146838 0.0383486 255 140 0
-0.0324136 0.1146838 0.0383486 255 140 0
-0.0301420 0.1146838 0.0383486 255 140 0
-0.0278704 0.1146838 0.0383486 255 140 0
-0.0255987 0.1146838 0.0383486 255 140 0
-0.0233271 0.1146838 0.0383486 255 140 0
-0.0210555 0.1146837 0.0383486 255 140 0
-0.0187839 0.1146837 0.0383486 255 140 0
-0.0165123 0.1146837 0.0383486 255 140 0
-0.0142406 0.1146837 0.0383486 255 140 0
-0.0119690 0.1146836 0.0383486 255 140 0
-0.0096974 0.1146836 0.0383486 255 140 0
-0.0074258 0.1146837 0.0383486 255 140 0
-0.0051541 0.1146837 0.0383486 255 140 0
-0.0028825 0.1146837 0.0383486 255 140 0
-0.0006109 0.1146837 0.0383486 255 140 0
0.0016607 0.1146837 0.0383486 255 140 0
0.0039324 0.1146837 0.0383486 255 140 0
0.0062040 0.1146837 0.0383486 255 140 0
0.0084756 0.1146838 0.0383486 255 140 0
0.0107472 0.1146838 0.0383486 255 140 0
0.0130189 0.1146838 0.0383486 255 140 0
-0.0710313 0.1169554 0.0383486 255 140 0
-0.0687596 0.1169554 0.0383486 255 140 0
-0.0664880 0.1169554 0.0383486 255 140 0
-0.0642164 0.1169554 0.0383486 255 140 0
-0.0619448 0.1169554 0.0383486 255 140 0
-0.0596731 0.1169554 0.0383486 255 140 0
-0.0574015 0.1169554 0.0383486 255 140 0
-0.0551299 0.1169554 0.0383486 255 140 0
-0.0528583 0.1169554 0.0383486 255 140 0
-0.0505866 0.1169554 0.0383486 255 140 0
-0.0483150 0.1169554 0.0383486 255 140 0
-0.0460434 0.1169554 0.0383486 255 140 0
-0.0437718 0.1169554 0.0383486 255 140 0
-0.0415001 0.1169554 0.0383486 255 140 0
-0.0392285 0.1169554 0.0383486 255 140 0
-0.0369569 0.1169554 0.0383486 255 140 0
-0.0346853 0.1169553 0.0383486 255 140 0
-0.0324136 0.1169553 0.0383486 255 140 0
-0.0301420 0.1169554 0.0383486 255 140 0
-0.0278704 0.1169553 0.0383486 255 140 0
-0.0255987 0.1169553 0.0383486 255 140 0
-0.0233271 0.1169553 0.0383486 255 140 0
-0.0210555 0.1169553 0.0383486 255 140 0
-0.0187839 0.1169554 0.0383486 255 140 0
-0.0165123 0.1169553 0.0383486 255 140 0
-0.0142406 0.1169553 0.0383486 255 140 0
-0.0119690 0.1169553 0.0383486 255 140 0
-0.0096974 0.1169553 0.0383486 255 140 0
-0.0074258 0.1169553 0.0383486 255 140 0
-0.0051541 0.1169553 0.0383486 255 140 0
-0.0028825 0.1169553 0.0383486 255 140 0
-0.0006109 0.1169553 0.0383486 255 140 0
0.0016607 0.1169553 0.0383486 255 140 0
0.0039324 0.1169554 0.0383486 255 140 0
0.0062040 0.1169554 0.0383486 255 140 0
0.0084756 0.1169554 0.0383486 255 140 0
0.0107472 0.1169554 0.0383486 255 140 0
0.0130189 0.1169554 0.0383486 255 140 0
-0.0687596 0.1192271 0.0383486 255 140 0
-0.0664880 0.1192271 0.0383486 255 140 0
-0.0642164 0.1192271 0.0383486 255 140 0
-0.0619448 0.1192271 0.0383486 255 140 0
-0.0596731 0.1192271 0.0383486 255 140 0
-0.0574015 0.1192271 0.0383486 255 140 0
-0.0551299 0.1192271 0.0383486 255 140 0
-0.0528583 0.1192271 0.0383486 255 140 0
-0.0505866 0.1192271 0.0383486 255 140 0
-0.0483150 0.1192270 0.0383486 255 140 0
-0.0460434 0.1192269 0.0383486 255 140 0
-0.0437718 0.1192269 0.0383486 255 140 0
-0.0415001 0.1192269 0.0383486 255 140 0
-0.0392285 0.1192268 0.0383486 255 140 0
-0.0369569 0.1192268 0.0383486 255 140 0
-0.0346853 0.1192268 0.0383486 255 140 0
-0.0324136 0.1192269 0.0383486 255 140 0
-0.0301420 0.1192268 0.0383486 255 140 0
-0.0278704 0.1192268 0.0383486 255 140 0
-0.0255987 0.1192268 0.0383486 255 140 0
-0.0233271 0.1192268 0.0383486 255 140 0
-0.0210555 0.1192269 0.0383486 255 140 0
-0.0187839 0.1192269 0.0383486 255 140 0
-0.0165123 0.1192269 0.0383486 255 140 0
-0.0142406 0.1192269 0.0383486 255 140 0
-0.0119690 0.1192269 0.0383486 255 140 0
-0.0096974 0.1192269 0.0383486 255 140 0
-0.0074258 0.1192269 0.0383486 255 140 0
-0.0051541 0.1192269 0.0383486 255 140 0
-0.0028825 0.1192269 0.0383486 255 140 0
-0.0006109 0.1192269 0.0383486 255 140 0
0.0016607 0.1192270 0.0383486 255 140 0
0.0039324 0.1192270 0.0383486 255 140 0
0.0062040 0.1192270 0.0383486 255 140 0
0.0084756 0.1192270 0.0383486 255 140 0
0.0107472 0.1192270 0.0383486 255 140 0
-0.0687596 0.1214987 0.0383486 255 140 0
-0.0664880 0.1214987 0.0383486 255 140 0
-0.0642164 0.1214987 0.0383486 255 140 0
-0.0619448 0.1214987 0.0383486 255 140 0
-0.0596731 0.1214987 0.0383486 255 140 0
-0.0574015 0.1214987 0.0383486 255 140 0
-0.0551299 0.1214987 0.0383486 255 140 0
-0.0528583 0.1214987 0.0383486 255 140 0
-0.0505866 0.1214986 0.0383486 255 140 0
-0.0483150 0.1214985 0.0383486 255 140 0
-0.0460434 0.1214985 0.0383486 255 140 0
-0.0437718 0.1214985 0.0383486 255 140 0
-0.0415001 0.1214984 0.0383486 255 140 0
-0.0392285 0.1214984 0.0383486 255 140 0
-0.0369569 0.1214984 0.0383486 255 140 0
-0.0346853 0.1214984 0.0383486 255 140 0
-0.0324136 0.1214984 0.0383486 255 140 0
-0.0301420 0.1214984 0.0383486 255 140 0
-0.0278704 0.1214984 0.0383486 255 140 0
-0.0255987 0.1214984 0.0383486 255 140 0
-0.0233271 0.1214984 0.0383486 255 140 0
-0.0210555 0.1214984 0.0383486 255 140 0
-0.0187839 0.1214984 0.0383486 255 140 0
-0.0165123 0.1214985 0.0383486 255 140 0
-0.0142406 0.1214985 0.0383486 255 140 0
-0.0119690 0.1214986 0.0383486 255 140 0
-0.0096974 0.1214986 0.0383486 255 140 0
-0.0074258 0.1214985 0.0383486 255 140 0
-0.0051541 0.1214985 0.0383486 255 140 0
-0.0028825 0.1214986 0.0383486 255 140 0
-0.0006109 0.1214986 0.0383486 255 140 0
0.0016607 0.1214986 0.0383486 255 140 0
0.0039324 0.1214986 0.0383486 255 140 0
0.0062040 0.1214986 0.0383486 255 140 0
0.0084756 0.1214986 0.0383486 255 140 0
-0.0664880 0.1237703 0.0383486 255 140 0
-0.0642164 0.1237703 0.0383486 255 140 0
-0.0619448 0.1237703 0.0383486 255 140 0
-0.0596731 0.1237703 0.0383486 255 140 0
-0.0574015 0.1237703 0.0383486 255 140 0
-0.0551299 0.1237702 0.0383486 255 140 0
-0.0528583 0.1237701 0.0383486 255 140 0
-0.0505866 0.1237701 0.0383486 255 140 0
-0.0483150 0.1237701 0.0383486 255 140 0
-0.0460434 0.1237701 0.0383486 255 140 0
-0.0437718 0.1237700 0.0383486 255 140 0
-0.0415001 0.1237700 0.0383486 255 140 0
-0.0392285 0.1237700 0.0383486 255 140 0
-0.0369568 0.1237699 0.0383486 255 140 0
-0.0346852 0.1237698 0.0383486 255 140 0
-0.0324136 0.1237698 0.0383486 255 140 0
-0.0301420 0.1237698 0.0383486 255 140 0
-0.0278704 0.1237698 0.0383486 255 140 0
-0.0255987 0.1237698 0.0383486 255 140 0
-0.0233271 0.1237699 0.0383486 255 140 0
-0.0210555 0.1237699 0.0383486 255 140 0
-0.0187839 0.1237699 0.0383486 255 140 0
-0.0165123 0.1237700 0.0383486 255 140 0
-0.0142406 0.1237700 0.0383486 255 140 0
-0.0119690 0.1237701 0.0383486 255 140 0
-0.0096974 0.1237701 0.0383486 255 140 0
-0.0074258 0.1237701 0.0383486 255 140 0
-0.0051541 0.1237701 0.0383486 255 140 0
-0.0028825 0.1237702 0.0383486 255 140 0
-0.0006109 0.1237702 0.0383486 255 140 0
0.0016607 0.1237702 0.0383486 255 140 0
0.0039324 0.1237702 0.0383486 255 140 0
0.0062040 0.1237702 0.0383486 255 140 0
-0.0642164 0.1260419 0.0383486 255 140 0
-0.0619448 0.1260419 0.0383486 255 140 0
-0.0596731 0.1260419 0.0383486 255 140 0
-0.0574015 0.1260419 0.0383486 255 140 0
-0.0551299 0.1260419 0.0383486 255 140 0
-0.0528583 0.1260419 0.0383486 255 140 0
-0.0505866 0.1260419 0.0383486 255 140 0
-0.0483150 0.1260419 0.0383486 255 140 0
-0.0460434 0.1260417 0.0383486 255 140 0
-0.0437717 0.1260416 0.0383485 255 140 0
-0.0415001 0.1260415 0.0383485 255 140 0
-0.0392285 0.1260415 0.0383485 255 140 0
-0.0369568 0.1260415 0.0383485 255 140 0
-0.0346852 0.1260416 0.0383485 255 140 0
-0.0324136 0.1260416 0.0383485 255 140 0
-0.0301419 0.1260416 0.0383485 255 140 0
-0.0278703 0.1260416 0.0383485 255 140 0
-0.0255987 0.1260415 0.0383485 255 140 0
-0.0233271 0.1260416 0.0383486 255 140 0
-0.0210555 0.1260415 0.0383486 255 140 0
-0.0187839 0.1260416 0.0383486 255 140 0
-0.0165122 0.1260417 0.0383486 255 140 0
-0.0142406 0.1260417 0.0383486 255 140 0
-0.0119690 0.1260417 0.0383486 255 140 0
-0.0096974 0.1260417 0.0383486 255 140 0
-0.0074258 0.1260417 0.0383486 255 140 0
-0.0051541 0.1260417 0.0383486 255 140 0
-0.0028825 0.1260417 0.0383486 255 140 0
-0.0006109 0.1260417 0.0383486 255 140 0
0.0016607 0.1260418 0.0383486 255 140 0
0.0039324 0.1260418 0.0383486 255 140 0
-0.0619448 0.1283136 0.0383486 255 140 0
-0.0596731 0.1283136 0.0383486 255 140 0
-0.0574015 0.1283136 0.0383486 255 140 0
-0.0551299 0.1283136 0.0383486 255 140 0
-0.0528583 0.1283135 0.0383486 255 140 0
-0.0505866 0.1283134 0.0383486 255 140 0
-0.0483150 0.1283132 0.0383485 255 140 0
-0.0460433 0.1283131 0.0383485 255 140 0
-0.0437716 0.1283131 0.0383485 255 140 0
-0.0415000 0.1283129 0.0383484 255 140 0
-0.0392284 0.1283129 0.0383484 255 140 0
-0.0369567 0.1283127 0.0383483 255 140 0
-0.0346851 0.1283126 0.0383482 255 140 0
-0.0324135 0.1283126 0.0383482 255 140 0
-0.0301418 0.1283126 0.0383483 255 140 0
-0.0278703 0.1283127 0.0383483 255 140 0
-0.0255986 0.1283127 0.0383484 255 140 0
-0.0233271 0.1283127 0.0383484 255 140 0
-0.0210554 0.1283128 0.0383485 255 140 0
-0.0187838 0.1283128 0.0383485 255 140 0
-0.0165122 0.1283128 0.0383486 255 140 0
-0.0142406 0.1283130 0.0383486 255 140 0
-0.0119690 0.1283131 0.0383486 255 140 0
-0.0096974 0.1283132 0.0383486 255 140 0
-0.0074258 0.1283132 0.0383486 255 140 0
-0.0051541 0.1283132 0.0383486 255 140 0
-0.0028825 0.1283132 0.0383486 255 140 0
-0.0006109 0.1283132 0.0383486 255 140 0
0.0016607 0.1283132 0.0383486 255 140 0
-0.0596731 0.1305852 0.0383486 255 140 0
-0.0574015 0.1305852 0.0383486 255 140 0
-0.0551299 0.1305851 0.0383486 255 140 0
-0.0528582 0.1305850 0.0383486 255 140 0
-0.0505866 0.1305848 0.0383485 255 140 0
-0.0483149 0.1305847 0.0383485 255 140 0
-0.0460433 0.1305846 0.0383484 255 140 0
-0.0437716 0.1305843 0.0383483 255 140 0
-0.0414999 0.1305842 0.0383481 255 140 0
-0.0392282 0.1305840 0.0383480 255 140 0
-0.0369566 0.1305837 0.0383478 255 140 0
-0.0346849 0.1305836 0.0383477 255 140 0
-0.0324133 0.1305836 0.0383478 255 140 0
-0.0301417 0.1305836 0.0383479 255 140 0
-0.0278701 0.1305835 0.0383480 255 140 0
-0.0255986 0.1305836 0.0383481 255 140 0
-0.0233270 0.1305837 0.0383482 255 140 0
-0.0210554 0.1305837 0.0383483 255 140 0
-0.0187838 0.1305838 0.0383484 255 140 0
-0.0165122 0.1305839 0.0383485 255 140 0
-0.0142406 0.1305840 0.0383485 255 140 0
-0.0119690 0.1305844 0.0383486 255 140 0
-0.0096974 0.1305846 0.0383486 255 140 0
-0.0074258 0.1305846 0.0383486 255 140 0
-0.0051541 0.1305846 0.0383486 255 140 0
-0.0028825 0.1305847 0.0383486 255 140 0
-0.0006109 0.1305847 0.0383486 255 140 0
-0.0574015 0.1328568 0.0383486 255 140 0
-0.0551299 0.1328566 0.0383486 255 140 0
-0.0528582 0.1328564 0.0383485 255 140 0
-0.0505865 0.1328563 0.0383484 255 140 0
-0.0483149 0.1328560 0.0383483 255 140 0
-0.0460431 0.1328558 0.0383481 255 140 0
-0.0437714 0.1328554 0.0383478 255 140 0
-0.0414997 0.1328549 0.0383475 255 140 0
-0.0392279 0.1328546 0.0383471 255 140 0
-0.0369562 0.1328538 0.0383468 255 140 0
-0.0346845 0.1328534 0.0383467 255 140 0
-0.0324130 0.1328535 0.0383469 255 140 0
-0.0301414 0.1328537 0.0383471 255 140 0
-0.0278699 0.1328536 0.0383472 255 140 0
-0.0255983 0.1328536 0.0383474 255 140 0
-0.0233268 0.1328538 0.0383476 255 140 0
-0.0210553 0.1328538 0.0383479 255 140 0
-0.0187837 0.1328539 0.0383481 255 140 0
-0.0165122 0.1328542 0.0383483 255 140 0
-0.0142406 0.1328545 0.0383484 255 140 0
-0.0119690 0.1328553 0.0383485 255 140 0
-0.0096974 0.1328557 0.0383486 255 140 0
-0.0074257 0.1328557 0.0383486 255 140 0
-0.0051541 0.1328557 0.0383486 255 140 0
-0.0028825 0.1328558 0.0383486 255 140 0
-0.0528582 0.1351279 0.0383485 255 140 0
-0.0505865 0.1351276 0.0383483 255 140 0
-0.0483147 0.1351272 0.0383479 255 140 0
-0.0460429 0.1351265 0.0383475 255 140 0
-0.0437710 0.1351256 0.0383467 255 140 0
-0.0414991 0.1351242 0.0383461 255 140 0
-0.0392272 0.1351230 0.0383456 255 140 0
-0.0369553 0.1351218 0.0383447 255 140 0
-0.0346835 0.1351212 0.0383444 255 140 0
-0.0324122 0.1351216 0.0383449 255 140 0
-0.0301406 0.1351216 0.0383454 255 140 0
-0.0278692 0.1351216 0.0383457 255 140 0
-0.0255977 0.1351213 0.0383462 255 140 0
-0.0233264 0.1351218 0.0383467 255 140 0
-0.0210550 0.1351219 0.0383471 255 140 0
-0.0187836 0.1351221 0.0383474 255 140 0
-0.0165121 0.1351229 0.0383479 255 140 0
-0.0142405 0.1351237 0.0383482 255 140 0
-0.0119690 0.1351253 0.0383484 255 140 0
-0.0096974 0.1351263 0.0383486 255 140 0
-0.0074257 0.1351259 0.0383486 255 140 0
-0.0483144 0.1373979 0.0383473 255 140 0
-0.0460423 0.1373960 0.0383460 255 140 0
-0.0437699 0.1373935 0.0383446 255 140 0
-0.0414974 0.1373911 0.0383428 255 140 0
-0.0392251 0.1373891 0.0383415 255 140 0
-0.0369529 0.1373859 0.0383393 255 140 0
-0.0346811 0.1373845 0.0383385 255 140 0
-0.0324101 0.1373861 0.0383402 255 140 0
-0.0301390 0.1373867 0.0383415 255 140 0
-0.0278677 0.1373863 0.0383421 255 140 0
-0.0255966 0.1373859 0.0383431 255 140 0
-0.0233255 0.1373851 0.0383441 255 140 0
-0.0210544 0.1373843 0.0383452 255 140 0
-0.0187832 0.1373851 0.0383464 255 140 0
-0.0165119 0.1373872 0.0383471 255 140 0
-0.0142390 0.1373894 0.0383478 255 140 0
-0.0119689 0.1373931 0.0383483 255 140 0
-0.0437662 0.1396545 0.0383369 255 140 0
-0.0414882 0.1396360 0.0383291 255 140 0
-0.0392170 0.1396211 0.0383186 255 140 0
-0.0369294 0.1395833 0.0382848 255 140 0
-0.0346562 0.1395756 0.0382778 255 140 0
-0.0323896 0.1395833 0.0382923 255 140 0
-0.0301263 0.1395953 0.0383111 255 140 0
-0.0278549 0.1396107 0.0383174 255 140 0
-0.0255862 0.1396198 0.0383231 255 140 0
-0.0233174 0.1396106 0.0383281 255 140 0
-0.0210518 0.1395830 0.0383330 255 140 0
-0.0187837 0.1395748 0.0383419 255 140 0
-0.0165120 0.1395711 0.0383425 255 140 0
-0.0347415 0.1421210 0.0384771 255 140 0
-0.0324535 0.1420637 0.0384359 255 140 0
-0.0301685 0.1420277 0.0384049 255 140 0
-0.0278915 0.1420173 0.0383932 255 140 0
-0.0256153 0.1420165 0.0383843 255 140 0
-0.0346853 0.0465289 0.0406202 255 140 0
-0.0324136 0.0465289 0.0406202 255 140 0
-0.0301420 0.0465289 0.0406202 255 140 0
-0.0278704 0.0465289 0.0406202 255 140 0
-0.0255987 0.0465289 0.0406202 255 140 0
-0.0233271 0.0465289 0.0406202 255 140 0
-0.0210555 0.0465289 0.0406202 255 140 0
-0.0483150 0.0488005 0.0406202 255 140 0
-0.0460434 0.0488005 0.0406202 255 140 0
-0.0437718 0.0488005 0.0406202 255 140 0
-0.0415001 0.0488005 0.0406202 255 140 0
-0.0392285 0.0488005 0.0406202 255 140 0
-0.0369569 0.0488005 0.0406202 255 140 0
-0.0346853 0.0488005 0.0406202 255 140 0
-0.0324136 0.0488005 0.0406202 255 140 0
-0.0301420 0.0488005 0.0406202 255 140 0
-0.0278704 0.0488005 0.0406202 255 140 0
-0.0255987 0.0488005 0.0406202 255 140 0
-0.0233271 0.0488005 0.0406202 255 140 0
-0.0210555 0.0488005 0.0406202 255 140 0
-0.0187839 0.0488005 0.0406202 255 140 0
-0.0165123 0.0488005 0.0406202 255 140 0
-0.0142406 0.0488005 0.0406202 255 140 0
-0.0528583 0.0510721 0.0406202 255 140 0
-0.0505866 0.0510721 0.0406202 255 140 0
-0.0483150 0.0510721 0.0406202 255 140 0
-0.0460434 0.0510721 0.0406202 255 140 0
-0.0437718 0.0510721 0.0406202 255 140 0
-0.0415001 0.0510721 0.0406202 255 140 0
-0.0392285 0.0510721 0.0406202 255 140 0
-0.0369569 0.0510721 0.0406202 255 140 0
-0.0346853 0.0510721 0.0406202 255 140 0
-0.0324136 0.0510721 0.0406202 255 140 0
-0.0301420 0.0510721 0.0406202 255 140 0
-0.0278704 0.0510721 0.0406202 255 140 0
-0.0255987 0.0510721 0.0406202 255 140 0
-0.0233271 0.0510721 0.0406202 255 140 0
-0.0210555 0.0510721 0.0406202 255 140 0
-0.0187839 0.0510721 0.0406202 255 140 0
-0.0165123 0.0510721 0.0406202 255 140 0
-0.0142406 0.0510721 0.0406202 255 140 0
-0.0119690 0.0510722 0.0406202 255 140 0
-0.0096974 0.0510722 0.0406202 255 140 0
-0.0551299 0.0533437 0.0406202 255 140 0
-0.0528583 0.0533437 0.0406202 255 140 0
-0.0505866 0.0533437 0.0406202 255 140 0
-0.0483150 0.0533437 0.0406202 255 140 0
-0.0460434 0.0533437 0.0406202 255 140 0
-0.0437718 0.0533437 0.0406202 255 140 0
-0.0415001 0.0533437 0.0406202 255 140 0
-0.0392285 0.0533437 0.0406202 255 140 0
-0.0369569 0.0533437 0.0406202 255 140 0
-0.0346853 0.0533437 0.0406202 255 140 0
-0.0324136 0.0533437 0.0406202 255 140 0
-0.0301420 0.0533437 0.0406202 255 140 0
-0.0278704 0.0533437 0.0406202 255 140 0
-0.0255987 0.0533437 0.0406202 255 140 0
-0.0233271 0.0533437 0.0406202 255 140 0
-0.0210555 0.0533437 0.0406202 255 140 0
-0.0187839 0.0533437 0.0406202 255 140 0
-0.0165123 0.0533437 0.0406202 255 140 0
-0.0142406 0.0533438 0.0406202 255 140 0
-0.0119690 0.0533438 0.0406202 255 140 0
-0.0096974 0.0533439 0.0406202 255 140 0
-0.0074258 0.0533439 0.0406202 255 140 0
-0.0051542 0.0533440 0.0406202 255 140 0
-0.0574015 0.0556154 0.0406202 255 140 0
-0.0551299 0.0556154 0.0406202 255 140 0
-0.0528583 0.0556154 0.0406202 255 140 0
-0.0505866 0.0556154 0.0406202 255 140 0
-0.0483150 0.0556154 0.0406202 255 140 0
-0.0460434 0.0556154 0.0406202 255 140 0
-0.0437718 0.0556154 0.0406202 255 140 0
-0.0415001 0.0556154 0.0406202 255 140 0
-0.0392285 0.0556154 0.0406202 255 140 0
-0.0369569 0.0556154 0.0406202 255 140 0
-0.0346853 0.0556154 0.0406202 255 140 0
-0.0324136 0.0556154 0.0406202 255 140 0
-0.0301420 0.0556154 0.0406202 255 140 0
-0.0278704 0.0556154 0.0406202 255 140 0
-0.0255987 0.0556154 0.0406202 255 140 0
-0.0233271 0.0556154 0.0406202 255 140 0
-0.0210555 0.0556154 0.0406202 255 140 0
-0.0187839 0.0556154 0.0406202 255 140 0
-0.0165123 0.0556154 0.0406202 255 140 0
-0.0142406 0.0556154 0.0406202 255 140 0
-0.0119690 0.0556154 0.0406202 255 140 0
-0.0096974 0.0556155 0.0406202 255 140 0
-0.0074258 0.0556156 0.0406202 255 140 0
-0.0051542 0.0556157 0.0406202 255 140 0
-0.0028827 0.0556158 0.0406202 255 140 0
-0.0596731 0.0578870 0.0406202 255 140 0
-0.0574015 0.0578870 0.0406202 255 140 0
-0.0551299 0.0578870 0.0406202 255 140 0
-0.0528583 0.0578870 0.0406202 255 140 0
-0.0505866 0.0578870 0.0406202 255 140 0
-0.0483150 0.0578870 0.0406202 255 140 0
-0.0460434 0.0578870 0.0406202 255 140 0
-0.0437718 0.0578870 0.0406202 255 140 0
-0.0415001 0.0578870 0.0406202 255 140 0
-0.0392285 0.0578870 0.0406202 255 140 0
-0.0369569 0.0578870 0.0406202 255 140 0
-0.0346853 0.0578870 0.0406202 255 140 0
-0.0324136 0.0578870 0.0406202 255 140 0
-0.0301420 0.0578870 0.0406202 255 140 0
-0.0278704 0.0578870 0.0406202 255 140 0
-0.0255987 0.0578870 0.0406202 255 140 0
-0.0233271 0.0578870 0.0406202 255 140 0
-0.0210555 0.0578870 0.0406202 255 140 0
-0.0187839 0.0578870 0.0406202 255 140 0
-0.0165123 0.0578870 0.0406202 255 140 0
-0.0142406 0.0578870 0.0406202 255 140 0
-0.0119690 0.0578871 0.0406202 255 140 0
-0.0096974 0.0578872 0.0406202 255 140 0
-0.0074258 0.0578872 0.0406202 255 140 0
-0.0051542 0.0578873 0.0406202 255 140 0
-0.0028827 0.0578875 0.0406202 255 140 0
-0.0006111 0.0578879 0.0406201 255 140 0
0.0016603 0.0578886 0.0406199 255 140 0
-0.0619448 0.0601586 0.0406202 255 140 0
-0.0596731 0.0601586 0.0406202 255 140 0
-0.0574015 0.0601586 0.0406202 255 140 0
-0.0551299 0.0601586 0.0406202 255 140 0
-0.0528583 0.0601586 0.0406202 255 140 0
-0.0505866 0.0601586 0.0406202 255 140 0
-0.0483150 0.0601586 0.0406202 255 140 0
-0.0460434 0.0601586 0.0406202 255 140 0
-0.0437718 0.0601586 0.0406202 255 140 0
-0.0415001 0.0601586 0.0406202 255 140 0
-0.0392285 0.0601586 0.0406202 255 140 0
-0.0369569 0.0601586 0.0406202 255 140 0
-0.0346853 0.0601586 0.0406202 255 140 0
-0.0324136 0.0601586 0.0406202 255 140 0
-0.0301420 0.0601586 0.0406202 255 140 0
-0.0278704 0.0601586 0.0406202 255 140 0
-0.0255987 0.0601586 0.0406202 255 140 0
-0.0233271 0.0601586 0.0406202 255 140 0
-0.0210555 0.0601586 0.0406202 255 140 0
-0.0187839 0.0601586 0.0406202 255 140 0
-0.0165123 0.0601586 0.0406202 255 140 0
-0.0142406 0.0601587 0.0406202 255 140 0
-0.0119690 0.0601587 0.0406202 255 140 0
-0.0096974 0.0601588 0.0406202 255 140 0
-0.0074258 0.0601588 0.0406202 255 140 0
-0.0051542 0.0601590 0.0406202 255 140 0
-0.0028827 0.0601592 0.0406201 255 140 0
-0.0006112 0.0601597 0.0406200 255 140 0
0.0016602 0.0601605 0.0406198 255 140 0
0.0039312 0.0601620 0.0406194 255 140 0
-0.0642164 0.0624302 0.0406202 255 140 0
-0.0619448 0.0624302 0.0406202 255 140 0
-0.0596731 0.0624302 0.0406202 255 140 0
-0.0574015 0.0624302 0.0406202 255 140 0
-0.0551299 0.0624302 0.0406202 255 140 0
-0.0528583 0.0624302 0.0406202 255 140 0
-0.0505866 0.0624302 0.0406202 255 140 0
-0.0483150 0.0624302 0.0406202 255 140 0
-0.0460434 0.0624302 0.0406202 255 140 0
-0.0437718 0.0624302 0.0406202 255 140 0
-0.0415001 0.0624302 0.0406202 255 140 0
-0.0392285 0.0624302 0.0406202 255 140 0
-0.0369569 0.0624302 0.0406202 255 140 0
-0.0346853 0.0624302 0.0406202 255 140 0
-0.0324136 0.0624302 0.0406202 255 140 0
-0.0301420 0.0624302 0.0406202 255 140 0
-0.0278704 0.0624302 0.0406202 255 140 0
-0.0255987 0.0624302 0.0406202 255 140 0
-0.0233271 0.0624302 0.0406202 255 140 0
-0.0210555 0.0624302 0.0406202 255 140 0
-0.0187839 0.0624302 0.0406202 255 140 0
-0.0165123 0.0624302 0.0406202 255 140 0
-0.0142406 0.0624303 0.0406202 255 140 0
-0.0119690 0.0624303 0.0406202 255 140 0
-0.0096974 0.0624304 0.0406202 255 140 0
-0.0074258 0.0624305 0.0406202 255 140 0
-0.0051542 0.0624307 0.0406202 255 140 0
-0.0028827 0.0624309 0.0406201 255 140 0
-0.0006112 0.0624315 0.0406200 255 140 0
0.0016601 0.0624324 0.0406198 255 140 0
0.0039310 0.0624341 0.0406193 255 140 0
-0.0664880 0.0647081 0.0406202 255 140 0
-0.0642164 0.0647081 0.0406202 255 140 0
-0.0619448 0.0647081 0.0406202 255 140 0
-0.0596731 0.0647081 0.0406202 255 140 0
-0.0574015 0.0647081 0.0406202 255 140 0
-0.0551299 0.0647081 0.0406202 255 140 0
-0.0528583 0.0647081 0.0406202 255 140 0
-0.0505866 0.0647081 0.0406202 255 140 0
-0.0483150 0.0647081 0.0406202 255 140 0
-0.0460434 0.0647081 0.0406202 255 140 0
-0.0437718 0.0647081 0.0406202 255 140 0
-0.0415001 0.0647081 0.0406202 255 140 0
-0.0392285 0.0647081 0.0406202 255 140 0
-0.0369569 0.0647081 0.0406202 255 140 0
-0.0346853 0.0647081 0.0406202 255 140 0
-0.0324136 0.0647081 0.0406202 255 140 0
-0.0301420 0.0647081 0.0406202 255 140 0
-0.0278704 0.0647081 0.0406202 255 140 0
-0.0255987 0.0647081 0.0406202 255 140 0
-0.0233271 0.0647081 0.0406202 255 140 0
-0.0210555 0.0647080 0.0406202 255 140 0
-0.0187839 0.0647080 0.0406202 255 140 0
-0.0165123 0.0647080 0.0406202 255 140 0
-0.0142406 0.0647080 0.0406202 255 140 0
-0.0119690 0.0647079 0.0406202 255 140 0
-0.0096974 0.0647077 0.0406202 255 140 0
-0.0074258 0.0647076 0.0406202 255 140 0
-0.0051543 0.0647077 0.0406202 255 140 0
-0.0028827 0.0647079 0.0406201 255 140 0
-0.0006113 0.0647082 0.0406199 255 140 0
0.0016599 0.0647088 0.0406197 255 140 0
0.0039308 0.0647087 0.0406192 255 140 0
0.0062006 0.0647072 0.0406176 255 140 0
-0.0687596 0.0669797 0.0406202 255 140 0
-0.0664880 0.0669797 0.0406202 255 140 0
-0.0642164 0.0669797 0.0406202 255 140 0
-0.0619448 0.0669797 0.0406202 255 140 0
-0.0596731 0.0669797 0.0406202 255 140 0
-0.0574015 0.0669797 0.0406202 255 140 0
-0.0551299 0.0669797 0.0406202 255 140 0
-0.0528583 0.0669797 0.0406202 255 140 0
-0.0505866 0.0669797 0.0406202 255 140 0
-0.0483150 0.0669797 0.0406202 255 140 0
-0.0460434 0.0669797 0.0406202 255 140 0
-0.0437718 0.0669797 0.0406202 255 140 0
-0.0415001 0.0669797 0.0406202 255 140 0
-0.0392285 0.0669797 0.0406202 255 140 0
-0.0369569 0.0669797 0.0406202 255 140 0
-0.0346853 0.0669797 0.0406202 255 140 0
-0.0324136 0.0669797 0.0406202 255 140 0
-0.0301420 0.0669797 0.0406202 255 140 0
-0.0278704 0.0669797 0.0406202 255 140 0
-0.0255987 0.0669797 0.0406202 255 140 0
-0.0233271 0.0669796 0.0406202 255 140 0
-0.0210555 0.0669796 0.0406202 255 140 0
-0.0187839 0.0669796 0.0406202 255 140 0
-0.0165123 0.0669795 0.0406202 255 140 0
-0.0142406 0.0669795 0.0406202 255 140 0
-0.0119690 0.0669795 0.0406202 255 140 0
-0.0096974 0.0669795 0.0406202 255 140 0
-0.0074258 0.0669794 0.0406202 255 140 0
-0.0051542 0.0669794 0.0406202 255 140 0
-0.0028826 0.0669795 0.0406202 255 140 0
-0.0006111 0.0669798 0.0406201 255 140 0
0.0016604 0.0669803 0.0406200 255 140 0
0.0039317 0.0669812 0.0406197 255 140 0
0.0062022 0.0669832 0.0406191 255 140 0
0.0084719 0.0669809 0.0406173 255 140 0
-0.0710313 0.0692513 0.0406202 255 140 0
-0.0687596 0.0692513 0.0406202 255 140 0
-0.0664880 0.0692513 0.0406202 255 140 0
-0.0642164 0.0692513 0.0406202 255 140 0
-0.0619448 0.0692513 0.0406202 255 140 0
-0.0596731 0.0692513 0.0406202 255 140 0
-0.0574015 0.0692513 0.0406202 255 140 0
-0.0551299 0.0692513 0.0406202 255 140 0
-0.0528583 0.0692513 0.0406202 255 140 0
-0.0505866 0.0692513 0.0406202 255 140 0
-0.0483150 0.0692513 0.0406202 255 140 0
-0.0460434 0.0692513 0.0406202 255 140 0
-0.0437718 0.0692513 0.0406202 255 140 0
-0.0415001 0.0692513 0.0406202 255 140 0
-0.0392285 0.0692513 0.0406202 255 140 0
-0.0369569 0.0692513 0.0406202 255 140 0
-0.0346853 0.0692513 0.0406202 255 140 0
-0.0324136 0.0692513 0.0406202 255 140 0
-0.0301420 0.0692513 0.0406202 255 140 0
-0.0278704 0.0692513 0.0406202 255 140 0
-0.0255987 0.0692512 0.0406202 255 140 0
-0.0233271 0.0692512 0.0406202 255 140 0
-0.0210555 0.0692512 0.0406202 255 140 0
-0.0187839 0.0692512 0.0406202 255 140 0
-0.0165123 0.0692512 0.0406202 255 140 0
-0.0142406 0.0692511 0.0406202 255 140 0
-0.0119690 0.0692511 0.0406202 255 140 0
-0.0096974 0.0692511 0.0406202 255 140 0
-0.0074258 0.0692511 0.0406202 255 140 0
-0.0051542 0.0692511 0.0406202 255 140 0
-0.0028825 0.0692511 0.0406202 255 140 0
-0.0006109 0.0692511 0.0406202 255 140 0
0.0016607 0.0692512 0.0406202 255 140 0
0.0039321 0.0692517 0.0406201 255 140 0
0.0062037 0.0692527 0.0406199 255 140 0
0.0084749 0.0692548 0.0406195 255 140 0
0.0107442 0.0692566 0.0406174 255 140 0
-0.0710313 0.0715230 0.0406202 255 140 0
-0.0687596 0.0715230 0.0406202 255 140 0
-0.0664880 0.0715230 0.0406202 255 140 0
-0.0642164 0.0715230 0.0406202 255 140 0
-0.0619448 0.0715230 0.0406202 255 140 0
-0.0596731 0.0715230 0.0406202 255 140 0
-0.0574015 0.0715230 0.0406202 255 140 0
-0.0551299 0.0715230 0.0406202 255 140 0
-0.0528583 0.0715230 0.0406202 255 140 0
-0.0505866 0.0715230 0.0406202 255 140 0
-0.0483150 0.0715230 0.0406202 255 140 0
-0.0460434 0.0715230 0.0406202 255 140 0
-0.0437718 0.0715230 0.0406202 255 140 0
-0.0415001 0.0715230 0.0406202 255 140 0
-0.0392285 0.0715230 0.0406202 255 140 0
-0.0369569 0.0715230 0.0406202 255 140 0
-0.0346853 0.0715230 0.0406202 255 140 0
-0.0324136 0.0715230 0.0406202 255 140 0
-0.0301420 0.0715230 0.0406202 255 140 0
-0.0278704 0.0715229 0.0406202 255 140 0
-0.0255987 0.0715229 0.0406202 255 140 0
-0.0233271 0.0715228 0.0406202 255 140 0
-0.0210555 0.0715228 0.0406202 255 140 0
-0.0187839 0.0715228 0.0406202 255 140 0
-0.0165123 0.0715228 0.0406202 255 140 0
-0.0142406 0.0715227 0.0406202 255 140 0
-0.0119690 0.0715227 0.0406202 255 140 0
-0.0096974 0.0715226 0.0406202 255 140 0
-0.0074258 0.0715227 0.0406202 255 140 0
-0.0051542 0.0715227 0.0406202 255 140 0
-0.0028826 0.0715228 0.0406202 255 140 0
-0.0006110 0.0715229 0.0406202 255 140 0
0.0016606 0.0715231 0.0406202 255 140 0
0.0039321 0.0715233 0.0406201 255 140 0
0.0062036 0.0715239 0.0406200 255 140 0
0.0084749 0.0715247 0.0406199 255 140 0
0.0107456 0.0715228 0.0406190 255 140 0
0.0130239 0.0715194 0.0406236 255 140 0
-0.0710313 0.0737946 0.0406202 255 140 0
-0.0687596 0.0737946 0.0406202 255 140 0
-0.0664880 0.0737946 0.0406202 255 140 0
-0.0642164 0.0737946 0.0406202 255 140 0
-0.0619448 0.0737946 0.0406202 255 140 0
-0.0596731 0.0737946 0.0406202 255 140 0
-0.0574015 0.0737946 0.0406202 255 140 0
-0.0551299 0.0737946 0.0406202 255 140 0
-0.0528583 0.0737946 0.0406202 255 140 0
-0.0505866 0.0737946 0.0406202 255 140 0
-0.0483150 0.0737946 0.0406202 255 140 0
-0.0460434 0.0737946 0.0406202 255 140 0
-0.0437718 0.0737946 0.0406202 255 140 0
-0.0415001 0.0737946 0.0406202 255 140 0
-0.0392285 0.0737946 0.0406202 255 140 0
-0.0369569 0.0737946 0.0406202 255 140 0
-0.0346853 0.0737946 0.0406202 255 140 0
-0.0324136 0.0737946 0.0406202 255 140 0
-0.0301420 0.0737946 0.0406202 255 140 0
-0.0278704 0.0737945 0.0406202 255 140 0
-0.0255987 0.0737945 0.0406202 255 140 0
-0.0233271 0.0737945 0.0406202 255 140 0
-0.0210555 0.0737944 0.0406202 255 140 0
-0.0187839 0.0737944 0.0406202 255 140 0
-0.0165123 0.0737944 0.0406202 255 140 0
-0.0142406 0.0737943 0.0406202 255 140 0
-0.0119690 0.0737942 0.0406202 255 140 0
-0.0096974 0.0737941 0.0406202 255 140 0
-0.0074258 0.0737941 0.0406202 255 140 0
-0.0051542 0.0737942 0.0406202 255 140 0
-0.0028826 0.0737943 0.0406202 255 140 0
-0.0006110 0.0737944 0.0406202 255 140 0
0.0016606 0.0737946 0.0406202 255 140 0
0.0039322 0.0737948 0.0406201 255 140 0
0.0062037 0.0737950 0.0406201 255 140 0
0.0084754 0.0737951 0.0406200 255 140 0
0.0107466 0.0737961 0.0406199 255 140 0
0.0130205 0.0737931 0.0406211 255 140 0
-0.0733029 0.0760662 0.0406202 255 140 0
-0.0710313 0.0760662 0.0406202 255 140 0
-0.0687596 0.0760662 0.0406202 255 140 0
-0.0664880 0.0760662 0.0406202 255 140 0
-0.0642164 0.0760662 0.0406202 255 140 0
-0.0619448 0.0760662 0.0406202 255 140 0
-0.0596731 0.0760662 0.0406202 255 140 0
-0.0574015 0.0760662 0.0406202 255 140 0
-0.0551299 0.0760662 0.0406202 255 140 0
-0.0528583 0.0760662 0.0406202 255 140 0
-0.0505866 0.0760662 0.0406202 255 140 0
-0.0483150 0.0760662 0.0406202 255 140 0
-0.0460434 0.0760662 0.0406202 255 140 0
-0.0437718 0.0760662 0.0406202 255 140 0
-0.0415001 0.0760662 0.0406202 255 140 0
-0.0392285 0.0760662 0.0406202 255 140 0
-0.0369569 0.0760662 0.0406202 255 140 0
-0.0346853 0.0760662 0.0406202 255 140 0
-0.0324136 0.0760662 0.0406202 255 140 0
-0.0301420 0.0760662 0.0406202 255 140 0
-0.0278704 0.0760661 0.0406202 255 140 0
-0.0255987 0.0760661 0.0406202 255 140 0
-0.0233271 0.0760661 0.0406202 255 140 0
-0.0210555 0.0760660 0.0406202 255 140 0
-0.0187839 0.0760660 0.0406202 255 140 0
-0.0165123 0.0760659 0.0406202 255 140 0
-0.0142406 0.0760659 0.0406202 255 140 0
-0.0119690 0.0760657 0.0406202 255 140 0
-0.0096974 0.0760657 0.0406202 255 140 0
-0.0074258 0.0760657 0.0406202 255 140 0
-0.0051541 0.0760657 0.0406202 255 140 0
-0.0028825 0.0760658 0.0406202 255 140 0
-0.0006109 0.0760659 0.0406202 255 140 0
0.0016607 0.0760660 0.0406202 255 140 0
0.0039323 0.0760662 0.0406202 255 140 0
0.0062039 0.0760661 0.0406202 255 140 0
0.0084755 0.0760660 0.0406202 255 140 0
0.0107470 0.0760666 0.0406201 255 140 0
0.0130198 0.0760648 0.0406208 255 140 0
-0.0733029 0.0783378 0.0406202 255 140 0
-0.0710313 0.0783378 0.0406202 255 140 0
-0.0687596 0.0783378 0.0406202 255 140 0
-0.0664880 0.0783378 0.0406202 255 140 0
-0.0642164 0.0783378 0.0406202 255 140 0
-0.0619448 0.0783378 0.0406202 255 140 0
-0.0596731 0.0783378 0.0406202 255 140 0
-0.0574015 0.0783378 0.0406202 255 140 0
-0.0551299 0.0783378 0.0406202 255 140 0
-0.0528583 0.0783378 0.0406202 255 140 0
-0.0505866 0.0783378 0.0406202 255 140 0
-0.0483150 0.0783378 0.0406202 255 140 0
-0.0460434 0.0783378 0.0406202 255 140 0
-0.0437718 0.0783378 0.0406202 255 140 0
-0.0415001 0.0783378 0.0406202 255 140 0
-0.0392285 0.0783378 0.0406202 255 140 0
-0.0369569 0.0783378 0.0406202 255 140 0
-0.0346853 0.0783378 0.0406202 255 140 0
-0.0324136 0.0783378 0.0406202 255 140 0
-0.0301420 0.0783378 0.0406202 255 140 0
-0.0278704 0.0783378 0.0406202 255 140 0
-0.0255987 0.0783377 0.0406202 255 140 0
-0.0233271 0.0783377 0.0406202 255 140 0
-0.0210555 0.0783377 0.0406202 255 140 0
-0.0187839 0.0783376 0.0406202 255 140 0
-0.0165123 0.0783375 0.0406202 255 140 0
-0.0142406 0.0783374 0.0406202 255 140 0
-0.0119690 0.0783373 0.0406202 255 140 0
-0.0096974 0.0783372 0.0406202 255 140 0
-0.0074258 0.0783373 0.0406202 255 140 0
-0.0051541 0.0783373 0.0406202 255 140 0
-0.0028825 0.0783374 0.0406202 255 140 0
-0.0006109 0.0783374 0.0406202 255 140 0
0.0016607 0.0783375 0.0406202 255 140 0
0.0039323 0.0783375 0.0406202 255 140 0
0.0062039 0.0783374 0.0406202 255 140 0
0.0084756 0.0783372 0.0406202 255 140 0
0.0107471 0.0783374 0.0406202 255 140 0
0.0130194 0.0783365 0.0406204 255 140 0
-0.0733029 0.0806094 0.0406202 255 140 0
-0.0710313 0.0806094 0.0406202 255 140 0
-0.0687596 0.0806094 0.0406202 255 140 0
-0.0664880 0.0806094 0.0406202 255 140 0
-0.0642164 0.0806094 0.0406202 255 140 0
-0.0619448 0.0806094 0.0406202 255 140 0
-0.0596731 0.0806094 0.0406202 255 140 0
-0.0574015 0.0806094 0.0406202 255 140 0
-0.0551299 0.0806094 0.0406202 255 140 0
-0.0528583 0.0806094 0.0406202 255 140 0
-0.0505866 0.0806094 0.0406202 255 140 0
-0.0483150 0.0806094 0.0406202 255 140 0
-0.0460434 0.0806094 0.0406202 255 140 0
-0.0437718 0.0806094 0.0406202 255 140 0
-0.0415001 0.0806094 0.0406202 255 140 0
-0.0392285 0.0806094 0.0406202 255 140 0
-0.0369569 0.0806094 0.0406202 255 140 0
-0.0346853 0.0806094 0.0406202 255 140 0
-0.0324136 0.0806094 0.0406202 255 140 0
-0.0301420 0.0806094 0.0406202 255 140 0
-0.0278704 0.0806094 0.0406202 255 140 0
-0.0255987 0.0806094 0.0406202 255 140 0
-0.0233271 0.0806093 0.0406202 255 140 0
-0.0210555 0.0806093 0.0406202 255 140 0
-0.0187839 0.0806092 0.0406202 255 140 0
-0.0165123 0.0806091 0.0406202 255 140 0
-0.0142406 0.0806091 0.0406202 255 140 0
-0.0119690 0.0806089 0.0406202 255 140 0
-0.0096974 0.0806088 0.0406202 255 140 0
-0.0074258 0.0806089 0.0406202 255 140 0
-0.0051541 0.0806089 0.0406202 255 140 0
-0.0028825 0.0806090 0.0406202 255 140 0
-0.0006109 0.0806090 0.0406202 255 140 0
0.0016607 0.0806091 0.0406202 255 140 0
0.0039323 0.0806091 0.0406202 255 140 0
