ply
format ascii 1.0
element vertex 1141
property float x
property float y
property float z
property uchar red
property uchar green
property uchar blue
end_header
0.0039370 0.0805907 -0.0456518 255 140 0
0.0062078 0.0805943 -0.0456690 255 140 0
0.0084781 0.0805969 -0.0456799 255 140 0
-0.0687596 0.0828703 -0.0456842 255 140 0
-0.0664880 0.0828686 -0.0456725 255 140 0
-0.0642164 0.0828653 -0.0456549 255 140 0
-0.0619541 0.0828625 -0.0456220 255 140 0
-0.0596830 0.0828633 -0.0455882 255 140 0
-0.0574113 0.0828646 -0.0455580 255 140 0
-0.0551393 0.0828684 -0.0455284 255 140 0
-0.0528631 0.0828691 -0.0454988 255 140 0
-0.0505906 0.0828705 -0.0454766 255 140 0
-0.0483165 0.0828714 -0.0454609 255 140 0
-0.0460449 0.0828710 -0.0454505 255 140 0
-0.0437730 0.0828723 -0.0454441 255 140 0
-0.0415013 0.0828725 -0.0454402 255 140 0
-0.0392297 0.0828727 -0.0454377 255 140 0
-0.0369586 0.0828736 -0.0454369 255 140 0
-0.0346895 0.0828745 -0.0454363 255 140 0
-0.0324152 0.0828744 -0.0454362 255 140 0
-0.0301433 0.0828744 -0.0454361 255 140 0
-0.0278714 0.0828744 -0.0454360 255 140 0
-0.0255996 0.0828743 -0.0454361 255 140 0
-0.0233276 0.0828735 -0.0454365 255 140 0
-0.0210546 0.0828735 -0.0454373 255 140 0
-0.0187827 0.0828735 -0.0454393 255 140 0
-0.0165110 0.0828717 -0.0454435 255 140 0
-0.0142383 0.0828724 -0.0454520 255 140 0
-0.0119687 0.0828706 -0.0454696 255 140 0
-0.0096973 0.0828695 -0.0454907 255 140 0
-0.0074227 0.0828684 -0.0455164 255 140 0
-0.0051487 0.0828667 -0.0455444 255 140 0
-0.0028765 0.0828635 -0.0455721 255 140 0
-0.0006049 0.0828620 -0.0456002 255 140 0
0.0016661 0.0828622 -0.0456269 255 140 0
0.0039373 0.0828614 -0.0456469 255 140 0
0.0062079 0.0828662 -0.0456650 255 140 0
0.0084782 0.0828688 -0.0456778 255 140 0
0.0107496 0.0828694 -0.0456859 255 140 0
-0.0687596 0.0851413 -0.0456828 255 140 0
-0.0664880 0.0851404 -0.0456699 255 140 0
-0.0642164 0.0851380 -0.0456516 255 140 0
-0.0619528 0.0851337 -0.0456165 255 140 0
-0.0596833 0.0851335 -0.0455820 255 140 0
-0.0574116 0.0851387 -0.0455517 255 140 0
-0.0551375 0.0851416 -0.0455223 255 140 0
-0.0528629 0.0851427 -0.0454924 255 140 0
-0.0505905 0.0851431 -0.0454715 255 140 0
-0.0483167 0.0851443 -0.0454570 255 140 0
-0.0460449 0.0851452 -0.0454480 255 140 0
-0.0437731 0.0851448 -0.0454427 255 140 0
-0.0415014 0.0851444 -0.0454394 255 140 0
-0.0392297 0.0851450 -0.0454375 255 140 0
-0.0369588 0.0851456 -0.0454370 255 140 0
-0.0346895 0.0851461 -0.0454368 255 140 0
-0.0324154 0.0851460 -0.0454367 255 140 0
-0.0301432 0.0851461 -0.0454366 255 140 0
-0.0278713 0.0851462 -0.0454364 255 140 0
-0.0255995 0.0851459 -0.0454365 255 140 0
-0.0233276 0.0851456 -0.0454370 255 140 0
-0.0210553 0.0851458 -0.0454377 255 140 0
-0.0187829 0.0851456 -0.0454394 255 140 0
-0.0165112 0.0851444 -0.0454432 255 140 0
-0.0142383 0.0851453 -0.0454508 255 140 0
-0.0119688 0.0851435 -0.0454655 255 140 0
-0.0096977 0.0851419 -0.0454848 255 140 0
-0.0074230 0.0851402 -0.0455098 255 140 0
-0.0051492 0.0851394 -0.0455374 255 140 0
-0.0028765 0.0851371 -0.0455650 255 140 0
-0.0006048 0.0851338 -0.0455923 255 140 0
0.0016663 0.0851331 -0.0456214 255 140 0
0.0039373 0.0851326 -0.0456432 255 140 0
0.0062080 0.0851388 -0.0456626 255 140 0
0.0084784 0.0851404 -0.0456765 255 140 0
0.0107496 0.0851407 -0.0456846 255 140 0
-0.0687596 0.0874137 -0.0456820 255 140 0
-0.0664880 0.0874117 -0.0456688 255 140 0
-0.0642164 0.0874099 -0.0456498 255 140 0
-0.0619502 0.0874059 -0.0456146 255 140 0
-0.0596833 0.0874068 -0.0455792 255 140 0
-0.0574115 0.0874096 -0.0455503 255 140 0
-0.0551351 0.0874124 -0.0455219 255 140 0
-0.0528626 0.0874145 -0.0454925 255 140 0
-0.0505883 0.0874157 -0.0454717 255 140 0
-0.0483165 0.0874155 -0.0454584 255 140 0
-0.0460448 0.0874166 -0.0454500 255 140 0
-0.0437729 0.0874170 -0.0454454 255 140 0
-0.0415013 0.0874168 -0.0454428 255 140 0
-0.0392296 0.0874171 -0.0454413 255 140 0
-0.0369586 0.0874190 -0.0454416 255 140 0
-0.0346890 0.0874191 -0.0454417 255 140 0
-0.0324151 0.0874191 -0.0454415 255 140 0
-0.0301431 0.0874190 -0.0454415 255 140 0
-0.0278713 0.0874189 -0.0454414 255 140 0
-0.0255994 0.0874189 -0.0454414 255 140 0
-0.0233276 0.0874191 -0.0454416 255 140 0
-0.0210554 0.0874186 -0.0454421 255 140 0
-0.0187828 0.0874175 -0.0454436 255 140 0
-0.0165111 0.0874166 -0.0454466 255 140 0
-0.0142385 0.0874165 -0.0454535 255 140 0
-0.0119695 0.0874147 -0.0454660 255 140 0
-0.0096979 0.0874138 -0.0454833 255 140 0
-0.0074231 0.0874135 -0.0455074 255 140 0
-0.0051496 0.0874116 -0.0455342 255 140 0
-0.0028767 0.0874075 -0.0455619 255 140 0
-0.0006048 0.0874061 -0.0455899 255 140 0
0.0016663 0.0874045 -0.0456187 255 140 0
0.0039374 0.0874046 -0.0456411 255 140 0
0.0062080 0.0874100 -0.0456606 255 140 0
0.0084788 0.0874113 -0.0456752 255 140 0
0.0107496 0.0874119 -0.0456837 255 140 0
-0.0710313 0.0896862 -0.0456884 255 140 0
-0.0687596 0.0896845 -0.0456810 255 140 0
-0.0664880 0.0896836 -0.0456682 255 140 0
-0.0642164 0.0896822 -0.0456508 255 140 0
-0.0619492 0.0896781 -0.0456157 255 140 0
-0.0596809 0.0896767 -0.0455830 255 140 0
-0.0574069 0.0896821 -0.0455558 255 140 0
-0.0551345 0.0896852 -0.0455290 255 140 0
-0.0528622 0.0896854 -0.0455019 255 140 0
-0.0505881 0.0896867 -0.0454812 255 140 0
-0.0483164 0.0896880 -0.0454686 255 140 0
-0.0460446 0.0896868 -0.0454604 255 140 0
-0.0437727 0.0896878 -0.0454560 255 140 0
-0.0415011 0.0896873 -0.0454537 255 140 0
-0.0392294 0.0896877 -0.0454524 255 140 0
-0.0369584 0.0896884 -0.0454527 255 140 0
-0.0346880 0.0896890 -0.0454529 255 140 0
-0.0324150 0.0896890 -0.0454529 255 140 0
-0.0301432 0.0896890 -0.0454529 255 140 0
-0.0278713 0.0896895 -0.0454529 255 140 0
-0.0255995 0.0896893 -0.0454529 255 140 0
-0.0233277 0.0896893 -0.0454531 255 140 0
-0.0210556 0.0896894 -0.0454535 255 140 0
-0.0187830 0.0896880 -0.0454547 255 140 0
-0.0165113 0.0896868 -0.0454575 255 140 0
-0.0142389 0.0896871 -0.0454640 255 140 0
-0.0119695 0.0896869 -0.0454753 255 140 0
-0.0096980 0.0896852 -0.0454913 255 140 0
-0.0074236 0.0896848 -0.0455148 255 140 0
-0.0051498 0.0896832 -0.0455392 255 140 0
-0.0028772 0.0896797 -0.0455652 255 140 0
-0.0006053 0.0896771 -0.0455927 255 140 0
0.0016660 0.0896767 -0.0456189 255 140 0
0.0039369 0.0896782 -0.0456405 255 140 0
0.0062080 0.0896821 -0.0456608 255 140 0
0.0084788 0.0896839 -0.0456747 255 140 0
0.0107497 0.0896842 -0.0456834 255 140 0
-0.0710313 0.0919573 -0.0456895 255 140 0
-0.0687596 0.0919567 -0.0456820 255 140 0
-0.0664880 0.0919548 -0.0456671 255 140 0
-0.0642164 0.0919527 -0.0456455 255 140 0
-0.0619553 0.0919477 -0.0456086 255 140 0
-0.0596838 0.0919473 -0.0455709 255 140 0
-0.0574123 0.0919525 -0.0455397 255 140 0
-0.0551386 0.0919563 -0.0455089 255 140 0
-0.0528627 0.0919578 -0.0454775 255 140 0
-0.0505886 0.0919571 -0.0454562 255 140 0
-0.0483168 0.0919589 -0.0454431 255 140 0
-0.0460449 0.0919595 -0.0454349 255 140 0
-0.0437731 0.0919600 -0.0454307 255 140 0
-0.0415013 0.0919594 -0.0454285 255 140 0
-0.0392296 0.0919596 -0.0454273 255 140 0
-0.0369588 0.0919609 -0.0454274 255 140 0
-0.0346888 0.0919620 -0.0454276 255 140 0
-0.0324153 0.0919621 -0.0454277 255 140 0
-0.0301434 0.0919622 -0.0454278 255 140 0
-0.0278715 0.0919625 -0.0454278 255 140 0
-0.0255997 0.0919621 -0.0454279 255 140 0
-0.0233277 0.0919618 -0.0454281 255 140 0
-0.0210556 0.0919611 -0.0454285 255 140 0
-0.0187831 0.0919608 -0.0454296 255 140 0
-0.0165114 0.0919604 -0.0454320 255 140 0
-0.0142388 0.0919593 -0.0454383 255 140 0
-0.0119696 0.0919577 -0.0454473 255 140 0
-0.0096981 0.0919567 -0.0454624 255 140 0
-0.0074231 0.0919556 -0.0454856 255 140 0
-0.0051492 0.0919539 -0.0455147 255 140 0
-0.0028760 0.0919501 -0.0455462 255 140 0
-0.0006041 0.0919481 -0.0455772 255 140 0
0.0016670 0.0919465 -0.0456103 255 140 0
0.0039379 0.0919471 -0.0456351 255 140 0
0.0062083 0.0919524 -0.0456566 255 140 0
0.0084789 0.0919547 -0.0456724 255 140 0
0.0107498 0.0919551 -0.0456823 255 140 0
-0.0733029 0.0942307 -0.0456950 255 140 0
-0.0710313 0.0942298 -0.0456908 255 140 0
-0.0687596 0.0942286 -0.0456831 255 140 0
-0.0664880 0.0942261 -0.0456677 255 140 0
-0.0642164 0.0942257 -0.0456442 255 140 0
-0.0619556 0.0942178 -0.0456055 255 140 0
-0.0596840 0.0942173 -0.0455656 255 140 0
-0.0574123 0.0942233 -0.0455317 255 140 0
-0.0551403 0.0942265 -0.0454968 255 140 0
-0.0528627 0.0942273 -0.0454648 255 140 0
-0.0505894 0.0942293 -0.0454423 255 140 0
-0.0483169 0.0942293 -0.0454284 255 140 0
-0.0460449 0.0942310 -0.0454198 255 140 0
-0.0437729 0.0942304 -0.0454154 255 140 0
-0.0415012 0.0942310 -0.0454131 255 140 0
-0.0392296 0.0942322 -0.0454118 255 140 0
-0.0369588 0.0942329 -0.0454119 255 140 0
-0.0346888 0.0942333 -0.0454120 255 140 0
-0.0324153 0.0942335 -0.0454121 255 140 0
-0.0301433 0.0942337 -0.0454123 255 140 0
-0.0278714 0.0942341 -0.0454125 255 140 0
-0.0255995 0.0942341 -0.0454127 255 140 0
-0.0233277 0.0942333 -0.0454131 255 140 0
-0.0210555 0.0942326 -0.0454134 255 140 0
-0.0187832 0.0942322 -0.0454145 255 140 0
-0.0165116 0.0942323 -0.0454166 255 140 0
-0.0142387 0.0942301 -0.0454230 255 140 0
-0.0119696 0.0942296 -0.0454312 255 140 0
-0.0096981 0.0942284 -0.0454467 255 140 0
-0.0074230 0.0942267 -0.0454701 255 140 0
-0.0051485 0.0942245 -0.0455004 255 140 0
-0.0028754 0.0942226 -0.0455360 255 140 0
-0.0006034 0.0942185 -0.0455700 255 140 0
0.0016676 0.0942170 -0.0456049 255 140 0
0.0039381 0.0942180 -0.0456319 255 140 0
0.0062092 0.0942243 -0.0456547 255 140 0
0.0084789 0.0942262 -0.0456714 255 140 0
0.0107499 0.0942277 -0.0456820 255 140 0
-0.0733029 0.0965028 -0.0456952 255 140 0
-0.0710313 0.0965020 -0.0456915 255 140 0
-0.0687596 0.0965004 -0.0456841 255 140 0
-0.0664880 0.0964993 -0.0456707 255 140 0
-0.0642164 0.0964977 -0.0456508 255 140 0
-0.0619555 0.0964910 -0.0456118 255 140 0
-0.0596840 0.0964909 -0.0455734 255 140 0
-0.0574126 0.0964952 -0.0455411 255 140 0
-0.0551405 0.0964977 -0.0455095 255 140 0
-0.0528624 0.0964989 -0.0454759 255 140 0
-0.0505893 0.0964985 -0.0454543 255 140 0
-0.0483168 0.0964992 -0.0454407 255 140 0
-0.0460450 0.0964995 -0.0454324 255 140 0
-0.0437731 0.0964994 -0.0454279 255 140 0
-0.0415014 0.0964987 -0.0454254 255 140 0
-0.0392298 0.0964991 -0.0454241 255 140 0
-0.0369588 0.0965000 -0.0454244 255 140 0
-0.0346886 0.0964996 -0.0454246 255 140 0
-0.0324153 0.0964995 -0.0454248 255 140 0
-0.0301433 0.0964997 -0.0454251 255 140 0
-0.0278715 0.0964997 -0.0454253 255 140 0
-0.0255997 0.0964997 -0.0454256 255 140 0
-0.0233277 0.0965002 -0.0454259 255 140 0
-0.0210556 0.0965001 -0.0454263 255 140 0
-0.0187833 0.0965002 -0.0454275 255 140 0
-0.0165116 0.0964991 -0.0454297 255 140 0
-0.0142387 0.0964984 -0.0454358 255 140 0
-0.0119696 0.0964984 -0.0454438 255 140 0
-0.0096980 0.0964985 -0.0454582 255 140 0
-0.0074230 0.0964978 -0.0454807 255 140 0
-0.0051489 0.0964957 -0.0455104 255 140 0
-0.0028760 0.0964927 -0.0455435 255 140 0
-0.0006040 0.0964915 -0.0455756 255 140 0
0.0016671 0.0964885 -0.0456096 255 140 0
0.0039380 0.0964918 -0.0456347 255 140 0
0.0062082 0.0964961 -0.0456574 255 140 0
0.0084788 0.0964984 -0.0456733 255 140 0
0.0107498 0.0964991 -0.0456834 255 140 0
-0.0710313 0.0987739 -0.0456923 255 140 0
-0.0687596 0.0987726 -0.0456857 255 140 0
-0.0664880 0.0987719 -0.0456734 255 140 0
-0.0642164 0.0987701 -0.0456554 255 140 0
-0.0619493 0.0987643 -0.0456177 255 140 0
-0.0596843 0.0987623 -0.0455806 255 140 0
-0.0574125 0.0987677 -0.0455496 255 140 0
-0.0551404 0.0987687 -0.0455191 255 140 0
-0.0528622 0.0987686 -0.0454853 255 140 0
-0.0505894 0.0987691 -0.0454635 255 140 0
-0.0483166 0.0987693 -0.0454495 255 140 0
-0.0460448 0.0987692 -0.0454411 255 140 0
-0.0437731 0.0987690 -0.0454363 255 140 0
-0.0415014 0.0987681 -0.0454336 255 140 0
-0.0392297 0.0987685 -0.0454320 255 140 0
-0.0369587 0.0987677 -0.0454321 255 140 0
-0.0346881 0.0987674 -0.0454323 255 140 0
-0.0324152 0.0987674 -0.0454327 255 140 0
-0.0301432 0.0987672 -0.0454330 255 140 0
-0.0278714 0.0987676 -0.0454333 255 140 0
-0.0255995 0.0987678 -0.0454336 255 140 0
-0.0233276 0.0987679 -0.0454340 255 140 0
-0.0210555 0.0987685 -0.0454346 255 140 0
-0.0187834 0.0987682 -0.0454359 255 140 0
-0.0165117 0.0987680 -0.0454383 255 140 0
-0.0142386 0.0987687 -0.0454443 255 140 0
-0.0119694 0.0987686 -0.0454532 255 140 0
-0.0096979 0.0987680 -0.0454683 255 140 0
-0.0074231 0.0987681 -0.0454899 255 140 0
-0.0051494 0.0987669 -0.0455190 255 140 0
-0.0028764 0.0987655 -0.0455503 255 140 0
-0.0006044 0.0987628 -0.0455828 255 140 0
0.0016667 0.0987626 -0.0456132 255 140 0
0.0039378 0.0987659 -0.0456372 255 140 0
0.0062082 0.0987687 -0.0456597 255 140 0
0.0084784 0.0987711 -0.0456752 255 140 0
0.0107498 0.0987715 -0.0456851 255 140 0
-0.0710313 0.1010456 -0.0456924 255 140 0
-0.0687596 0.1010448 -0.0456865 255 140 0
-0.0664880 0.1010438 -0.0456751 255 140 0
-0.0642164 0.1010449 -0.0456591 255 140 0
-0.0619486 0.1010387 -0.0456228 255 140 0
-0.0596843 0.1010344 -0.0455895 255 140 0
-0.0574126 0.1010369 -0.0455558 255 140 0
-0.0551406 0.1010395 -0.0455251 255 140 0
-0.0528622 0.1010401 -0.0454922 255 140 0
-0.0505898 0.1010403 -0.0454673 255 140 0
-0.0483168 0.1010405 -0.0454527 255 140 0
-0.0460451 0.1010403 -0.0454431 255 140 0
-0.0437732 0.1010404 -0.0454375 255 140 0
-0.0415015 0.1010401 -0.0454338 255 140 0
-0.0392297 0.1010400 -0.0454317 255 140 0
-0.0369588 0.1010390 -0.0454315 255 140 0
-0.0346883 0.1010393 -0.0454313 255 140 0
-0.0324153 0.1010396 -0.0454318 255 140 0
-0.0301433 0.1010395 -0.0454323 255 140 0
-0.0278714 0.1010400 -0.0454327 255 140 0
-0.0255996 0.1010399 -0.0454332 255 140 0
-0.0233277 0.1010398 -0.0454338 255 140 0
-0.0210554 0.1010397 -0.0454346 255 140 0
-0.0187833 0.1010399 -0.0454364 255 140 0
-0.0165116 0.1010398 -0.0454395 255 140 0
-0.0142384 0.1010392 -0.0454462 255 140 0
-0.0119695 0.1010395 -0.0454570 255 140 0
-0.0096979 0.1010403 -0.0454732 255 140 0
-0.0074230 0.1010393 -0.0454973 255 140 0
-0.0051494 0.1010378 -0.0455240 255 140 0
-0.0028764 0.1010355 -0.0455543 255 140 0
-0.0006045 0.1010351 -0.0455872 255 140 0
0.0016666 0.1010377 -0.0456164 255 140 0
0.0039373 0.1010386 -0.0456389 255 140 0
0.0062082 0.1010415 -0.0456614 255 140 0
0.0084784 0.1010419 -0.0456760 255 140 0
0.0107498 0.1010435 -0.0456864 255 140 0
-0.0687596 0.1033161 -0.0456883 255 140 0
-0.0664880 0.1033158 -0.0456776 255 140 0
-0.0642164 0.1033169 -0.0456628 255 140 0
-0.0619478 0.1033114 -0.0456285 255 140 0
-0.0596786 0.1033100 -0.0455979 255 140 0
-0.0574126 0.1033098 -0.0455646 255 140 0
-0.0551370 0.1033103 -0.0455340 255 140 0
-0.0528620 0.1033103 -0.0455023 255 140 0
-0.0505896 0.1033108 -0.0454749 255 140 0
-0.0483168 0.1033112 -0.0454586 255 140 0
-0.0460449 0.1033112 -0.0454474 255 140 0
-0.0437731 0.1033115 -0.0454406 255 140 0
-0.0415014 0.1033117 -0.0454362 255 140 0
-0.0392297 0.1033110 -0.0454332 255 140 0
-0.0369587 0.1033098 -0.0454322 255 140 0
-0.0346880 0.1033097 -0.0454317 255 140 0
-0.0324152 0.1033095 -0.0454320 255 140 0
-0.0301432 0.1033096 -0.0454324 255 140 0
-0.0278713 0.1033097 -0.0454329 255 140 0
-0.0255994 0.1033098 -0.0454336 255 140 0
-0.0233276 0.1033096 -0.0454346 255 140 0
-0.0210552 0.1033098 -0.0454359 255 140 0
-0.0187834 0.1033101 -0.0454382 255 140 0
-0.0165117 0.1033114 -0.0454426 255 140 0
-0.0142382 0.1033106 -0.0454501 255 140 0
-0.0119693 0.1033101 -0.0454651 255 140 0
-0.0096978 0.1033106 -0.0454862 255 140 0
-0.0074230 0.1033097 -0.0455081 255 140 0
-0.0051494 0.1033090 -0.0455329 255 140 0
-0.0028766 0.1033083 -0.0455619 255 140 0
-0.0006048 0.1033099 -0.0455938 255 140 0
0.0016663 0.1033101 -0.0456211 255 140 0
0.0039369 0.1033115 -0.0456451 255 140 0
0.0062082 0.1033138 -0.0456637 255 140 0
0.0084783 0.1033149 -0.0456775 255 140 0
0.0107498 0.1033152 -0.0456873 255 140 0
-0.0687596 0.1055883 -0.0456890 255 140 0
-0.0664880 0.1055875 -0.0456805 255 140 0
-0.0642164 0.1055886 -0.0456668 255 140 0
-0.0619470 0.1055831 -0.0456361 255 140 0
-0.0596768 0.1055841 -0.0456085 255 140 0
-0.0574066 0.1055850 -0.0455793 255 140 0
-0.0551347 0.1055853 -0.0455463 255 140 0
-0.0528621 0.1055819 -0.0455152 255 140 0
-0.0505898 0.1055824 -0.0454902 255 140 0
-0.0483169 0.1055811 -0.0454683 255 140 0
-0.0460452 0.1055811 -0.0454551 255 140 0
-0.0437734 0.1055817 -0.0454466 255 140 0
-0.0415016 0.1055812 -0.0454406 255 140 0
-0.0392298 0.1055809 -0.0454366 255 140 0
-0.0369588 0.1055808 -0.0454347 255 140 0
-0.0346881 0.1055810 -0.0454336 255 140 0
-0.0324154 0.1055805 -0.0454340 255 140 0
-0.0301433 0.1055801 -0.0454344 255 140 0
-0.0278714 0.1055801 -0.0454352 255 140 0
-0.0255995 0.1055800 -0.0454361 255 140 0
-0.0233276 0.1055803 -0.0454374 255 140 0
-0.0210553 0.1055808 -0.0454393 255 140 0
-0.0187834 0.1055804 -0.0454425 255 140 0
-0.0165116 0.1055812 -0.0454484 255 140 0
-0.0142382 0.1055808 -0.0454570 255 140 0
-0.0119691 0.1055809 -0.0454804 255 140 0
-0.0096977 0.1055815 -0.0455022 255 140 0
-0.0074229 0.1055816 -0.0455230 255 140 0
-0.0051495 0.1055808 -0.0455462 255 140 0
-0.0028771 0.1055835 -0.0455765 255 140 0
-0.0006054 0.1055827 -0.0456034 255 140 0
0.0016657 0.1055820 -0.0456277 255 140 0
0.0039368 0.1055863 -0.0456510 255 140 0
0.0062074 0.1055857 -0.0456669 255 140 0
0.0084783 0.1055865 -0.0456793 255 140 0
-0.0687596 0.1078602 -0.0456904 255 140 0
-0.0664880 0.1078601 -0.0456831 255 140 0
-0.0642164 0.1078598 -0.0456710 255 140 0
-0.0619461 0.1078579 -0.0456469 255 140 0
-0.0596760 0.1078551 -0.0456193 255 140 0
-0.0574051 0.1078555 -0.0455925 255 140 0
-0.0551338 0.1078577 -0.0455616 255 140 0
-0.0528617 0.1078567 -0.0455313 255 140 0
-0.0505896 0.1078532 -0.0455065 255 140 0
-0.0483168 0.1078526 -0.0454857 255 140 0
-0.0460450 0.1078525 -0.0454695 255 140 0
-0.0437732 0.1078520 -0.0454560 255 140 0
-0.0415015 0.1078528 -0.0454478 255 140 0
-0.0392298 0.1078516 -0.0454420 255 140 0
-0.0369587 0.1078516 -0.0454386 255 140 0
-0.0346877 0.1078514 -0.0454367 255 140 0
-0.0324151 0.1078510 -0.0454371 255 140 0
-0.0301432 0.1078510 -0.0454379 255 140 0
-0.0278713 0.1078510 -0.0454389 255 140 0
-0.0255995 0.1078511 -0.0454403 255 140 0
-0.0233275 0.1078508 -0.0454423 255 140 0
-0.0210553 0.1078510 -0.0454451 255 140 0
-0.0187834 0.1078516 -0.0454495 255 140 0
-0.0165117 0.1078521 -0.0454572 255 140 0
-0.0142381 0.1078521 -0.0454709 255 140 0
-0.0119690 0.1078537 -0.0454962 255 140 0
-0.0096975 0.1078538 -0.0455194 255 140 0
-0.0074229 0.1078558 -0.0455388 255 140 0
-0.0051496 0.1078559 -0.0455607 255 140 0
-0.0028776 0.1078545 -0.0455897 255 140 0
-0.0006060 0.1078555 -0.0456139 255 140 0
0.0016651 0.1078547 -0.0456387 255 140 0
0.0039364 0.1078579 -0.0456575 255 140 0
0.0062070 0.1078578 -0.0456707 255 140 0
0.0084783 0.1078591 -0.0456813 255 140 0
-0.0664880 0.1101316 -0.0456859 255 140 0
-0.0642164 0.1101321 -0.0456753 255 140 0
-0.0619448 0.1101305 -0.0456565 255 140 0
-0.0596751 0.1101267 -0.0456306 255 140 0
-0.0574045 0.1101286 -0.0456076 255 140 0
-0.0551331 0.1101283 -0.0455823 255 140 0
-0.0528613 0.1101293 -0.0455513 255 140 0
-0.0505893 0.1101303 -0.0455271 255 140 0
-0.0483167 0.1101301 -0.0455055 255 140 0
-0.0460451 0.1101293 -0.0454881 255 140 0
-0.0437735 0.1101240 -0.0454743 255 140 0
-0.0415018 0.1101231 -0.0454627 255 140 0
-0.0392300 0.1101228 -0.0454516 255 140 0
-0.0369588 0.1101225 -0.0454467 255 140 0
-0.0346878 0.1101223 -0.0454439 255 140 0
-0.0324153 0.1101222 -0.0454443 255 140 0
-0.0301431 0.1101221 -0.0454451 255 140 0
-0.0278713 0.1101219 -0.0454464 255 140 0
-0.0255994 0.1101220 -0.0454488 255 140 0
-0.0233275 0.1101220 -0.0454517 255 140 0
-0.0210554 0.1101224 -0.0454580 255 140 0
-0.0187835 0.1101227 -0.0454653 255 140 0
-0.0165117 0.1101230 -0.0454754 255 140 0
-0.0142381 0.1101232 -0.0454878 255 140 0
-0.0119689 0.1101296 -0.0455139 255 140 0
-0.0096974 0.1101305 -0.0455374 255 140 0
-0.0074229 0.1101278 -0.0455562 255 140 0
-0.0051497 0.1101277 -0.0455813 255 140 0
-0.0028780 0.1101274 -0.0456046 255 140 0
-0.0006066 0.1101261 -0.0456252 255 140 0
0.0016646 0.1101297 -0.0456488 255 140 0
0.0039356 0.1101303 -0.0456637 255 140 0
0.0062069 0.1101304 -0.0456745 255 140 0
-0.0664880 0.1124038 -0.0456883 255 140 0
-0.0642164 0.1124035 -0.0456803 255 140 0
-0.0619448 0.1124028 -0.0456658 255 140 0
-0.0596736 0.1124014 -0.0456481 255 140 0
-0.0574035 0.1123994 -0.0456240 255 140 0
-0.0551324 0.1124003 -0.0456029 255 140 0
-0.0528608 0.1124007 -0.0455799 255 140 0
-0.0505892 0.1124005 -0.0455571 255 140 0
-0.0483168 0.1124020 -0.0455326 255 140 0
-0.0460451 0.1124019 -0.0455150 255 140 0
-0.0437733 0.1124018 -0.0455003 255 140 0
-0.0415016 0.1124007 -0.0454873 255 140 0
-0.0392299 0.1123992 -0.0454770 255 140 0
-0.0369587 0.1123947 -0.0454690 255 140 0
-0.0346875 0.1123938 -0.0454639 255 140 0
-0.0324151 0.1123936 -0.0454645 255 140 0
-0.0301431 0.1123938 -0.0454659 255 140 0
-0.0278712 0.1123938 -0.0454687 255 140 0
-0.0255994 0.1123951 -0.0454722 255 140 0
-0.0233273 0.1123953 -0.0454769 255 140 0
-0.0210554 0.1123952 -0.0454824 255 140 0
-0.0187835 0.1123981 -0.0454897 255 140 0
-0.0165117 0.1124015 -0.0455001 255 140 0
-0.0142381 0.1124016 -0.0455125 255 140 0
-0.0119689 0.1124006 -0.0455366 255 140 0
-0.0096973 0.1124010 -0.0455623 255 140 0
-0.0074230 0.1123995 -0.0455813 255 140 0
-0.0051506 0.1123986 -0.0455999 255 140 0
-0.0028787 0.1123986 -0.0456200 255 140 0
-0.0006072 0.1123994 -0.0456421 255 140 0
0.0016640 0.1124019 -0.0456582 255 140 0
0.0039353 0.1124020 -0.0456700 255 140 0
-0.0642164 0.1146755 -0.0456828 255 140 0
-0.0619448 0.1146747 -0.0456714 255 140 0
-0.0596731 0.1146747 -0.0456585 255 140 0
-0.0574022 0.1146735 -0.0456416 255 140 0
-0.0551314 0.1146722 -0.0456233 255 140 0
-0.0528601 0.1146709 -0.0456009 255 140 0
-0.0505886 0.1146715 -0.0455834 255 140 0
-0.0483164 0.1146731 -0.0455658 255 140 0
-0.0460448 0.1146745 -0.0455495 255 140 0
-0.0437731 0.1146736 -0.0455308 255 140 0
-0.0415015 0.1146733 -0.0455173 255 140 0
-0.0392298 0.1146736 -0.0455063 255 140 0
-0.0369584 0.1146713 -0.0454961 255 140 0
-0.0346869 0.1146700 -0.0454904 255 140 0
-0.0324150 0.1146697 -0.0454906 255 140 0
-0.0301430 0.1146699 -0.0454923 255 140 0
-0.0278711 0.1146702 -0.0454958 255 140 0
-0.0255993 0.1146703 -0.0455007 255 140 0
-0.0233273 0.1146721 -0.0455064 255 140 0
-0.0210556 0.1146732 -0.0455130 255 140 0
-0.0187837 0.1146736 -0.0455206 255 140 0
-0.0165119 0.1146744 -0.0455301 255 140 0
-0.0142381 0.1146743 -0.0455451 255 140 0
-0.0119689 0.1146730 -0.0455659 255 140 0
-0.0096973 0.1146722 -0.0455848 255 140 0
-0.0074239 0.1146716 -0.0456002 255 140 0
-0.0051511 0.1146703 -0.0456159 255 140 0
-0.0028794 0.1146721 -0.0456377 255 140 0
-0.0006080 0.1146740 -0.0456525 255 140 0
0.0016635 0.1146748 -0.0456644 255 140 0
0.0039352 0.1146745 -0.0456731 255 140 0
-0.0642164 0.1169477 -0.0456922 255 140 0
-0.0619448 0.1169465 -0.0456876 255 140 0
-0.0596731 0.1169462 -0.0456799 255 140 0
-0.0574015 0.1169464 -0.0456695 255 140 0
-0.0551299 0.1169467 -0.0456562 255 140 0
-0.0528588 0.1169440 -0.0456395 255 140 0
-0.0505875 0.1169448 -0.0456184 255 140 0
-0.0483159 0.1169436 -0.0456008 255 140 0
-0.0460445 0.1169450 -0.0455835 255 140 0
-0.0437731 0.1169447 -0.0455656 255 140 0
-0.0415015 0.1169450 -0.0455440 255 140 0
-0.0392299 0.1169458 -0.0455302 255 140 0
-0.0369584 0.1169455 -0.0455163 255 140 0
-0.0346869 0.1169457 -0.0455086 255 140 0
-0.0324150 0.1169455 -0.0455089 255 140 0
-0.0301429 0.1169453 -0.0455111 255 140 0
-0.0278710 0.1169460 -0.0455150 255 140 0
-0.0255991 0.1169457 -0.0455204 255 140 0
-0.0233272 0.1169464 -0.0455271 255 140 0
-0.0210553 0.1169461 -0.0455348 255 140 0
-0.0187835 0.1169450 -0.0455441 255 140 0
-0.0165118 0.1169439 -0.0455556 255 140 0
-0.0142381 0.1169438 -0.0455733 255 140 0
-0.0119687 0.1169407 -0.0455940 255 140 0
-0.0096972 0.1169408 -0.0456125 255 140 0
-0.0074231 0.1169412 -0.0456267 255 140 0
-0.0051511 0.1169442 -0.0456460 255 140 0
-0.0028795 0.1169445 -0.0456607 255 140 0
-0.0006080 0.1169447 -0.0456713 255 140 0
0.0016634 0.1169452 -0.0456793 255 140 0
-0.0642164 0.1192216 -0.0456982 255 140 0
-0.0619448 0.1192198 -0.0456977 255 140 0
-0.0596731 0.1192189 -0.0456945 255 140 0
-0.0574015 0.1192188 -0.0456881 255 140 0
-0.0551299 0.1192182 -0.0456789 255 140 0
-0.0528583 0.1192181 -0.0456654 255 140 0
-0.0505871 0.1192164 -0.0456500 255 140 0
-0.0483157 0.1192163 -0.0456284 255 140 0
-0.0460442 0.1192170 -0.0456115 255 140 0
-0.0437725 0.1192164 -0.0455934 255 140 0
-0.0415009 0.1192176 -0.0455750 255 140 0
-0.0392292 0.1192191 -0.0455552 255 140 0
-0.0369583 0.1192191 -0.0455397 255 140 0
-0.0346867 0.1192202 -0.0455309 255 140 0
-0.0324147 0.1192204 -0.0455313 255 140 0
-0.0301428 0.1192205 -0.0455336 255 140 0
-0.0278710 0.1192206 -0.0455379 255 140 0
-0.0255991 0.1192203 -0.0455434 255 140 0
-0.0233271 0.1192205 -0.0455502 255 140 0
-0.0210552 0.1192186 -0.0455582 255 140 0
-0.0187835 0.1192169 -0.0455721 255 140 0
-0.0165119 0.1192154 -0.0455855 255 140 0
-0.0142381 0.1192138 -0.0455988 255 140 0
-0.0119679 0.1192113 -0.0456183 255 140 0
-0.0096972 0.1192129 -0.0456345 255 140 0
-0.0074231 0.1192139 -0.0456529 255 140 0
-0.0051512 0.1192147 -0.0456654 255 140 0
-0.0028796 0.1192160 -0.0456767 255 140 0
-0.0006081 0.1192170 -0.0456841 255 140 0
-0.0619448 0.1214916 -0.0456925 255 140 0
-0.0596731 0.1214908 -0.0456895 255 140 0
-0.0574015 0.1214909 -0.0456847 255 140 0
-0.0551299 0.1214903 -0.0456784 255 140 0
-0.0528583 0.1214899 -0.0456709 255 140 0
-0.0505867 0.1214897 -0.0456621 255 140 0
-0.0483154 0.1214891 -0.0456517 255 140 0
-0.0460439 0.1214872 -0.0456397 255 140 0
-0.0437725 0.1214868 -0.0456230 255 140 0
-0.0415009 0.1214864 -0.0456104 255 140 0
-0.0392292 0.1214852 -0.0455995 255 140 0
-0.0369576 0.1214863 -0.0455864 255 140 0
-0.0346860 0.1214869 -0.0455791 255 140 0
-0.0324144 0.1214871 -0.0455797 255 140 0
-0.0301427 0.1214872 -0.0455814 255 140 0
-0.0278709 0.1214872 -0.0455841 255 140 0
-0.0255990 0.1214865 -0.0455887 255 140 0
-0.0233272 0.1214859 -0.0455943 255 140 0
-0.0210554 0.1214853 -0.0456010 255 140 0
-0.0187837 0.1214857 -0.0456085 255 140 0
-0.0165121 0.1214852 -0.0456169 255 140 0
-0.0142383 0.1214849 -0.0456255 255 140 0
-0.0119689 0.1214863 -0.0456440 255 140 0
-0.0096972 0.1214859 -0.0456556 255 140 0
-0.0074243 0.1214873 -0.0456626 255 140 0
-0.0051525 0.1214876 -0.0456694 255 140 0
-0.0028803 0.1214887 -0.0456764 255 140 0
-0.0006089 0.1214893 -0.0456816 255 140 0
-0.0574015 0.1237626 -0.0456842 255 140 0
-0.0551299 0.1237619 -0.0456804 255 140 0
-0.0528583 0.1237616 -0.0456764 255 140 0
-0.0505866 0.1237611 -0.0456716 255 140 0
-0.0483150 0.1237606 -0.0456655 255 140 0
-0.0460435 0.1237599 -0.0456588 255 140 0
-0.0437721 0.1237589 -0.0456512 255 140 0
-0.0415006 0.1237575 -0.0456419 255 140 0
-0.0392292 0.1237555 -0.0456330 255 140 0
-0.0369576 0.1237560 -0.0456170 255 140 0
-0.0346860 0.1237567 -0.0456113 255 140 0
-0.0324143 0.1237569 -0.0456119 255 140 0
-0.0301425 0.1237568 -0.0456133 255 140 0
-0.0278708 0.1237566 -0.0456151 255 140 0
-0.0255991 0.1237560 -0.0456182 255 140 0
-0.0233273 0.1237558 -0.0456285 255 140 0
-0.0210556 0.1237557 -0.0456340 255 140 0
-0.0187840 0.1237571 -0.0456400 255 140 0
-0.0165124 0.1237575 -0.0456461 255 140 0
-0.0142405 0.1237576 -0.0456517 255 140 0
-0.0119689 0.1237582 -0.0456607 255 140 0
-0.0096974 0.1237590 -0.0456674 255 140 0
-0.0074244 0.1237596 -0.0456707 255 140 0
-0.0051526 0.1237601 -0.0456743 255 140 0
-0.0028810 0.1237609 -0.0456783 255 140 0
-0.0551299 0.1260380 -0.0456862 255 140 0
-0.0528583 0.1260382 -0.0456828 255 140 0
-0.0505866 0.1260374 -0.0456786 255 140 0
-0.0483150 0.1260376 -0.0456742 255 140 0
-0.0460434 0.1260365 -0.0456692 255 140 0
-0.0437718 0.1260326 -0.0456631 255 140 0
-0.0415003 0.1260308 -0.0456556 255 140 0
-0.0392288 0.1260291 -0.0456490 255 140 0
-0.0369575 0.1260281 -0.0456407 255 140 0
-0.0346859 0.1260286 -0.0456362 255 140 0
-0.0324142 0.1260290 -0.0456372 255 140 0
-0.0301424 0.1260292 -0.0456388 255 140 0
-0.0278707 0.1260294 -0.0456404 255 140 0
-0.0255990 0.1260291 -0.0456430 255 140 0
-0.0233274 0.1260296 -0.0456463 255 140 0
-0.0210557 0.1260307 -0.0456499 255 140 0
-0.0187841 0.1260317 -0.0456540 255 140 0
-0.0165124 0.1260320 -0.0456588 255 140 0
-0.0142405 0.1260333 -0.0456633 255 140 0
-0.0119691 0.1260359 -0.0456705 255 140 0
-0.0096975 0.1260348 -0.0456761 255 140 0
-0.0074244 0.1260364 -0.0456783 255 140 0
-0.0051527 0.1260365 -0.0456806 255 140 0
-0.0505866 0.1283097 -0.0456841 255 140 0
-0.0483150 0.1283088 -0.0456811 255 140 0
-0.0460434 0.1283092 -0.0456774 255 140 0
-0.0437718 0.1283092 -0.0456729 255 140 0
-0.0415001 0.1283065 -0.0456671 255 140 0
-0.0392285 0.1283042 -0.0456619 255 140 0
-0.0369570 0.1283029 -0.0456559 255 140 0
-0.0346854 0.1283030 -0.0456528 255 140 0
-0.0324137 0.1283036 -0.0456537 255 140 0
-0.0301423 0.1283040 -0.0456549 255 140 0
-0.0278707 0.1283041 -0.0456564 255 140 0
-0.0255991 0.1283049 -0.0456583 255 140 0
-0.0233274 0.1283049 -0.0456605 255 140 0
-0.0210558 0.1283051 -0.0456631 255 140 0
-0.0187841 0.1283059 -0.0456660 255 140 0
-0.0165124 0.1283087 -0.0456696 255 140 0
-0.0142406 0.1283083 -0.0456729 255 140 0
-0.0119691 0.1283082 -0.0456784 255 140 0
-0.0096975 0.1283082 -0.0456823 255 140 0
-0.0074245 0.1283083 -0.0456837 255 140 0
-0.0483150 0.1305816 -0.0456863 255 140 0
-0.0460434 0.1305808 -0.0456840 255 140 0
-0.0437718 0.1305809 -0.0456810 255 140 0
-0.0415001 0.1305809 -0.0456770 255 140 0
-0.0392285 0.1305798 -0.0456734 255 140 0
-0.0369569 0.1305777 -0.0456689 255 140 0
-0.0346853 0.1305760 -0.0456664 255 140 0
-0.0324136 0.1305763 -0.0456668 255 140 0
-0.0301423 0.1305767 -0.0456677 255 140 0
-0.0278707 0.1305786 -0.0456691 255 140 0
-0.0255990 0.1305794 -0.0456707 255 140 0
-0.0233273 0.1305802 -0.0456725 255 140 0
-0.0210555 0.1305801 -0.0456747 255 140 0
-0.0187839 0.1305807 -0.0456772 255 140 0
-0.0165123 0.1305806 -0.0456792 255 140 0
-0.0142407 0.1305809 -0.0456810 255 140 0
-0.0119691 0.1305802 -0.0456842 255 140 0
-0.0437718 0.1328528 -0.0456864 255 140 0
-0.0415001 0.1328524 -0.0456842 255 140 0
-0.0392285 0.1328531 -0.0456820 255 140 0
-0.0369569 0.1328533 -0.0456784 255 140 0
-0.0346853 0.1328525 -0.0456764 255 140 0
-0.0324136 0.1328527 -0.0456763 255 140 0
-0.0301421 0.1328528 -0.0456769 255 140 0
-0.0278704 0.1328531 -0.0456779 255 140 0
-0.0255987 0.1328534 -0.0456793 255 140 0
-0.0233271 0.1328536 -0.0456809 255 140 0
-0.0210555 0.1328531 -0.0456828 255 140 0
-0.0187839 0.1328526 -0.0456846 255 140 0
-0.0165123 0.1328524 -0.0456857 255 140 0
-0.0392285 0.1351253 -0.0456882 255 140 0
-0.0369569 0.1351245 -0.0456854 255 140 0
-0.0346853 0.0487940 -0.0434247 255 140 0
-0.0324136 0.0487940 -0.0434246 255 140 0
-0.0301420 0.0487940 -0.0434244 255 140 0
-0.0278704 0.0487940 -0.0434243 255 140 0
-0.0255987 0.0487940 -0.0434243 255 140 0
-0.0460434 0.0510660 -0.0434258 255 140 0
-0.0437718 0.0510661 -0.0434255 255 140 0
-0.0415001 0.0510660 -0.0434249 255 140 0
-0.0392285 0.0510658 -0.0434240 255 140 0
-0.0369569 0.0510655 -0.0434231 255 140 0
-0.0346853 0.0510652 -0.0434225 255 140 0
-0.0324136 0.0510652 -0.0434220 255 140 0
-0.0301420 0.0510652 -0.0434215 255 140 0
-0.0278704 0.0510644 -0.0434212 255 140 0
-0.0255987 0.0510645 -0.0434213 255 140 0
-0.0233271 0.0510652 -0.0434219 255 140 0
-0.0210555 0.0510654 -0.0434225 255 140 0
-0.0187839 0.0510656 -0.0434233 255 140 0
-0.0505866 0.0533378 -0.0434252 255 140 0
-0.0483150 0.0533376 -0.0434241 255 140 0
-0.0460434 0.0533373 -0.0434236 255 140 0
-0.0437718 0.0533373 -0.0434226 255 140 0
-0.0415001 0.0533370 -0.0434217 255 140 0
-0.0392285 0.0533352 -0.0434204 255 140 0
-0.0369569 0.0533343 -0.0434166 255 140 0
-0.0346853 0.0533340 -0.0434143 255 140 0
-0.0324136 0.0533340 -0.0434135 255 140 0
-0.0301420 0.0533341 -0.0434116 255 140 0
-0.0278704 0.0533341 -0.0434113 255 140 0
-0.0255987 0.0533340 -0.0434114 255 140 0
-0.0233271 0.0533340 -0.0434135 255 140 0
-0.0210555 0.0533340 -0.0434150 255 140 0
-0.0187839 0.0533344 -0.0434192 255 140 0
-0.0165123 0.0533360 -0.0434211 255 140 0
-0.0142406 0.0533372 -0.0434229 255 140 0
-0.0119690 0.0533379 -0.0434253 255 140 0
-0.0528583 0.0556090 -0.0434241 255 140 0
-0.0505866 0.0556087 -0.0434226 255 140 0
-0.0483150 0.0556088 -0.0434216 255 140 0
-0.0460434 0.0556070 -0.0434201 255 140 0
-0.0437718 0.0556065 -0.0434187 255 140 0
-0.0415001 0.0556061 -0.0434149 255 140 0
-0.0392285 0.0556059 -0.0434130 255 140 0
-0.0369569 0.0556054 -0.0434092 255 140 0
-0.0346853 0.0556053 -0.0434077 255 140 0
-0.0324136 0.0556054 -0.0434069 255 140 0
-0.0301420 0.0556054 -0.0434066 255 140 0
-0.0278704 0.0556053 -0.0434064 255 140 0
-0.0255987 0.0556053 -0.0434065 255 140 0
-0.0233271 0.0556054 -0.0434071 255 140 0
-0.0210555 0.0556055 -0.0434084 255 140 0
-0.0187839 0.0556054 -0.0434101 255 140 0
-0.0165123 0.0556061 -0.0434147 255 140 0
-0.0142406 0.0556066 -0.0434196 255 140 0
-0.0119690 0.0556087 -0.0434229 255 140 0
-0.0096974 0.0556095 -0.0434251 255 140 0
-0.0074257 0.0556095 -0.0434252 255 140 0
-0.0551299 0.0578806 -0.0434232 255 140 0
-0.0528583 0.0578807 -0.0434213 255 140 0
-0.0505866 0.0578788 -0.0434194 255 140 0
-0.0483150 0.0578782 -0.0434145 255 140 0
-0.0460434 0.0578775 -0.0434107 255 140 0
-0.0437718 0.0578774 -0.0434087 255 140 0
-0.0415001 0.0578772 -0.0434067 255 140 0
-0.0392285 0.0578758 -0.0434046 255 140 0
-0.0369569 0.0578750 -0.0433994 255 140 0
-0.0346853 0.0578747 -0.0433962 255 140 0
-0.0324136 0.0578747 -0.0433952 255 140 0
-0.0301420 0.0578740 -0.0433946 255 140 0
-0.0278704 0.0578737 -0.0433943 255 140 0
-0.0255987 0.0578741 -0.0433945 255 140 0
-0.0233271 0.0578746 -0.0433958 255 140 0
-0.0210555 0.0578746 -0.0433983 255 140 0
-0.0187839 0.0578755 -0.0434037 255 140 0
-0.0165123 0.0578773 -0.0434073 255 140 0
-0.0142405 0.0578777 -0.0434123 255 140 0
-0.0119690 0.0578791 -0.0434200 255 140 0
-0.0096974 0.0578808 -0.0434229 255 140 0
-0.0074253 0.0578811 -0.0434237 255 140 0
-0.0051536 0.0578811 -0.0434243 255 140 0
-0.0028820 0.0578811 -0.0434257 255 140 0
-0.0596731 0.0601525 -0.0434247 255 140 0
-0.0574015 0.0601523 -0.0434230 255 140 0
-0.0551299 0.0601522 -0.0434203 255 140 0
-0.0528583 0.0601497 -0.0434148 255 140 0
-0.0505866 0.0601492 -0.0434103 255 140 0
-0.0483150 0.0601493 -0.0434077 255 140 0
-0.0460434 0.0601478 -0.0434048 255 140 0
-0.0437718 0.0601476 -0.0433990 255 140 0
-0.0415001 0.0601471 -0.0433958 255 140 0
-0.0392285 0.0601458 -0.0433927 255 140 0
-0.0369569 0.0601446 -0.0433856 255 140 0
-0.0346853 0.0601426 -0.0433820 255 140 0
-0.0324136 0.0601422 -0.0433806 255 140 0
-0.0301420 0.0601420 -0.0433797 255 140 0
-0.0278704 0.0601417 -0.0433793 255 140 0
-0.0255987 0.0601419 -0.0433797 255 140 0
-0.0233271 0.0601421 -0.0433811 255 140 0
-0.0210554 0.0601443 -0.0433849 255 140 0
-0.0187837 0.0601453 -0.0433907 255 140 0
-0.0165122 0.0601472 -0.0433991 255 140 0
-0.0142396 0.0601491 -0.0434053 255 140 0
-0.0119689 0.0601496 -0.0434125 255 140 0
-0.0096974 0.0601507 -0.0434200 255 140 0
-0.0074248 0.0601522 -0.0434209 255 140 0
-0.0051532 0.0601525 -0.0434224 255 140 0
-0.0028820 0.0601529 -0.0434240 255 140 0
-0.0006103 0.0601526 -0.0434252 255 140 0
-0.0619448 0.0624241 -0.0434250 255 140 0
-0.0596731 0.0624242 -0.0434226 255 140 0
-0.0574015 0.0624239 -0.0434199 255 140 0
-0.0551299 0.0624217 -0.0434131 255 140 0
-0.0528583 0.0624211 -0.0434081 255 140 0
-0.0505866 0.0624200 -0.0434037 255 140 0
-0.0483150 0.0624192 -0.0433969 255 140 0
-0.0460434 0.0624177 -0.0433904 255 140 0
-0.0437718 0.0624175 -0.0433867 255 140 0
-0.0415001 0.0624162 -0.0433810 255 140 0
-0.0392285 0.0624157 -0.0433777 255 140 0
-0.0369569 0.0624140 -0.0433734 255 140 0
-0.0346853 0.0624130 -0.0433701 255 140 0
-0.0324136 0.0624130 -0.0433687 255 140 0
-0.0301421 0.0624131 -0.0433678 255 140 0
-0.0278704 0.0624129 -0.0433674 255 140 0
-0.0255987 0.0624130 -0.0433681 255 140 0
-0.0233270 0.0624128 -0.0433698 255 140 0
-0.0210553 0.0624145 -0.0433732 255 140 0
-0.0187835 0.0624150 -0.0433779 255 140 0
-0.0165120 0.0624170 -0.0433857 255 140 0
-0.0142388 0.0624191 -0.0433937 255 140 0
-0.0119685 0.0624203 -0.0434043 255 140 0
-0.0096973 0.0624216 -0.0434100 255 140 0
-0.0074248 0.0624219 -0.0434146 255 140 0
-0.0051531 0.0624226 -0.0434189 255 140 0
-0.0028816 0.0624242 -0.0434214 255 140 0
-0.0006101 0.0624245 -0.0434233 255 140 0
0.0016613 0.0624241 -0.0434249 255 140 0
-0.0642164 0.0647004 -0.0434255 255 140 0
-0.0619448 0.0646992 -0.0434236 255 140 0
-0.0596731 0.0646993 -0.0434204 255 140 0
-0.0574015 0.0646976 -0.0434169 255 140 0
-0.0551299 0.0646963 -0.0434084 255 140 0
-0.0528583 0.0646942 -0.0434036 255 140 0
-0.0505866 0.0646929 -0.0433955 255 140 0
-0.0483150 0.0646897 -0.0433885 255 140 0
-0.0460434 0.0646894 -0.0433813 255 140 0
-0.0437718 0.0646897 -0.0433767 255 140 0
-0.0415001 0.0646873 -0.0433727 255 140 0
-0.0392285 0.0646872 -0.0433688 255 140 0
-0.0369569 0.0646869 -0.0433649 255 140 0
-0.0346853 0.0646854 -0.0433626 255 140 0
-0.0324136 0.0646854 -0.0433615 255 140 0
-0.0301422 0.0646857 -0.0433612 255 140 0
-0.0278705 0.0646858 -0.0433611 255 140 0
-0.0255988 0.0646862 -0.0433620 255 140 0
-0.0233270 0.0646859 -0.0433640 255 140 0
-0.0210552 0.0646869 -0.0433667 255 140 0
-0.0187831 0.0646866 -0.0433710 255 140 0
-0.0165111 0.0646895 -0.0433769 255 140 0
-0.0142387 0.0646899 -0.0433848 255 140 0
-0.0119682 0.0646935 -0.0433995 255 140 0
-0.0096973 0.0646956 -0.0434064 255 140 0
-0.0074248 0.0646964 -0.0434107 255 140 0
-0.0051531 0.0646969 -0.0434155 255 140 0
-0.0028814 0.0646980 -0.0434188 255 140 0
-0.0006099 0.0646990 -0.0434212 255 140 0
0.0016615 0.0646993 -0.0434235 255 140 0
0.0039333 0.0646995 -0.0434249 255 140 0
-0.0642164 0.0669711 -0.0434233 255 140 0
-0.0619448 0.0669697 -0.0434184 255 140 0
-0.0596731 0.0669681 -0.0434094 255 140 0
-0.0574015 0.0669671 -0.0434033 255 140 0
-0.0551299 0.0669640 -0.0433938 255 140 0
-0.0528583 0.0669620 -0.0433808 255 140 0
-0.0505866 0.0669609 -0.0433686 255 140 0
-0.0483150 0.0669606 -0.0433590 255 140 0
-0.0460434 0.0669604 -0.0433507 255 140 0
-0.0437718 0.0669586 -0.0433430 255 140 0
-0.0415002 0.0669590 -0.0433374 255 140 0
-0.0392286 0.0669593 -0.0433332 255 140 0
-0.0369575 0.0669576 -0.0433301 255 140 0
-0.0346860 0.0669572 -0.0433279 255 140 0
-0.0324141 0.0669564 -0.0433273 255 140 0
-0.0301424 0.0669563 -0.0433269 255 140 0
-0.0278707 0.0669561 -0.0433268 255 140 0
-0.0255989 0.0669561 -0.0433274 255 140 0
-0.0233271 0.0669568 -0.0433289 255 140 0
-0.0210551 0.0669579 -0.0433315 255 140 0
-0.0187805 0.0669590 -0.0433358 255 140 0
-0.0165087 0.0669586 -0.0433432 255 140 0
-0.0142384 0.0669599 -0.0433512 255 140 0
-0.0119670 0.0669590 -0.0433653 255 140 0
-0.0096955 0.0669616 -0.0433771 255 140 0
-0.0074237 0.0669619 -0.0433869 255 140 0
-0.0051520 0.0669657 -0.0433983 255 140 0
-0.0028809 0.0669677 -0.0434049 255 140 0
-0.0006095 0.0669675 -0.0434122 255 140 0
0.0016620 0.0669693 -0.0434186 255 140 0
0.0039334 0.0669708 -0.0434223 255 140 0
-0.0664880 0.0692428 -0.0434240 255 140 0
-0.0642164 0.0692426 -0.0434201 255 140 0
-0.0619448 0.0692403 -0.0434116 255 140 0
-0.0596731 0.0692389 -0.0434024 255 140 0
-0.0574015 0.0692360 -0.0433945 255 140 0
-0.0551299 0.0692347 -0.0433797 255 140 0
-0.0528591 0.0692328 -0.0433636 255 140 0
-0.0505877 0.0692334 -0.0433482 255 140 0
-0.0483158 0.0692308 -0.0433365 255 140 0
-0.0460440 0.0692311 -0.0433277 255 140 0
-0.0437723 0.0692308 -0.0433202 255 140 0
-0.0415007 0.0692310 -0.0433142 255 140 0
-0.0392290 0.0692309 -0.0433098 255 140 0
-0.0369576 0.0692293 -0.0433066 255 140 0
-0.0346861 0.0692290 -0.0433046 255 140 0
-0.0324143 0.0692288 -0.0433042 255 140 0
-0.0301425 0.0692288 -0.0433041 255 140 0
-0.0278708 0.0692288 -0.0433040 255 140 0
-0.0255990 0.0692284 -0.0433047 255 140 0
-0.0233272 0.0692285 -0.0433061 255 140 0
-0.0210549 0.0692294 -0.0433086 255 140 0
-0.0187805 0.0692306 -0.0433124 255 140 0
-0.0165086 0.0692303 -0.0433184 255 140 0
-0.0142373 0.0692308 -0.0433264 255 140 0
-0.0119670 0.0692309 -0.0433416 255 140 0
-0.0096954 0.0692309 -0.0433556 255 140 0
-0.0074231 0.0692339 -0.0433700 255 140 0
-0.0051514 0.0692338 -0.0433827 255 140 0
-0.0028803 0.0692371 -0.0433972 255 140 0
-0.0006091 0.0692386 -0.0434045 255 140 0
0.0016623 0.0692400 -0.0434125 255 140 0
0.0039335 0.0692414 -0.0434186 255 140 0
0.0062051 0.0692422 -0.0434218 255 140 0
-0.0664880 0.0715146 -0.0434225 255 140 0
-0.0642164 0.0715136 -0.0434176 255 140 0
-0.0619448 0.0715106 -0.0434080 255 140 0
-0.0596731 0.0715107 -0.0433993 255 140 0
-0.0574015 0.0715063 -0.0433862 255 140 0
-0.0551299 0.0715060 -0.0433734 255 140 0
-0.0528588 0.0715048 -0.0433577 255 140 0
-0.0505872 0.0715057 -0.0433458 255 140 0
-0.0483156 0.0715038 -0.0433358 255 140 0
-0.0460439 0.0715038 -0.0433269 255 140 0
-0.0437721 0.0715045 -0.0433206 255 140 0
-0.0415005 0.0715040 -0.0433153 255 140 0
-0.0392289 0.0715036 -0.0433113 255 140 0
-0.0369576 0.0715044 -0.0433086 255 140 0
-0.0346860 0.0715042 -0.0433069 255 140 0
-0.0324143 0.0715041 -0.0433065 255 140 0
-0.0301424 0.0715044 -0.0433063 255 140 0
-0.0278707 0.0715043 -0.0433063 255 140 0
-0.0255989 0.0715042 -0.0433068 255 140 0
-0.0233272 0.0715040 -0.0433078 255 140 0
-0.0210553 0.0715043 -0.0433098 255 140 0
-0.0187819 0.0715041 -0.0433129 255 140 0
-0.0165089 0.0715043 -0.0433183 255 140 0
-0.0142381 0.0715043 -0.0433251 255 140 0
-0.0119671 0.0715047 -0.0433382 255 140 0
-0.0096955 0.0715050 -0.0433523 255 140 0
-0.0074228 0.0715035 -0.0433632 255 140 0
-0.0051510 0.0715056 -0.0433763 255 140 0
-0.0028800 0.0715074 -0.0433914 255 140 0
-0.0006089 0.0715101 -0.0434013 255 140 0
0.0016625 0.0715106 -0.0434085 255 140 0
0.0039336 0.0715120 -0.0434168 255 140 0
0.0062051 0.0715140 -0.0434206 255 140 0
0.0084756 0.0715140 -0.0434234 255 140 0
-0.0664880 0.0737865 -0.0434209 255 140 0
-0.0642164 0.0737842 -0.0434135 255 140 0
-0.0619448 0.0737818 -0.0434037 255 140 0
-0.0596731 0.0737809 -0.0433944 255 140 0
-0.0574015 0.0737779 -0.0433779 255 140 0
-0.0551305 0.0737777 -0.0433642 255 140 0
-0.0528589 0.0737776 -0.0433507 255 140 0
-0.0505873 0.0737763 -0.0433396 255 140 0
-0.0483155 0.0737775 -0.0433305 255 140 0
-0.0460438 0.0737760 -0.0433230 255 140 0
-0.0437721 0.0737765 -0.0433171 255 140 0
-0.0415005 0.0737773 -0.0433127 255 140 0
-0.0392288 0.0737765 -0.0433092 255 140 0
-0.0369576 0.0737761 -0.0433069 255 140 0
-0.0346861 0.0737765 -0.0433055 255 140 0
-0.0324143 0.0737766 -0.0433052 255 140 0
-0.0301425 0.0737766 -0.0433052 255 140 0
-0.0278708 0.0737766 -0.0433051 255 140 0
-0.0255990 0.0737765 -0.0433054 255 140 0
-0.0233272 0.0737771 -0.0433063 255 140 0
-0.0210554 0.0737768 -0.0433078 255 140 0
-0.0187833 0.0737774 -0.0433106 255 140 0
-0.0165103 0.0737771 -0.0433150 255 140 0
-0.0142386 0.0737771 -0.0433205 255 140 0
-0.0119672 0.0737768 -0.0433337 255 140 0
-0.0096956 0.0737765 -0.0433457 255 140 0
-0.0074227 0.0737765 -0.0433553 255 140 0
-0.0051508 0.0737769 -0.0433678 255 140 0
-0.0028797 0.0737773 -0.0433829 255 140 0
-0.0006085 0.0737804 -0.0433968 255 140 0
0.0016627 0.0737816 -0.0434041 255 140 0
0.0039340 0.0737836 -0.0434129 255 140 0
0.0062051 0.0737846 -0.0434188 255 140 0
0.0084758 0.0737858 -0.0434228 255 140 0
-0.0687596 0.0760582 -0.0434237 255 140 0
-0.0664880 0.0760574 -0.0434193 255 140 0
-0.0642164 0.0760559 -0.0434105 255 140 0
-0.0619448 0.0760526 -0.0433985 255 140 0
-0.0596731 0.0760486 -0.0433850 255 140 0
-0.0574020 0.0760485 -0.0433680 255 140 0
-0.0551308 0.0760486 -0.0433525 255 140 0
-0.0528590 0.0760489 -0.0433406 255 140 0
-0.0505873 0.0760484 -0.0433303 255 140 0
-0.0483156 0.0760491 -0.0433215 255 140 0
-0.0460438 0.0760496 -0.0433151 255 140 0
-0.0437720 0.0760495 -0.0433099 255 140 0
-0.0415005 0.0760498 -0.0433061 255 140 0
-0.0392289 0.0760504 -0.0433034 255 140 0
-0.0369576 0.0760513 -0.0433013 255 140 0
-0.0346861 0.0760506 -0.0433001 255 140 0
-0.0324143 0.0760507 -0.0432999 255 140 0
-0.0301425 0.0760507 -0.0432999 255 140 0
-0.0278708 0.0760508 -0.0432999 255 140 0
-0.0255990 0.0760508 -0.0433002 255 140 0
-0.0233272 0.0760505 -0.0433009 255 140 0
-0.0210554 0.0760506 -0.0433021 255 140 0
-0.0187835 0.0760500 -0.0433044 255 140 0
-0.0165105 0.0760505 -0.0433081 255 140 0
-0.0142386 0.0760492 -0.0433132 255 140 0
-0.0119672 0.0760487 -0.0433246 255 140 0
-0.0096956 0.0760477 -0.0433365 255 140 0
-0.0074227 0.0760485 -0.0433448 255 140 0
-0.0051504 0.0760478 -0.0433560 255 140 0
-0.0028790 0.0760484 -0.0433724 255 140 0
-0.0006078 0.0760496 -0.0433858 255 140 0
0.0016630 0.0760518 -0.0433999 255 140 0
0.0039345 0.0760534 -0.0434065 255 140 0
0.0062053 0.0760560 -0.0434166 255 140 0
0.0084776 0.0760575 -0.0434210 255 140 0
0.0107474 0.0760578 -0.0434237 255 140 0
-0.0687596 0.0783300 -0.0434226 255 140 0
-0.0664880 0.0783283 -0.0434179 255 140 0
-0.0642164 0.0783263 -0.0434070 255 140 0
-0.0619448 0.0783221 -0.0433923 255 140 0
-0.0596733 0.0783203 -0.0433744 255 140 0
-0.0574025 0.0783207 -0.0433586 255 140 0
-0.0551333 0.0783210 -0.0433440 255 140 0
-0.0528591 0.0783219 -0.0433327 255 140 0
-0.0505873 0.0783213 -0.0433229 255 140 0
-0.0483156 0.0783212 -0.0433149 255 140 0
-0.0460438 0.0783222 -0.0433092 255 140 0
-0.0437721 0.0783216 -0.0433048 255 140 0
-0.0415005 0.0783214 -0.0433015 255 140 0
-0.0392289 0.0783228 -0.0432989 255 140 0
-0.0369577 0.0783231 -0.0432973 255 140 0
-0.0346861 0.0783234 -0.0432963 255 140 0
-0.0324143 0.0783234 -0.0432961 255 140 0
-0.0301425 0.0783234 -0.0432960 255 140 0
-0.0278708 0.0783234 -0.0432960 255 140 0
-0.0255990 0.0783234 -0.0432963 255 140 0
-0.0233273 0.0783232 -0.0432969 255 140 0
-0.0210555 0.0783227 -0.0432980 255 140 0
-0.0187836 0.0783220 -0.0433000 255 140 0
-0.0165106 0.0783216 -0.0433034 255 140 0
-0.0142387 0.0783219 -0.0433078 255 140 0
-0.0119677 0.0783211 -0.0433183 255 140 0
-0.0096957 0.0783216 -0.0433286 255 140 0
-0.0074231 0.0783198 -0.0433370 255 140 0
-0.0051504 0.0783208 -0.0433478 255 140 0
-0.0028784 0.0783199 -0.0433627 255 140 0
-0.0006072 0.0783196 -0.0433771 255 140 0
0.0016636 0.0783235 -0.0433939 255 140 0
0.0039347 0.0783236 -0.0434028 255 140 0
0.0062061 0.0783262 -0.0434116 255 140 0
0.0084777 0.0783281 -0.0434196 255 140 0
0.0107483 0.0783297 -0.0434227 255 140 0
-0.0710313 0.0806018 -0.0434245 255 140 0
-0.0687596 0.0806012 -0.0434217 255 140 0
-0.0664880 0.0805989 -0.0434158 255 140 0
-0.0642164 0.0805979 -0.0434044 255 140 0
-0.0619448 0.0805927 -0.0433824 255 140 0
-0.0596771 0.0805921 -0.0433646 255 140 0
-0.0574055 0.0805925 -0.0433488 255 140 0
-0.0551333 0.0805925 -0.0433368 255 140 0
-0.0528590 0.0805934 -0.0433257 255 140 0
-0.0505873 0.0805948 -0.0433167 255 140 0
-0.0483157 0.0805945 -0.0433098 255 140 0
-0.0460438 0.0805952 -0.0433048 255 140 0
-0.0437721 0.0805948 -0.0433009 255 140 0
-0.0415004 0.0805953 -0.0432982 255 140 0
-0.0392288 0.0805950 -0.0432963 255 140 0
-0.0369576 0.0805947 -0.0432951 255 140 0
-0.0346861 0.0805952 -0.0432945 255 140 0
-0.0324143 0.0805952 -0.0432944 255 140 0
-0.0301426 0.0805950 -0.0432943 255 140 0
-0.0278708 0.0805950 -0.0432943 255 140 0
-0.0255990 0.0805948 -0.0432945 255 140 0
-0.0233273 0.0805947 -0.0432949 255 140 0
-0.0210555 0.0805946 -0.0432957 255 140 0
-0.0187836 0.0805953 -0.0432972 255 140 0
-0.0165117 0.0805950 -0.0432999 255 140 0
-0.0142387 0.0805938 -0.0433040 255 140 0
-0.0119683 0.0805945 -0.0433129 255 140 0
-0.0096966 0.0805937 -0.0433220 255 140 0
-0.0074232 0.0805917 -0.0433299 255 140 0
-0.0051504 0.0805930 -0.0433404 255 140 0
-0.0028783 0.0805912 -0.0433527 255 140 0
-0.0006067 0.0805915 -0.0433686 255 140 0
0.0016643 0.0805924 -0.0433837 255 140 0
0.0039349 0.0805946 -0.0433989 255 140 0
0.0062062 0.0805972 -0.0434066 255 140 0
0.0084778 0.0805984 -0.0434174 255 140 0
0.0107493 0.0806002 -0.0434216 255 140 0
-0.0710313 0.0828731 -0.0434240 255 140 0
-0.0687596 0.0828719 -0.0434202 255 140 0
-0.0664880 0.0828707 -0.0434125 255 140 0
-0.0642164 0.0828688 -0.0434025 255 140 0
-0.0619452 0.0828642 -0.0433757 255 140 0
-0.0596820 0.0828642 -0.0433544 255 140 0
-0.0574058 0.0828651 -0.0433426 255 140 0
-0.0551332 0.0828659 -0.0433314 255 140 0
