ply
format ascii 1.0
element vertex 1144
property float x
property float y
property float z
property uchar red
property uchar green
property uchar blue
end_header
-0.0119692 0.0601381 -0.0298124 255 140 0
-0.0096976 0.0601378 -0.0298130 255 140 0
-0.0074259 0.0601377 -0.0298132 255 140 0
-0.0051543 0.0601375 -0.0298134 255 140 0
-0.0028827 0.0601373 -0.0298138 255 140 0
-0.0006111 0.0601371 -0.0298141 255 140 0
0.0016605 0.0601369 -0.0298145 255 140 0
0.0039322 0.0601365 -0.0298151 255 140 0
0.0062038 0.0601362 -0.0298158 255 140 0
0.0084754 0.0601356 -0.0298165 255 140 0
0.0107471 0.0601352 -0.0298171 255 140 0
0.0130186 0.0601352 -0.0298172 255 140 0
-0.0733030 0.0624078 -0.0298156 255 140 0
-0.0710314 0.0624079 -0.0298157 255 140 0
-0.0687598 0.0624079 -0.0298156 255 140 0
-0.0664882 0.0624078 -0.0298156 255 140 0
-0.0642166 0.0624079 -0.0298157 255 140 0
-0.0619452 0.0624077 -0.0298160 255 140 0
-0.0596735 0.0624076 -0.0298162 255 140 0
-0.0574018 0.0624073 -0.0298165 255 140 0
-0.0551302 0.0624071 -0.0298167 255 140 0
-0.0528585 0.0624070 -0.0298168 255 140 0
-0.0505869 0.0624069 -0.0298171 255 140 0
-0.0483152 0.0624067 -0.0298171 255 140 0
-0.0460436 0.0624065 -0.0298174 255 140 0
-0.0437719 0.0624063 -0.0298177 255 140 0
-0.0415003 0.0624060 -0.0298181 255 140 0
-0.0392287 0.0624057 -0.0298185 255 140 0
-0.0369571 0.0624053 -0.0298188 255 140 0
-0.0346855 0.0624050 -0.0298192 255 140 0
-0.0324139 0.0624048 -0.0298195 255 140 0
-0.0301425 0.0624045 -0.0298199 255 140 0
-0.0278709 0.0624043 -0.0298203 255 140 0
-0.0255992 0.0624040 -0.0298208 255 140 0
-0.0233276 0.0624037 -0.0298213 255 140 0
-0.0210559 0.0624034 -0.0298219 255 140 0
-0.0187843 0.0624031 -0.0298225 255 140 0
-0.0165127 0.0624027 -0.0298230 255 140 0
-0.0142410 0.0624024 -0.0298236 255 140 0
-0.0119694 0.0624017 -0.0298247 255 140 0
-0.0096978 0.0624012 -0.0298256 255 140 0
-0.0074262 0.0624009 -0.0298263 255 140 0
-0.0051546 0.0624006 -0.0298268 255 140 0
-0.0028829 0.0624003 -0.0298273 255 140 0
-0.0006113 0.0623999 -0.0298279 255 140 0
0.0016603 0.0623993 -0.0298286 255 140 0
0.0039320 0.0623988 -0.0298295 255 140 0
0.0062036 0.0623982 -0.0298304 255 140 0
0.0084753 0.0623973 -0.0298313 255 140 0
0.0107469 0.0623969 -0.0298321 255 140 0
0.0130185 0.0623972 -0.0298314 255 140 0
-0.0755754 0.0646875 -0.0298286 255 140 0
-0.0733038 0.0646878 -0.0298286 255 140 0
-0.0710321 0.0646876 -0.0298288 255 140 0
-0.0687605 0.0646874 -0.0298289 255 140 0
-0.0664886 0.0646871 -0.0298293 255 140 0
-0.0642168 0.0646869 -0.0298297 255 140 0
-0.0619454 0.0646865 -0.0298305 255 140 0
-0.0596738 0.0646859 -0.0298313 255 140 0
-0.0574022 0.0646855 -0.0298319 255 140 0
-0.0551306 0.0646850 -0.0298323 255 140 0
-0.0528590 0.0646844 -0.0298329 255 140 0
-0.0505874 0.0646834 -0.0298335 255 140 0
-0.0483158 0.0646817 -0.0298340 255 140 0
-0.0460442 0.0646806 -0.0298346 255 140 0
-0.0437726 0.0646796 -0.0298352 255 140 0
-0.0415010 0.0646785 -0.0298359 255 140 0
-0.0392294 0.0646778 -0.0298365 255 140 0
-0.0369578 0.0646765 -0.0298376 255 140 0
-0.0346861 0.0646740 -0.0298385 255 140 0
-0.0324145 0.0646735 -0.0298393 255 140 0
-0.0301429 0.0646729 -0.0298401 255 140 0
-0.0278713 0.0646722 -0.0298411 255 140 0
-0.0255997 0.0646717 -0.0298420 255 140 0
-0.0233280 0.0646721 -0.0298430 255 140 0
-0.0210564 0.0646725 -0.0298440 255 140 0
-0.0187848 0.0646720 -0.0298450 255 140 0
-0.0165132 0.0646717 -0.0298463 255 140 0
-0.0142415 0.0646719 -0.0298473 255 140 0
-0.0119699 0.0646726 -0.0298491 255 140 0
-0.0096982 0.0646727 -0.0298504 255 140 0
-0.0074267 0.0646722 -0.0298512 255 140 0
-0.0051550 0.0646718 -0.0298523 255 140 0
-0.0028834 0.0646712 -0.0298533 255 140 0
-0.0006116 0.0646706 -0.0298542 255 140 0
0.0016599 0.0646700 -0.0298552 255 140 0
0.0039315 0.0646692 -0.0298563 255 140 0
0.0062032 0.0646681 -0.0298575 255 140 0
0.0084749 0.0646673 -0.0298588 255 140 0
0.0107465 0.0646670 -0.0298592 255 140 0
0.0130182 0.0646672 -0.0298591 255 140 0
0.0152898 0.0646673 -0.0298579 255 140 0
-0.0778471 0.0669479 -0.0298443 255 140 0
-0.0755755 0.0669447 -0.0298494 255 140 0
-0.0733040 0.0669426 -0.0298527 255 140 0
-0.0710324 0.0669412 -0.0298546 255 140 0
-0.0687608 0.0669406 -0.0298558 255 140 0
-0.0664892 0.0669400 -0.0298568 255 140 0
-0.0642175 0.0669395 -0.0298577 255 140 0
-0.0619463 0.0669387 -0.0298587 255 140 0
-0.0596747 0.0669377 -0.0298596 255 140 0
-0.0574030 0.0669361 -0.0298600 255 140 0
-0.0551314 0.0669343 -0.0298607 255 140 0
-0.0528598 0.0669329 -0.0298617 255 140 0
-0.0505882 0.0669311 -0.0298625 255 140 0
-0.0483166 0.0669289 -0.0298635 255 140 0
-0.0460450 0.0669265 -0.0298644 255 140 0
-0.0437734 0.0669250 -0.0298654 255 140 0
-0.0415018 0.0669241 -0.0298663 255 140 0
-0.0392302 0.0669226 -0.0298673 255 140 0
-0.0369586 0.0669214 -0.0298687 255 140 0
-0.0346870 0.0669204 -0.0298700 255 140 0
-0.0324154 0.0669198 -0.0298709 255 140 0
-0.0301436 0.0669192 -0.0298718 255 140 0
-0.0278720 0.0669184 -0.0298730 255 140 0
-0.0256003 0.0669177 -0.0298741 255 140 0
-0.0233286 0.0669170 -0.0298753 255 140 0
-0.0210570 0.0669163 -0.0298764 255 140 0
-0.0187854 0.0669162 -0.0298776 255 140 0
-0.0165137 0.0669155 -0.0298791 255 140 0
-0.0142422 0.0669149 -0.0298804 255 140 0
-0.0119706 0.0669175 -0.0298824 255 140 0
-0.0096989 0.0669178 -0.0298841 255 140 0
-0.0074272 0.0669177 -0.0298851 255 140 0
-0.0051556 0.0669175 -0.0298862 255 140 0
-0.0028839 0.0669186 -0.0298878 255 140 0
-0.0006121 0.0669179 -0.0298895 255 140 0
0.0016594 0.0669171 -0.0298912 255 140 0
0.0039310 0.0669161 -0.0298929 255 140 0
0.0062027 0.0669145 -0.0298949 255 140 0
0.0084743 0.0669129 -0.0298970 255 140 0
0.0107460 0.0669123 -0.0298978 255 140 0
0.0130177 0.0669113 -0.0298990 255 140 0
0.0152894 0.0669120 -0.0298977 255 140 0
0.0175611 0.0669169 -0.0298908 255 140 0
-0.0778484 0.0691992 -0.0298753 255 140 0
-0.0755769 0.0691938 -0.0298836 255 140 0
-0.0733053 0.0691902 -0.0298890 255 140 0
-0.0710338 0.0691881 -0.0298923 255 140 0
-0.0687622 0.0691868 -0.0298943 255 140 0
-0.0664906 0.0691856 -0.0298960 255 140 0
-0.0642189 0.0691846 -0.0298976 255 140 0
-0.0619476 0.0691831 -0.0298992 255 140 0
-0.0596758 0.0691803 -0.0299003 255 140 0
-0.0574042 0.0691784 -0.0299014 255 140 0
-0.0551326 0.0691769 -0.0299026 255 140 0
-0.0528610 0.0691741 -0.0299040 255 140 0
-0.0505893 0.0691710 -0.0299056 255 140 0
-0.0483177 0.0691688 -0.0299068 255 140 0
-0.0460460 0.0691676 -0.0299081 255 140 0
-0.0437743 0.0691658 -0.0299095 255 140 0
-0.0415026 0.0691646 -0.0299111 255 140 0
-0.0392310 0.0691634 -0.0299125 255 140 0
-0.0369594 0.0691620 -0.0299145 255 140 0
-0.0346877 0.0691607 -0.0299162 255 140 0
-0.0324160 0.0691600 -0.0299174 255 140 0
-0.0301447 0.0691591 -0.0299187 255 140 0
-0.0278730 0.0691581 -0.0299202 255 140 0
-0.0256014 0.0691571 -0.0299217 255 140 0
-0.0233298 0.0691561 -0.0299233 255 140 0
-0.0210581 0.0691551 -0.0299247 255 140 0
-0.0187865 0.0691542 -0.0299265 255 140 0
-0.0165148 0.0691531 -0.0299283 255 140 0
-0.0142431 0.0691527 -0.0299300 255 140 0
-0.0119714 0.0691526 -0.0299328 255 140 0
-0.0096998 0.0691531 -0.0299347 255 140 0
-0.0074281 0.0691545 -0.0299360 255 140 0
-0.0051565 0.0691538 -0.0299375 255 140 0
-0.0028848 0.0691541 -0.0299393 255 140 0
-0.0006128 0.0691544 -0.0299414 255 140 0
0.0016588 0.0691537 -0.0299435 255 140 0
0.0039303 0.0691521 -0.0299460 255 140 0
0.0062019 0.0691506 -0.0299485 255 140 0
0.0084736 0.0691487 -0.0299513 255 140 0
0.0107453 0.0691480 -0.0299524 255 140 0
0.0130170 0.0691459 -0.0299551 255 140 0
0.0152887 0.0691468 -0.0299535 255 140 0
0.0175606 0.0691531 -0.0299444 255 140 0
-0.0801201 0.0714616 -0.0298895 255 140 0
-0.0778492 0.0714488 -0.0299084 255 140 0
-0.0755779 0.0714408 -0.0299206 255 140 0
-0.0733063 0.0714367 -0.0299269 255 140 0
-0.0710348 0.0714341 -0.0299309 255 140 0
-0.0687632 0.0714324 -0.0299336 255 140 0
-0.0664917 0.0714306 -0.0299363 255 140 0
-0.0642201 0.0714291 -0.0299388 255 140 0
-0.0619485 0.0714268 -0.0299416 255 140 0
-0.0596770 0.0714226 -0.0299443 255 140 0
-0.0574054 0.0714207 -0.0299464 255 140 0
-0.0551338 0.0714185 -0.0299484 255 140 0
-0.0528622 0.0714141 -0.0299509 255 140 0
-0.0505906 0.0714109 -0.0299533 255 140 0
-0.0483190 0.0714085 -0.0299555 255 140 0
-0.0460474 0.0714067 -0.0299576 255 140 0
-0.0437757 0.0714049 -0.0299598 255 140 0
-0.0415041 0.0714024 -0.0299624 255 140 0
-0.0392325 0.0714006 -0.0299651 255 140 0
-0.0369609 0.0713981 -0.0299685 255 140 0
-0.0346893 0.0713958 -0.0299718 255 140 0
-0.0324177 0.0713941 -0.0299743 255 140 0
-0.0301459 0.0713922 -0.0299772 255 140 0
-0.0278743 0.0713902 -0.0299804 255 140 0
-0.0256026 0.0713881 -0.0299834 255 140 0
-0.0233310 0.0713862 -0.0299864 255 140 0
-0.0210594 0.0713843 -0.0299894 255 140 0
-0.0187878 0.0713824 -0.0299923 255 140 0
-0.0165161 0.0713811 -0.0299955 255 140 0
-0.0142445 0.0713793 -0.0299985 255 140 0
-0.0119728 0.0713777 -0.0300027 255 140 0
-0.0097011 0.0713772 -0.0300061 255 140 0
-0.0074294 0.0713785 -0.0300085 255 140 0
-0.0051577 0.0713773 -0.0300112 255 140 0
-0.0028860 0.0713762 -0.0300139 255 140 0
-0.0006140 0.0713760 -0.0300166 255 140 0
0.0016577 0.0713753 -0.0300196 255 140 0
0.0039291 0.0713735 -0.0300225 255 140 0
0.0062008 0.0713716 -0.0300257 255 140 0
0.0084726 0.0713689 -0.0300291 255 140 0
0.0107444 0.0713686 -0.0300294 255 140 0
0.0130161 0.0713627 -0.0300376 255 140 0
0.0152878 0.0713634 -0.0300361 255 140 0
0.0175596 0.0713739 -0.0300207 255 140 0
0.0198313 0.0713854 -0.0300035 255 140 0
-0.0801221 0.0736978 -0.0299425 255 140 0
-0.0778514 0.0736818 -0.0299660 255 140 0
-0.0755799 0.0736724 -0.0299804 255 140 0
-0.0733085 0.0736682 -0.0299868 255 140 0
-0.0710369 0.0736656 -0.0299912 255 140 0
-0.0687654 0.0736636 -0.0299945 255 140 0
-0.0664938 0.0736613 -0.0299980 255 140 0
-0.0642222 0.0736590 -0.0300012 255 140 0
-0.0619502 0.0736552 -0.0300054 255 140 0
-0.0596784 0.0736508 -0.0300090 255 140 0
-0.0574068 0.0736480 -0.0300119 255 140 0
-0.0551352 0.0736452 -0.0300148 255 140 0
-0.0528636 0.0736401 -0.0300181 255 140 0
-0.0505920 0.0736369 -0.0300216 255 140 0
-0.0483204 0.0736344 -0.0300245 255 140 0
-0.0460488 0.0736318 -0.0300272 255 140 0
-0.0437771 0.0736295 -0.0300303 255 140 0
-0.0415055 0.0736270 -0.0300338 255 140 0
-0.0392339 0.0736244 -0.0300373 255 140 0
-0.0369624 0.0736206 -0.0300418 255 140 0
-0.0346908 0.0736177 -0.0300460 255 140 0
-0.0324192 0.0736154 -0.0300496 255 140 0
-0.0301477 0.0736129 -0.0300535 255 140 0
-0.0278761 0.0736101 -0.0300577 255 140 0
-0.0256044 0.0736074 -0.0300619 255 140 0
-0.0233328 0.0736048 -0.0300659 255 140 0
-0.0210612 0.0736023 -0.0300698 255 140 0
-0.0187895 0.0736003 -0.0300738 255 140 0
-0.0165178 0.0735979 -0.0300779 255 140 0
-0.0142461 0.0735955 -0.0300817 255 140 0
-0.0119743 0.0735934 -0.0300870 255 140 0
-0.0097025 0.0735915 -0.0300911 255 140 0
-0.0074309 0.0735918 -0.0300942 255 140 0
-0.0051592 0.0735907 -0.0300976 255 140 0
-0.0028875 0.0735897 -0.0301011 255 140 0
-0.0006154 0.0735884 -0.0301044 255 140 0
0.0016564 0.0735884 -0.0301078 255 140 0
0.0039278 0.0735863 -0.0301111 255 140 0
0.0061996 0.0735842 -0.0301147 255 140 0
0.0084713 0.0735816 -0.0301183 255 140 0
0.0107431 0.0735814 -0.0301184 255 140 0
0.0130149 0.0735733 -0.0301292 255 140 0
0.0152868 0.0735744 -0.0301270 255 140 0
0.0175586 0.0735864 -0.0301094 255 140 0
0.0198303 0.0736030 -0.0300847 255 140 0
-0.0801248 0.0759109 -0.0300310 255 140 0
-0.0778537 0.0758934 -0.0300569 255 140 0
-0.0755824 0.0758836 -0.0300718 255 140 0
-0.0733108 0.0758803 -0.0300774 255 140 0
-0.0710392 0.0758777 -0.0300816 255 140 0
-0.0687675 0.0758752 -0.0300854 255 140 0
-0.0664960 0.0758725 -0.0300899 255 140 0
-0.0642244 0.0758695 -0.0300939 255 140 0
-0.0619528 0.0758640 -0.0300990 255 140 0
-0.0596811 0.0758596 -0.0301039 255 140 0
-0.0574095 0.0758564 -0.0301073 255 140 0
-0.0551379 0.0758520 -0.0301113 255 140 0
-0.0528663 0.0758474 -0.0301158 255 140 0
-0.0505947 0.0758435 -0.0301199 255 140 0
-0.0483231 0.0758404 -0.0301241 255 140 0
-0.0460515 0.0758370 -0.0301280 255 140 0
-0.0437798 0.0758341 -0.0301320 255 140 0
-0.0415082 0.0758309 -0.0301365 255 140 0
-0.0392366 0.0758277 -0.0301411 255 140 0
-0.0369651 0.0758240 -0.0301465 255 140 0
-0.0346934 0.0758202 -0.0301512 255 140 0
-0.0324217 0.0758178 -0.0301549 255 140 0
-0.0301500 0.0758152 -0.0301590 255 140 0
-0.0278783 0.0758126 -0.0301636 255 140 0
-0.0256066 0.0758098 -0.0301680 255 140 0
-0.0233350 0.0758071 -0.0301723 255 140 0
-0.0210633 0.0758043 -0.0301765 255 140 0
-0.0187916 0.0758017 -0.0301807 255 140 0
-0.0165199 0.0757990 -0.0301850 255 140 0
-0.0142481 0.0757965 -0.0301893 255 140 0
-0.0119762 0.0757941 -0.0301947 255 140 0
-0.0097044 0.0757923 -0.0301996 255 140 0
-0.0074328 0.0757906 -0.0302027 255 140 0
-0.0051611 0.0757912 -0.0302061 255 140 0
-0.0028889 0.0757896 -0.0302101 255 140 0
-0.0006172 0.0757880 -0.0302137 255 140 0
0.0016547 0.0757871 -0.0302173 255 140 0
0.0039262 0.0757861 -0.0302209 255 140 0
0.0061980 0.0757838 -0.0302247 255 140 0
0.0084699 0.0757811 -0.0302287 255 140 0
0.0107417 0.0757802 -0.0302298 255 140 0
0.0130137 0.0757737 -0.0302388 255 140 0
0.0152856 0.0757759 -0.0302345 255 140 0
0.0175572 0.0757836 -0.0302235 255 140 0
0.0198291 0.0758033 -0.0301940 255 140 0
-0.0823984 0.0781443 -0.0300888 255 140 0
-0.0801283 0.0781150 -0.0301329 255 140 0
-0.0778572 0.0780980 -0.0301582 255 140 0
-0.0755860 0.0780887 -0.0301722 255 140 0
-0.0733142 0.0780858 -0.0301769 255 140 0
-0.0710425 0.0780836 -0.0301809 255 140 0
-0.0687708 0.0780811 -0.0301849 255 140 0
-0.0664990 0.0780779 -0.0301900 255 140 0
-0.0642275 0.0780746 -0.0301950 255 140 0
-0.0619554 0.0780684 -0.0302006 255 140 0
-0.0596836 0.0780641 -0.0302059 255 140 0
-0.0574121 0.0780602 -0.0302100 255 140 0
-0.0551405 0.0780542 -0.0302143 255 140 0
-0.0528688 0.0780506 -0.0302193 255 140 0
-0.0505971 0.0780466 -0.0302240 255 140 0
-0.0483254 0.0780432 -0.0302289 255 140 0
-0.0460537 0.0780398 -0.0302336 255 140 0
-0.0437820 0.0780362 -0.0302382 255 140 0
-0.0415104 0.0780327 -0.0302432 255 140 0
-0.0392388 0.0780292 -0.0302483 255 140 0
-0.0369671 0.0780254 -0.0302541 255 140 0
-0.0346954 0.0780219 -0.0302592 255 140 0
-0.0324238 0.0780194 -0.0302630 255 140 0
-0.0301523 0.0780167 -0.0302672 255 140 0
-0.0278806 0.0780138 -0.0302717 255 140 0
-0.0256090 0.0780109 -0.0302762 255 140 0
-0.0233373 0.0780080 -0.0302806 255 140 0
-0.0210656 0.0780053 -0.0302848 255 140 0
-0.0187938 0.0780026 -0.0302889 255 140 0
-0.0165220 0.0779998 -0.0302935 255 140 0
-0.0142503 0.0779971 -0.0302980 255 140 0
-0.0119782 0.0779946 -0.0303032 255 140 0
-0.0097063 0.0779925 -0.0303080 255 140 0
-0.0074346 0.0779907 -0.0303113 255 140 0
-0.0051629 0.0779898 -0.0303148 255 140 0
-0.0028907 0.0779899 -0.0303190 255 140 0
-0.0006189 0.0779883 -0.0303229 255 140 0
0.0016530 0.0779867 -0.0303263 255 140 0
0.0039246 0.0779865 -0.0303300 255 140 0
0.0061964 0.0779840 -0.0303335 255 140 0
0.0084683 0.0779813 -0.0303376 255 140 0
0.0107402 0.0779802 -0.0303391 255 140 0
0.0130124 0.0779748 -0.0303461 255 140 0
0.0152844 0.0779785 -0.0303396 255 140 0
0.0175562 0.0779835 -0.0303328 255 140 0
0.0198279 0.0780067 -0.0302977 255 140 0
0.0220998 0.0780550 -0.0302249 255 140 0
-0.0824019 0.0803379 -0.0302084 255 140 0
-0.0801320 0.0803080 -0.0302527 255 140 0
-0.0778609 0.0802939 -0.0302737 255 140 0
-0.0755893 0.0802863 -0.0302852 255 140 0
-0.0733173 0.0802840 -0.0302888 255 140 0
-0.0710455 0.0802820 -0.0302923 255 140 0
-0.0687737 0.0802799 -0.0302964 255 140 0
-0.0665020 0.0802768 -0.0303014 255 140 0
-0.0642303 0.0802731 -0.0303067 255 140 0
-0.0619584 0.0802670 -0.0303124 255 140 0
-0.0596866 0.0802622 -0.0303174 255 140 0
-0.0574151 0.0802579 -0.0303216 255 140 0
-0.0551434 0.0802527 -0.0303262 255 140 0
-0.0528716 0.0802492 -0.0303309 255 140 0
-0.0506000 0.0802453 -0.0303356 255 140 0
-0.0483283 0.0802418 -0.0303403 255 140 0
-0.0460565 0.0802385 -0.0303449 255 140 0
-0.0437848 0.0802355 -0.0303493 255 140 0
-0.0415131 0.0802316 -0.0303543 255 140 0
-0.0392414 0.0802284 -0.0303592 255 140 0
-0.0369696 0.0802247 -0.0303650 255 140 0
-0.0346979 0.0802212 -0.0303700 255 140 0
-0.0324262 0.0802188 -0.0303739 255 140 0
-0.0301547 0.0802161 -0.0303780 255 140 0
-0.0278831 0.0802133 -0.0303824 255 140 0
-0.0256114 0.0802104 -0.0303868 255 140 0
-0.0233397 0.0802077 -0.0303911 255 140 0
-0.0210679 0.0802051 -0.0303950 255 140 0
-0.0187961 0.0802024 -0.0303991 255 140 0
-0.0165242 0.0801995 -0.0304038 255 140 0
-0.0142524 0.0801971 -0.0304084 255 140 0
-0.0119801 0.0801946 -0.0304133 255 140 0
-0.0097081 0.0801926 -0.0304178 255 140 0
-0.0074365 0.0801907 -0.0304215 255 140 0
-0.0051648 0.0801894 -0.0304248 255 140 0
-0.0028925 0.0801898 -0.0304284 255 140 0
-0.0006207 0.0801884 -0.0304321 255 140 0
0.0016514 0.0801873 -0.0304354 255 140 0
0.0039229 0.0801871 -0.0304384 255 140 0
0.0061948 0.0801858 -0.0304416 255 140 0
0.0084669 0.0801834 -0.0304453 255 140 0
0.0107388 0.0801827 -0.0304462 255 140 0
0.0130113 0.0801782 -0.0304514 255 140 0
0.0152834 0.0801840 -0.0304421 255 140 0
0.0175551 0.0801894 -0.0304349 255 140 0
0.0198268 0.0802176 -0.0303929 255 140 0
0.0220987 0.0802749 -0.0303066 255 140 0
-0.0824058 0.0825416 -0.0303118 255 140 0
-0.0801361 0.0825062 -0.0303652 255 140 0
-0.0778646 0.0824945 -0.0303828 255 140 0
-0.0755930 0.0824879 -0.0303922 255 140 0
-0.0733211 0.0824863 -0.0303951 255 140 0
-0.0710491 0.0824845 -0.0303984 255 140 0
-0.0687771 0.0824821 -0.0304024 255 140 0
-0.0665053 0.0824790 -0.0304075 255 140 0
-0.0642337 0.0824751 -0.0304129 255 140 0
-0.0619612 0.0824688 -0.0304183 255 140 0
-0.0596892 0.0824647 -0.0304233 255 140 0
-0.0574176 0.0824597 -0.0304273 255 140 0
-0.0551460 0.0824557 -0.0304316 255 140 0
-0.0528741 0.0824519 -0.0304359 255 140 0
-0.0506025 0.0824489 -0.0304404 255 140 0
-0.0483308 0.0824454 -0.0304447 255 140 0
-0.0460591 0.0824428 -0.0304488 255 140 0
-0.0437873 0.0824404 -0.0304528 255 254 0
-0.0415154 0.0824374 -0.0304576 255 253 0
-0.0392437 0.0824343 -0.0304624 255 251 0
-0.0369718 0.0824302 -0.0304675 255 250 0
-0.0347000 0.0824272 -0.0304721 255 248 0
-0.0324283 0.0824250 -0.0304756 255 247 0
-0.0301569 0.0824226 -0.0304794 255 245 0
-0.0278852 0.0824200 -0.0304834 255 244 0
-0.0256135 0.0824175 -0.0304873 255 243 0
-0.0233417 0.0824150 -0.0304912 255 241 0
-0.0210700 0.0824132 -0.0304947 255 240 0
-0.0187981 0.0824109 -0.0304982 255 239 0
-0.0165262 0.0824083 -0.0305024 255 237 0
-0.0142543 0.0824054 -0.0305067 255 236 0
-0.0119818 0.0824036 -0.0305106 255 235 0
-0.0097096 0.0824018 -0.0305144 255 234 0
-0.0074381 0.0823997 -0.0305178 255 232 0
-0.0051664 0.0823987 -0.0305211 255 231 0
-0.0028941 0.0823997 -0.0305243 255 230 0
-0.0006222 0.0823985 -0.0305273 255 229 0
0.0016499 0.0823974 -0.0305302 255 228 0
0.0039215 0.0823972 -0.0305327 255 227 0
0.0061935 0.0823969 -0.0305354 255 226 0
0.0084656 0.0823949 -0.0305384 255 225 0
0.0107376 0.0823941 -0.0305395 255 225 0
0.0130103 0.0823909 -0.0305429 255 224 0
0.0152825 0.0823966 -0.0305339 255 224 0
0.0175541 0.0824000 -0.0305295 255 224 0
0.0198256 0.0824266 -0.0304899 255 227 0
0.0220972 0.0824808 -0.0304088 255 234 0
-0.0824084 0.0847603 -0.0303954 255 140 0
-0.0801394 0.0847126 -0.0304680 255 249 0
-0.0778680 0.0847026 -0.0304825 255 246 0
-0.0755962 0.0846970 -0.0304906 255 244 0
-0.0733242 0.0846949 -0.0304935 255 242 0
-0.0710519 0.0846929 -0.0304967 255 240 0
-0.0687799 0.0846905 -0.0305007 255 239 0
-0.0665080 0.0846874 -0.0305056 255 237 0
-0.0642363 0.0846830 -0.0305108 255 235 0
-0.0619638 0.0846777 -0.0305158 255 233 0
-0.0596916 0.0846736 -0.0305202 255 232 0
-0.0574202 0.0846690 -0.0305240 255 230 0
-0.0551485 0.0846658 -0.0305276 255 229 0
-0.0528766 0.0846628 -0.0305313 255 227 0
-0.0506048 0.0846604 -0.0305351 255 226 0
-0.0483330 0.0846582 -0.0305386 255 224 0
-0.0460612 0.0846559 -0.0305417 255 223 0
-0.0437893 0.0846539 -0.0305449 255 221 0
-0.0415176 0.0846515 -0.0305489 255 220 0
-0.0392458 0.0846491 -0.0305530 255 218 0
-0.0369737 0.0846464 -0.0305571 255 217 0
-0.0347018 0.0846443 -0.0305607 255 216 0
-0.0324303 0.0846425 -0.0305637 255 214 0
-0.0301586 0.0846407 -0.0305667 255 213 0
-0.0278869 0.0846388 -0.0305698 255 212 0
-0.0256152 0.0846369 -0.0305729 255 210 0
-0.0233434 0.0846351 -0.0305758 255 209 0
-0.0210716 0.0846333 -0.0305783 255 208 0
-0.0187998 0.0846316 -0.0305810 255 207 0
-0.0165277 0.0846293 -0.0305845 255 205 0
-0.0142559 0.0846271 -0.0305881 255 204 0
-0.0119831 0.0846260 -0.0305907 255 203 0
-0.0097108 0.0846245 -0.0305933 255 202 0
-0.0074394 0.0846234 -0.0305962 255 201 0
-0.0051678 0.0846218 -0.0305992 255 200 0
-0.0028954 0.0846227 -0.0306019 255 199 0
-0.0006233 0.0846226 -0.0306044 255 198 0
0.0016487 0.0846218 -0.0306068 255 197 0
0.0039203 0.0846217 -0.0306086 255 196 0
0.0061924 0.0846218 -0.0306111 255 195 0
0.0084646 0.0846200 -0.0306134 255 194 0
0.0107366 0.0846187 -0.0306154 255 193 0
0.0130096 0.0846171 -0.0306169 255 193 0
0.0152819 0.0846203 -0.0306114 255 193 0
0.0175533 0.0846202 -0.0306132 255 192 0
0.0198244 0.0846392 -0.0305852 255 194 0
0.0220957 0.0846784 -0.0305260 255 199 0
-0.0846759 0.0870963 -0.0303004 255 243 0
-0.0824098 0.0869935 -0.0304577 255 227 0
-0.0801418 0.0869339 -0.0305490 255 217 0
-0.0778702 0.0869245 -0.0305618 255 214 0
-0.0755985 0.0869187 -0.0305696 255 212 0
-0.0733267 0.0869161 -0.0305736 255 210 0
-0.0710546 0.0869141 -0.0305770 255 209 0
-0.0687825 0.0869122 -0.0305807 255 207 0
-0.0665103 0.0869095 -0.0305852 255 205 0
-0.0642383 0.0869054 -0.0305899 255 203 0
-0.0619658 0.0869007 -0.0305935 255 202 0
-0.0596935 0.0868979 -0.0305966 255 201 0
-0.0574221 0.0868933 -0.0305999 255 200 0
-0.0551503 0.0868908 -0.0306026 255 199 0
-0.0528781 0.0868891 -0.0306053 255 199 0
-0.0506062 0.0868867 -0.0306079 255 198 0
-0.0483344 0.0868850 -0.0306106 255 197 0
-0.0460626 0.0868839 -0.0306127 255 197 0
-0.0437907 0.0868825 -0.0306150 255 196 0
-0.0415187 0.0868809 -0.0306182 255 196 0
-0.0392469 0.0868784 -0.0306215 255 195 0
-0.0369747 0.0868768 -0.0306241 255 194 0
-0.0347026 0.0868753 -0.0306266 255 194 0
-0.0324311 0.0868739 -0.0306288 255 193 0
-0.0301600 0.0868727 -0.0306309 255 193 0
-0.0278882 0.0868714 -0.0306330 255 192 0
-0.0256163 0.0868701 -0.0306350 255 191 0
-0.0233446 0.0868687 -0.0306369 255 191 0
-0.0210728 0.0868675 -0.0306387 255 190 0
-0.0188010 0.0868663 -0.0306406 255 190 0
-0.0165289 0.0868648 -0.0306432 255 189 0
-0.0142569 0.0868629 -0.0306463 255 189 0
-0.0119839 0.0868621 -0.0306475 255 188 0
-0.0097115 0.0868621 -0.0306491 255 188 0
-0.0074402 0.0868606 -0.0306515 255 187 0
-0.0051686 0.0868592 -0.0306542 255 187 0
-0.0028962 0.0868597 -0.0306562 255 186 0
-0.0006241 0.0868599 -0.0306580 255 186 0
0.0016479 0.0868600 -0.0306599 255 185 0
0.0039195 0.0868599 -0.0306611 255 185 0
0.0061916 0.0868606 -0.0306627 255 185 0
0.0084639 0.0868592 -0.0306646 255 184 0
0.0107360 0.0868579 -0.0306669 255 184 0
0.0130092 0.0868567 -0.0306671 255 184 0
0.0152816 0.0868593 -0.0306630 255 184 0
0.0175529 0.0868572 -0.0306677 255 183 0
0.0198238 0.0868734 -0.0306446 255 185 0
0.0220944 0.0869064 -0.0305944 255 190 0
-0.0846734 0.0893991 -0.0302563 255 232 0
-0.0824095 0.0892699 -0.0304562 255 212 0
-0.0801418 0.0891953 -0.0305701 255 200 0
-0.0778707 0.0891835 -0.0305863 255 197 0
-0.0755993 0.0891762 -0.0305968 255 195 0
-0.0733274 0.0891725 -0.0306026 255 194 0
-0.0710553 0.0891700 -0.0306064 255 193 0
-0.0687830 0.0891685 -0.0306093 255 191 0
-0.0665111 0.0891664 -0.0306127 255 190 0
-0.0642392 0.0891626 -0.0306164 255 189 0
-0.0619661 0.0891598 -0.0306180 255 188 0
-0.0596934 0.0891581 -0.0306195 255 188 0
-0.0574220 0.0891538 -0.0306221 255 187 0
-0.0551503 0.0891519 -0.0306238 255 187 0
-0.0528783 0.0891505 -0.0306256 255 187 0
-0.0506063 0.0891494 -0.0306270 255 187 0
-0.0483345 0.0891482 -0.0306284 255 187 0
-0.0460627 0.0891474 -0.0306295 255 187 0
-0.0437910 0.0891469 -0.0306307 255 186 0
-0.0415192 0.0891457 -0.0306328 255 186 0
-0.0392474 0.0891443 -0.0306352 255 186 0
-0.0369747 0.0891434 -0.0306362 255 186 0
-0.0347026 0.0891428 -0.0306371 255 186 0
-0.0324312 0.0891420 -0.0306382 255 186 0
-0.0301598 0.0891411 -0.0306394 255 186 0
-0.0278881 0.0891403 -0.0306405 255 185 0
-0.0256163 0.0891395 -0.0306415 255 185 0
-0.0233445 0.0891385 -0.0306425 255 185 0
-0.0210728 0.0891377 -0.0306435 255 185 0
-0.0188010 0.0891367 -0.0306449 255 185 0
-0.0165289 0.0891349 -0.0306470 255 185 0
-0.0142569 0.0891330 -0.0306496 255 184 0
-0.0119836 0.0891330 -0.0306498 255 184 0
-0.0097111 0.0891331 -0.0306505 255 184 0
-0.0074400 0.0891319 -0.0306523 255 184 0
-0.0051685 0.0891316 -0.0306542 255 184 0
-0.0028961 0.0891326 -0.0306553 255 184 0
-0.0006240 0.0891330 -0.0306563 255 184 0
0.0016480 0.0891327 -0.0306573 255 184 0
0.0039196 0.0891333 -0.0306577 255 184 0
0.0061917 0.0891342 -0.0306586 255 184 0
0.0084639 0.0891334 -0.0306601 255 183 0
0.0107360 0.0891324 -0.0306619 255 183 0
0.0130095 0.0891320 -0.0306618 255 183 0
0.0152820 0.0891348 -0.0306571 255 184 0
0.0175529 0.0891327 -0.0306619 255 183 0
0.0198236 0.0891486 -0.0306384 255 186 0
0.0220939 0.0891827 -0.0305874 255 191 0
-0.0824138 0.0914387 -0.0306139 255 188 0
-0.0801455 0.0913799 -0.0307041 255 179 0
-0.0778743 0.0913724 -0.0307133 255 178 0
-0.0756026 0.0913667 -0.0307206 255 177 0
-0.0733306 0.0913628 -0.0307259 255 177 0
-0.0710585 0.0913604 -0.0307292 255 176 0
-0.0687864 0.0913593 -0.0307317 255 176 0
-0.0665142 0.0913577 -0.0307344 255 176 0
-0.0642421 0.0913546 -0.0307374 255 175 0
-0.0619691 0.0913522 -0.0307379 255 175 0
-0.0596962 0.0913499 -0.0307388 255 175 0
-0.0574248 0.0913465 -0.0307407 255 175 0
-0.0551531 0.0913451 -0.0307420 255 175 0
-0.0528809 0.0913444 -0.0307431 255 175 0
-0.0506090 0.0913436 -0.0307440 255 175 0
-0.0483372 0.0913427 -0.0307446 255 175 0
-0.0460654 0.0913427 -0.0307449 255 175 0
-0.0437937 0.0913425 -0.0307453 255 175 0
-0.0415217 0.0913418 -0.0307465 255 175 0
-0.0392499 0.0913410 -0.0307478 255 174 0
-0.0369770 0.0913408 -0.0307478 255 174 0
-0.0347048 0.0913405 -0.0307481 255 174 0
-0.0324336 0.0913398 -0.0307490 255 174 0
-0.0301620 0.0913391 -0.0307498 255 174 0
-0.0278903 0.0913385 -0.0307502 255 174 0
-0.0256185 0.0913380 -0.0307507 255 174 0
-0.0233467 0.0913372 -0.0307512 255 174 0
-0.0210749 0.0913365 -0.0307516 255 174 0
-0.0188031 0.0913355 -0.0307524 255 174 0
-0.0165309 0.0913342 -0.0307537 255 174 0
-0.0142590 0.0913327 -0.0307555 255 174 0
-0.0119854 0.0913324 -0.0307556 255 174 0
-0.0097127 0.0913328 -0.0307558 255 174 0
-0.0074417 0.0913317 -0.0307572 255 173 0
-0.0051703 0.0913310 -0.0307587 255 173 0
-0.0028978 0.0913307 -0.0307598 255 173 0
-0.0006256 0.0913320 -0.0307603 255 173 0
0.0016464 0.0913326 -0.0307607 255 173 0
0.0039180 0.0913329 -0.0307608 255 173 0
0.0061901 0.0913344 -0.0307612 255 173 0
0.0084625 0.0913342 -0.0307619 255 173 0
0.0107348 0.0913335 -0.0307634 255 173 0
0.0130087 0.0913349 -0.0307613 255 173 0
0.0152813 0.0913395 -0.0307545 255 174 0
0.0175519 0.0913374 -0.0307597 255 173 0
0.0198222 0.0913564 -0.0307314 255 176 0
0.0220924 0.0913966 -0.0306706 255 182 0
-0.0824163 0.0936484 -0.0307069 255 179 0
-0.0801475 0.0936049 -0.0307719 255 172 0
-0.0778762 0.0935976 -0.0307797 255 171 0
-0.0756047 0.0935929 -0.0307854 255 171 0
-0.0733326 0.0935894 -0.0307891 255 170 0
-0.0710606 0.0935877 -0.0307914 255 170 0
-0.0687886 0.0935869 -0.0307931 255 170 0
-0.0665164 0.0935859 -0.0307952 255 170 0
-0.0642444 0.0935832 -0.0307973 255 169 0
-0.0619708 0.0935818 -0.0307972 255 169 0
-0.0596977 0.0935805 -0.0307981 255 169 0
-0.0574265 0.0935771 -0.0307992 255 169 0
-0.0551546 0.0935755 -0.0308001 255 169 0
-0.0528825 0.0935749 -0.0308012 255 169 0
-0.0506105 0.0935741 -0.0308019 255 169 0
-0.0483386 0.0935741 -0.0308024 255 169 0
-0.0460668 0.0935742 -0.0308025 255 169 0
-0.0437949 0.0935741 -0.0308026 255 169 0
-0.0415230 0.0935733 -0.0308032 255 169 0
-0.0392510 0.0935726 -0.0308041 255 169 0
-0.0369779 0.0935722 -0.0308034 255 169 0
-0.0347054 0.0935719 -0.0308033 255 169 0
-0.0324344 0.0935711 -0.0308042 255 169 0
-0.0301632 0.0935704 -0.0308049 255 168 0
-0.0278915 0.0935700 -0.0308051 255 168 0
-0.0256197 0.0935693 -0.0308053 255 168 0
-0.0233478 0.0935689 -0.0308054 255 168 0
-0.0210761 0.0935685 -0.0308053 255 168 0
-0.0188044 0.0935684 -0.0308056 255 168 0
-0.0165322 0.0935677 -0.0308064 255 168 0
-0.0142600 0.0935664 -0.0308076 255 168 0
-0.0119861 0.0935664 -0.0308070 255 168 0
-0.0097132 0.0935661 -0.0308066 255 168 0
-0.0074425 0.0935653 -0.0308079 255 168 0
-0.0051711 0.0935642 -0.0308086 255 168 0
-0.0028986 0.0935643 -0.0308096 255 168 0
-0.0006264 0.0935663 -0.0308099 255 168 0
0.0016456 0.0935662 -0.0308095 255 168 0
0.0039173 0.0935668 -0.0308092 255 168 0
0.0061893 0.0935671 -0.0308091 255 168 0
0.0084618 0.0935683 -0.0308095 255 168 0
0.0107340 0.0935683 -0.0308100 255 168 0
0.0130082 0.0935709 -0.0308067 255 168 0
0.0152810 0.0935776 -0.0307975 255 169 0
0.0175515 0.0935762 -0.0308013 255 169 0
0.0198215 0.0935992 -0.0307676 255 172 0
0.0220913 0.0936460 -0.0306973 255 179 0
-0.0824106 0.0960166 -0.0305560 255 140 0
-0.0801434 0.0959345 -0.0306818 255 140 0
-0.0778740 0.0959015 -0.0307300 255 140 0
-0.0756033 0.0958824 -0.0307563 255 140 0
-0.0733316 0.0958765 -0.0307639 255 140 0
-0.0710599 0.0958734 -0.0307680 255 140 0
-0.0687881 0.0958719 -0.0307700 255 140 0
-0.0665159 0.0958709 -0.0307719 255 140 0
-0.0642438 0.0958685 -0.0307737 255 140 0
-0.0619696 0.0958674 -0.0307728 255 140 0
-0.0596964 0.0958666 -0.0307731 255 140 0
-0.0574254 0.0958628 -0.0307745 255 140 0
-0.0551539 0.0958613 -0.0307753 255 140 0
-0.0528818 0.0958608 -0.0307761 255 140 0
-0.0506097 0.0958606 -0.0307766 255 140 0
-0.0483380 0.0958601 -0.0307765 255 140 0
-0.0460664 0.0958602 -0.0307761 255 140 0
-0.0437946 0.0958605 -0.0307759 255 140 0
-0.0415225 0.0958601 -0.0307763 255 140 0
-0.0392506 0.0958595 -0.0307770 255 140 0
-0.0369772 0.0958596 -0.0307762 255 140 0
-0.0347046 0.0958594 -0.0307756 255 140 0
-0.0324338 0.0958588 -0.0307761 255 140 0
-0.0301625 0.0958583 -0.0307763 255 140 0
-0.0278907 0.0958580 -0.0307762 255 140 0
-0.0256189 0.0958575 -0.0307763 255 140 0
-0.0233471 0.0958570 -0.0307761 255 140 0
-0.0210755 0.0958566 -0.0307758 255 140 0
-0.0188038 0.0958560 -0.0307759 255 140 0
-0.0165316 0.0958550 -0.0307766 255 140 0
-0.0142596 0.0958537 -0.0307776 255 140 0
-0.0119853 0.0958545 -0.0307764 255 140 0
-0.0097124 0.0958549 -0.0307758 255 140 0
-0.0074418 0.0958536 -0.0307769 255 140 0
-0.0051706 0.0958528 -0.0307775 255 140 0
-0.0028981 0.0958529 -0.0307779 255 140 0
-0.0006259 0.0958551 -0.0307779 255 140 0
0.0016461 0.0958551 -0.0307772 255 140 0
0.0039177 0.0958556 -0.0307766 255 140 0
0.0061897 0.0958565 -0.0307762 255 140 0
0.0084622 0.0958573 -0.0307764 255 140 0
0.0107344 0.0958579 -0.0307763 255 140 0
0.0130089 0.0958611 -0.0307728 255 140 0
0.0152816 0.0958689 -0.0307625 255 140 0
0.0175517 0.0958690 -0.0307648 255 140 0
0.0198216 0.0958946 -0.0307280 255 140 0
0.0220910 0.0959454 -0.0306521 255 140 0
0.0243609 0.0960153 -0.0305462 255 140 0
-0.0824064 0.0983516 -0.0304554 255 140 0
-0.0801407 0.0982450 -0.0306186 255 140 0
-0.0778727 0.0981917 -0.0306975 255 140 0
-0.0756029 0.0981626 -0.0307396 255 140 0
-0.0733316 0.0981546 -0.0307497 255 140 0
-0.0710601 0.0981503 -0.0307548 255 140 0
-0.0687882 0.0981483 -0.0307569 255 140 0
-0.0665158 0.0981473 -0.0307587 255 140 0
-0.0642439 0.0981456 -0.0307604 255 140 0
-0.0619690 0.0981444 -0.0307589 255 140 0
-0.0596956 0.0981434 -0.0307583 255 140 0
-0.0574246 0.0981410 -0.0307600 255 140 0
-0.0551532 0.0981387 -0.0307611 255 140 0
-0.0528810 0.0981379 -0.0307612 255 140 0
-0.0506091 0.0981373 -0.0307612 255 140 0
-0.0483372 0.0981374 -0.0307609 255 140 0
-0.0460656 0.0981379 -0.0307604 255 140 0
-0.0437937 0.0981376 -0.0307600 255 140 0
-0.0415218 0.0981372 -0.0307603 255 140 0
-0.0392500 0.0981366 -0.0307609 255 140 0
-0.0369763 0.0981366 -0.0307599 255 140 0
-0.0347037 0.0981366 -0.0307592 255 140 0
-0.0324331 0.0981360 -0.0307594 255 140 0
-0.0301621 0.0981357 -0.0307593 255 140 0
-0.0278904 0.0981354 -0.0307590 255 140 0
-0.0256186 0.0981351 -0.0307586 255 140 0
-0.0233469 0.0981346 -0.0307584 255 140 0
-0.0210753 0.0981342 -0.0307580 255 140 0
-0.0188035 0.0981336 -0.0307580 255 140 0
-0.0165314 0.0981325 -0.0307586 255 140 0
-0.0142593 0.0981313 -0.0307597 255 140 0
-0.0119848 0.0981328 -0.0307576 255 140 0
-0.0097117 0.0981333 -0.0307569 255 140 0
-0.0074413 0.0981327 -0.0307582 255 140 0
-0.0051702 0.0981318 -0.0307589 255 140 0
-0.0028978 0.0981335 -0.0307586 255 140 0
-0.0006257 0.0981337 -0.0307582 255 140 0
0.0016464 0.0981337 -0.0307576 255 140 0
0.0039179 0.0981342 -0.0307567 255 140 0
0.0061899 0.0981358 -0.0307563 255 140 0
0.0084623 0.0981360 -0.0307560 255 140 0
0.0107345 0.0981374 -0.0307549 255 140 0
0.0130093 0.0981409 -0.0307517 255 140 0
0.0152820 0.0981508 -0.0307390 255 140 0
0.0175517 0.0981550 -0.0307365 255 140 0
0.0198213 0.0981850 -0.0306935 255 140 0
0.0220903 0.0982425 -0.0306078 255 140 0
-0.0824051 0.1006346 -0.0304315 255 140 0
-0.0801388 0.1005241 -0.0305989 255 140 0
-0.0778719 0.1004608 -0.0306921 255 140 0
-0.0756022 0.1004278 -0.0307398 255 140 0
-0.0733311 0.1004206 -0.0307481 255 140 0
-0.0710597 0.1004164 -0.0307523 255 140 0
-0.0687879 0.1004149 -0.0307541 255 140 0
-0.0665157 0.1004140 -0.0307556 255 140 0
-0.0642437 0.1004127 -0.0307571 255 140 0
-0.0619689 0.1004112 -0.0307556 255 140 0
-0.0596953 0.1004103 -0.0307549 255 140 0
-0.0574247 0.1004086 -0.0307565 255 140 0
-0.0551534 0.1004054 -0.0307574 255 140 0
-0.0528812 0.1004045 -0.0307573 255 140 0
-0.0506092 0.1004043 -0.0307573 255 140 0
-0.0483374 0.1004039 -0.0307569 255 140 0
-0.0460659 0.1004043 -0.0307562 255 140 0
-0.0437943 0.1004046 -0.0307554 255 140 0
-0.0415223 0.1004040 -0.0307557 255 140 0
-0.0392502 0.1004032 -0.0307563 255 140 0
-0.0369762 0.1004032 -0.0307547 255 140 0
-0.0347036 0.1004028 -0.0307539 255 140 0
-0.0324333 0.1004024 -0.0307541 255 140 0
-0.0301620 0.1004019 -0.0307540 255 140 0
-0.0278903 0.1004016 -0.0307536 255 140 0
-0.0256186 0.1004012 -0.0307531 255 140 0
-0.0233468 0.1004010 -0.0307526 255 140 0
-0.0210752 0.1004012 -0.0307521 255 140 0
-0.0188035 0.1004009 -0.0307519 255 140 0
-0.0165313 0.1003999 -0.0307525 255 140 0
-0.0142592 0.1003985 -0.0307537 255 140 0
-0.0119844 0.1003997 -0.0307515 255 140 0
-0.0097112 0.1004008 -0.0307503 255 140 0
-0.0074411 0.1003996 -0.0307512 255 140 0
-0.0051701 0.1003993 -0.0307520 255 140 0
-0.0028977 0.1004015 -0.0307516 255 140 0
-0.0006255 0.1004017 -0.0307508 255 140 0
0.0016465 0.1004023 -0.0307503 255 140 0
0.0039179 0.1004025 -0.0307493 255 140 0
0.0061899 0.1004045 -0.0307487 255 140 0
0.0084624 0.1004049 -0.0307480 255 140 0
0.0107345 0.1004078 -0.0307446 255 140 0
0.0130095 0.1004115 -0.0307415 255 140 0
0.0152822 0.1004261 -0.0307218 255 140 0
0.0175514 0.1004371 -0.0307080 255 140 0
0.0198207 0.1004803 -0.0306460 255 140 0
0.0220903 0.1005604 -0.0305285 255 140 0
-0.0824029 0.1029183 -0.0304069 255 140 0
-0.0801371 0.1028037 -0.0305787 255 140 0
-0.0778709 0.1027312 -0.0306844 255 140 0
-0.0756024 0.1026932 -0.0307386 255 140 0
-0.0733313 0.1026856 -0.0307472 255 140 0
-0.0710602 0.1026814 -0.0307514 255 140 0
-0.0687884 0.1026796 -0.0307530 255 140 0
-0.0665160 0.1026786 -0.0307544 255 140 0
-0.0642438 0.1026777 -0.0307559 255 140 0
-0.0619684 0.1026758 -0.0307540 255 140 0
-0.0596950 0.1026754 -0.0307532 255 140 0
-0.0574245 0.1026737 -0.0307546 255 140 0
-0.0551532 0.1026711 -0.0307553 255 140 0
-0.0528812 0.1026703 -0.0307551 255 140 0
-0.0506091 0.1026696 -0.0307548 255 140 0
-0.0483372 0.1026698 -0.0307541 255 140 0
-0.0460657 0.1026698 -0.0307533 255 140 0
-0.0437940 0.1026698 -0.0307524 255 140 0
-0.0415220 0.1026694 -0.0307523 255 140 0
-0.0392502 0.1026686 -0.0307528 255 140 0
-0.0369756 0.1026690 -0.0307508 255 140 0
-0.0347029 0.1026691 -0.0307497 255 140 0
-0.0324329 0.1026685 -0.0307498 255 140 0
-0.0301618 0.1026681 -0.0307496 255 140 0
-0.0278901 0.1026678 -0.0307490 255 140 0
-0.0256184 0.1026676 -0.0307483 255 140 0
-0.0233467 0.1026675 -0.0307475 255 140 0
-0.0210751 0.1026672 -0.0307468 255 140 0
-0.0188036 0.1026670 -0.0307463 255 140 0
-0.0165313 0.1026661 -0.0307467 255 140 0
-0.0142592 0.1026647 -0.0307475 255 140 0
-0.0119841 0.1026675 -0.0307449 255 140 0
-0.0097107 0.1026680 -0.0307435 255 140 0
-0.0074408 0.1026675 -0.0307444 255 140 0
-0.0051699 0.1026677 -0.0307446 255 140 0
-0.0028976 0.1026694 -0.0307441 255 140 0
-0.0006255 0.1026700 -0.0307431 255 140 0
0.0016466 0.1026699 -0.0307423 255 140 0
0.0039180 0.1026712 -0.0307413 255 140 0
0.0061899 0.1026731 -0.0307405 255 140 0
0.0084624 0.1026741 -0.0307394 255 140 0
0.0107344 0.1026786 -0.0307334 255 140 0
0.0130096 0.1026817 -0.0307310 255 140 0
0.0152824 0.1027003 -0.0307060 255 140 0
0.0175507 0.1027191 -0.0306805 255 140 0
0.0198197 0.1027713 -0.0306060 255 140 0
0.0220893 0.1028634 -0.0304726 255 140 0
-0.0824017 0.1051987 -0.0303880 255 140 0
-0.0801358 0.1050776 -0.0305667 255 140 0
-0.0778700 0.1050000 -0.0306777 255 140 0
-0.0756015 0.1049590 -0.0307351 255 140 0
-0.0733307 0.1049502 -0.0307453 255 140 0
-0.0710595 0.1049457 -0.0307498 255 140 0
-0.0687883 0.1049438 -0.0307511 255 140 0
-0.0665159 0.1049426 -0.0307525 255 140 0
-0.0642437 0.1049418 -0.0307536 255 140 0
-0.0619682 0.1049405 -0.0307515 255 140 0
-0.0596947 0.1049403 -0.0307506 255 140 0
-0.0574244 0.1049386 -0.0307517 255 140 0
-0.0551532 0.1049378 -0.0307523 255 140 0
-0.0528811 0.1049352 -0.0307519 255 140 0
-0.0506090 0.1049348 -0.0307513 255 140 0
-0.0483373 0.1049345 -0.0307503 255 140 0
-0.0460659 0.1049350 -0.0307492 255 140 0
-0.0437943 0.1049353 -0.0307484 255 140 0
-0.0415221 0.1049349 -0.0307483 255 140 0
-0.0392502 0.1049344 -0.0307486 255 140 0
-0.0369755 0.1049347 -0.0307466 255 140 0
-0.0347026 0.1049350 -0.0307453 255 140 0
-0.0324326 0.1049345 -0.0307452 255 140 0
-0.0301618 0.1049340 -0.0307448 255 140 0
-0.0278900 0.1049339 -0.0307440 255 140 0
-0.0256184 0.1049341 -0.0307431 255 140 0
-0.0233467 0.1049342 -0.0307421 255 140 0
-0.0210750 0.1049342 -0.0307412 255 140 0
-0.0188035 0.1049342 -0.0307406 255 140 0
-0.0165312 0.1049335 -0.0307406 255 140 0
-0.0142591 0.1049326 -0.0307410 255 140 0
-0.0119838 0.1049342 -0.0307380 255 140 0
-0.0097104 0.1049362 -0.0307364 255 140 0
-0.0074406 0.1049355 -0.0307371 255 140 0
-0.0051698 0.1049375 -0.0307370 255 140 0
-0.0028975 0.1049380 -0.0307360 255 140 0
-0.0006255 0.1049386 -0.0307351 255 140 0
0.0016467 0.1049390 -0.0307341 255 140 0
0.0039181 0.1049405 -0.0307327 255 140 0
0.0061899 0.1049421 -0.0307318 255 140 0
0.0084624 0.1049437 -0.0307304 255 140 0
0.0107344 0.1049499 -0.0307225 255 140 0
0.0130097 0.1049526 -0.0307215 255 140 0
0.0152822 0.1049728 -0.0306947 255 140 0
0.0175500 0.1049976 -0.0306608 255 140 0
0.0198184 0.1050527 -0.0305828 255 140 0
0.0220879 0.1051463 -0.0304487 255 140 0
-0.0801327 0.1073808 -0.0305116 255 140 0
-0.0778680 0.1072853 -0.0306474 255 140 0
-0.0756006 0.1072335 -0.0307196 255 140 0
-0.0733301 0.1072202 -0.0307360 255 140 0
-0.0710594 0.1072138 -0.0307430 255 140 0
-0.0687883 0.1072118 -0.0307446 255 140 0
-0.0665156 0.1072105 -0.0307460 255 140 0
-0.0642434 0.1072097 -0.0307468 255 140 0
-0.0619678 0.1072087 -0.0307444 255 140 0
-0.0596943 0.1072084 -0.0307433 255 140 0
-0.0574242 0.1072072 -0.0307441 255 140 0
-0.0551529 0.1072068 -0.0307443 255 140 0
-0.0528809 0.1072057 -0.0307435 255 140 0
-0.0506088 0.1072045 -0.0307417 255 140 0
-0.0483371 0.1072050 -0.0307400 255 140 0
-0.0460658 0.1072059 -0.0307382 255 140 0
-0.0437942 0.1072069 -0.0307365 255 140 0
-0.0415222 0.1072064 -0.0307357 255 140 0
-0.0392502 0.1072060 -0.0307351 255 140 0
-0.0369751 0.1072064 -0.0307326 255 140 0
-0.0347022 0.1072066 -0.0307308 255 140 0
-0.0324322 0.1072062 -0.0307306 255 140 0
-0.0301614 0.1072060 -0.0307298 255 140 0
-0.0278897 0.1072064 -0.0307284 255 140 0
-0.0256180 0.1072067 -0.0307269 255 140 0
-0.0233464 0.1072071 -0.0307254 255 140 0
-0.0210748 0.1072080 -0.0307237 255 140 0
-0.0188031 0.1072082 -0.0307225 255 140 0
-0.0165308 0.1072081 -0.0307218 255 140 0
-0.0142588 0.1072081 -0.0307214 255 140 0
-0.0119833 0.1072106 -0.0307173 255 140 0
-0.0097098 0.1072127 -0.0307151 255 140 0
-0.0074401 0.1072147 -0.0307155 255 140 0
-0.0051694 0.1072150 -0.0307147 255 140 0
-0.0028971 0.1072153 -0.0307133 255 140 0
-0.0006251 0.1072161 -0.0307121 255 140 0
0.0016470 0.1072171 -0.0307104 255 140 0
0.0039184 0.1072193 -0.0307087 255 140 0
0.0061902 0.1072205 -0.0307070 255 140 0
0.0084626 0.1072226 -0.0307051 255 140 0
0.0107345 0.1072319 -0.0306930 255 140 0
0.0130097 0.1072333 -0.0306938 255 140 0
0.0152820 0.1072559 -0.0306643 255 140 0
0.0175491 0.1072965 -0.0306086 255 140 0
0.0198170 0.1073561 -0.0305259 255 140 0
-0.0801290 0.1097106 -0.0304170 255 140 0
-0.0778646 0.1095901 -0.0305884 255 140 0
-0.0755977 0.1095211 -0.0306853 255 140 0
-0.0733287 0.1094998 -0.0307134 255 140 0
-0.0710584 0.1094902 -0.0307255 255 140 0
-0.0687876 0.1094878 -0.0307278 255 140 0
-0.0665153 0.1094863 -0.0307295 255 140 0
-0.0642430 0.1094851 -0.0307302 255 140 0
-0.0619671 0.1094851 -0.0307276 255 140 0
-0.0596934 0.1094845 -0.0307261 255 140 0
-0.0574236 0.1094837 -0.0307265 255 140 0
-0.0551522 0.1094836 -0.0307259 255 140 0
-0.0528802 0.1094839 -0.0307240 255 140 0
-0.0506082 0.1094838 -0.0307214 255 140 0
-0.0483362 0.1094845 -0.0307181 255 140 0
-0.0460651 0.1094860 -0.0307144 255 140 0
-0.0437935 0.1094876 -0.0307111 255 140 0
-0.0415214 0.1094886 -0.0307086 255 140 0
-0.0392494 0.1094892 -0.0307066 255 140 0
-0.0369740 0.1094905 -0.0307029 255 140 0
-0.0347009 0.1094909 -0.0307003 255 140 0
-0.0324313 0.1094898 -0.0307007 255 140 0
-0.0301605 0.1094895 -0.0306998 255 140 0
-0.0278889 0.1094901 -0.0306976 255 140 0
-0.0256172 0.1094908 -0.0306950 255 140 0
-0.0233457 0.1094920 -0.0306923 255 140 0
-0.0210740 0.1094931 -0.0306898 255 140 0
-0.0188025 0.1094939 -0.0306873 255 140 0
-0.0165301 0.1094944 -0.0306853 255 140 0
-0.0142581 0.1094948 -0.0306836 255 140 0
-0.0119823 0.1094987 -0.0306786 255 140 0
-0.0097088 0.1095033 -0.0306752 255 140 0
-0.0074393 0.1095033 -0.0306744 255 140 0
-0.0051686 0.1095043 -0.0306732 255 140 0
-0.0028964 0.1095052 -0.0306711 255 140 0
-0.0006245 0.1095059 -0.0306690 255 140 0
0.0016476 0.1095075 -0.0306667 255 140 0
0.0039189 0.1095100 -0.0306644 255 140 0
0.0061907 0.1095112 -0.0306616 255 140 0
0.0084630 0.1095138 -0.0306584 255 140 0
0.0107346 0.1095270 -0.0306407 255 140 0
0.0130100 0.1095272 -0.0306425 255 140 0
0.0152819 0.1095521 -0.0306093 255 140 0
0.0175480 0.1096170 -0.0305228 255 140 0
0.0198157 0.1096794 -0.0304380 255 140 0
-0.0801258 0.1120253 -0.0303455 255 140 0
-0.0778619 0.1119029 -0.0305173 255 140 0
-0.0755945 0.1118269 -0.0306224 255 140 0
-0.0733266 0.1117962 -0.0306624 255 140 0
-0.0710565 0.1117822 -0.0306802 255 140 0
-0.0687858 0.1117786 -0.0306839 255 140 0
-0.0665137 0.1117768 -0.0306858 255 140 0
-0.0642415 0.1117757 -0.0306864 255 140 0
-0.0619657 0.1117776 -0.0306830 255 140 0
-0.0596921 0.1117771 -0.0306806 255 140 0
-0.0574224 0.1117766 -0.0306804 255 140 0
-0.0551510 0.1117773 -0.0306786 255 140 0
-0.0528789 0.1117788 -0.0306752 255 140 0
-0.0506069 0.1117810 -0.0306715 255 140 0
-0.0483352 0.1117826 -0.0306667 255 140 0
-0.0460642 0.1117832 -0.0306619 255 140 0
-0.0437924 0.1117852 -0.0306574 255 140 0
-0.0415202 0.1117871 -0.0306535 255 140 0
-0.0392483 0.1117877 -0.0306512 255 140 0
-0.0369725 0.1117881 -0.0306479 255 140 0
-0.0346992 0.1117866 -0.0306468 255 140 0
-0.0324298 0.1117813 -0.0306519 255 140 0
-0.0301594 0.1117793 -0.0306529 255 140 0
-0.0278877 0.1117808 -0.0306491 255 140 0
-0.0256161 0.1117827 -0.0306453 255 140 0
-0.0233446 0.1117846 -0.0306412 255 140 0
-0.0210731 0.1117869 -0.0306372 255 140 0
-0.0188014 0.1117889 -0.0306333 255 140 0
-0.0165291 0.1117904 -0.0306297 255 140 0
-0.0142570 0.1117916 -0.0306266 255 140 0
-0.0119812 0.1117991 -0.0306203 255 140 0
-0.0097076 0.1118028 -0.0306158 255 140 0
-0.0074382 0.1118032 -0.0306141 255 140 0
-0.0051676 0.1118039 -0.0306120 255 140 0
-0.0028956 0.1118056 -0.0306094 255 140 0
-0.0006235 0.1118071 -0.0306063 255 140 0
0.0016483 0.1118096 -0.0306032 255 140 0
0.0039198 0.1118108 -0.0306004 255 140 0
0.0061915 0.1118130 -0.0305974 255 140 0
0.0084637 0.1118162 -0.0305930 255 140 0
0.0107351 0.1118307 -0.0305741 255 140 0
0.0130099 0.1118361 -0.0305699 255 140 0
0.0152815 0.1118637 -0.0305355 255 140 0
0.0175474 0.1119353 -0.0304435 255 140 0
0.0198149 0.1119921 -0.0303695 255 140 0
-0.0778576 0.1142283 -0.0304290 255 140 0
-0.0755904 0.1141587 -0.0305220 255 140 0
-0.0733231 0.1141206 -0.0305692 255 140 0
-0.0710532 0.1141009 -0.0305933 255 140 0
-0.0687828 0.1140941 -0.0306013 255 140 0
-0.0665111 0.1140905 -0.0306047 255 140 0
-0.0642391 0.1140889 -0.0306059 255 140 0
-0.0619634 0.1140918 -0.0306018 255 140 0
-0.0596901 0.1140920 -0.0305986 255 140 0
-0.0574203 0.1140920 -0.0305978 255 140 0
-0.0551490 0.1140930 -0.0305949 255 140 0
-0.0528769 0.1140955 -0.0305902 255 140 0
-0.0506049 0.1140986 -0.0305855 255 140 0
-0.0483330 0.1141017 -0.0305802 255 140 0
-0.0460621 0.1141038 -0.0305746 255 140 0
-0.0437905 0.1141051 -0.0305698 255 140 0
-0.0415184 0.1141054 -0.0305655 255 140 0
-0.0392465 0.1141048 -0.0305634 255 140 0
-0.0369706 0.1141043 -0.0305614 255 140 0
-0.0346971 0.1141017 -0.0305624 255 140 0
-0.0324277 0.1140902 -0.0305740 255 140 0
-0.0301576 0.1140857 -0.0305781 255 140 0
-0.0278860 0.1140881 -0.0305736 255 140 0
-0.0256144 0.1140903 -0.0305691 255 140 0
-0.0233431 0.1140929 -0.0305646 255 140 0
-0.0210715 0.1140959 -0.0305594 255 140 0
-0.0187999 0.1140985 -0.0305546 255 140 0
-0.0165276 0.1141015 -0.0305497 255 140 0
-0.0142556 0.1141052 -0.0305449 255 140 0
-0.0119797 0.1141128 -0.0305370 255 140 0
-0.0097062 0.1141168 -0.0305314 255 140 0
-0.0074368 0.1141175 -0.0305294 255 140 0
-0.0051662 0.1141188 -0.0305266 255 140 0
-0.0028944 0.1141210 -0.0305232 255 140 0
-0.0006222 0.1141235 -0.0305192 255 140 0
0.0016496 0.1141261 -0.0305159 255 140 0
0.0039210 0.1141275 -0.0305129 255 140 0
0.0061926 0.1141293 -0.0305101 255 140 0
0.0084647 0.1141330 -0.0305057 255 140 0
0.0107358 0.1141468 -0.0304893 255 140 0
0.0130100 0.1141659 -0.0304707 255 140 0
0.0152812 0.1141981 -0.0304335 255 140 0
0.0175475 0.1142590 -0.0303598 255 140 0
-0.0778549 0.1165741 -0.0303233 255 140 0
-0.0755869 0.1164887 -0.0304326 255 140 0
-0.0733185 0.1164218 -0.0305154 255 140 0
-0.0710517 0.1163833 -0.0305624 255 140 0
-0.0687816 0.1163670 -0.0305817 255 140 0
-0.0665102 0.1163614 -0.0305867 255 140 0
-0.0642385 0.1163615 -0.0305853 255 140 0
-0.0619625 0.1163670 -0.0305776 255 140 0
-0.0596892 0.1163719 -0.0305710 255 140 0
-0.0574195 0.1163741 -0.0305676 255 140 0
-0.0551480 0.1163774 -0.0305629 255 140 0
-0.0528758 0.1163802 -0.0305569 255 140 0
-0.0506038 0.1163836 -0.0305508 255 140 0
-0.0483320 0.1163874 -0.0305446 255 140 0
-0.0460613 0.1163910 -0.0305382 255 140 0
-0.0437896 0.1163942 -0.0305324 255 140 0
-0.0415175 0.1163969 -0.0305271 255 140 0
-0.0392456 0.1163963 -0.0305251 255 140 0
-0.0369695 0.1163953 -0.0305227 255 140 0
-0.0346962 0.1163899 -0.0305254 255 140 0
-0.0324269 0.1163752 -0.0305422 255 140 0
-0.0301569 0.1163682 -0.0305496 255 140 0
-0.0278852 0.1163694 -0.0305466 255 140 0
-0.0256138 0.1163713 -0.0305428 255 140 0
-0.0233425 0.1163741 -0.0305384 255 140 0
-0.0210709 0.1163776 -0.0305335 255 140 0
-0.0187992 0.1163806 -0.0305282 255 140 0
-0.0165270 0.1163833 -0.0305230 255 140 0
-0.0142550 0.1163857 -0.0305182 255 140 0
-0.0119792 0.1163913 -0.0305106 255 140 0
-0.0097056 0.1163955 -0.0305050 255 140 0
-0.0074362 0.1163969 -0.0305021 255 140 0
-0.0051657 0.1163998 -0.0304987 255 140 0
-0.0028939 0.1164021 -0.0304948 255 140 0
-0.0006218 0.1164037 -0.0304908 255 140 0
0.0016498 0.1164053 -0.0304872 255 140 0
0.0039214 0.1164072 -0.0304834 255 140 0
0.0061929 0.1164097 -0.0304799 255 140 0
0.0084647 0.1164136 -0.0304759 255 140 0
