ply
format ascii 1.0
element vertex 1143
property float x
property float y
property float z
property uchar red
property uchar green
property uchar blue
end_header
-0.0437718 0.1442083 -0.0093562 255 140 0
-0.0415001 0.1442087 -0.0093563 255 140 0
-0.0392285 0.1442089 -0.0093563 255 140 0
-0.0369569 0.1442092 -0.0093564 255 140 0
-0.0346853 0.1442094 -0.0093564 255 140 0
-0.0324136 0.1442094 -0.0093564 255 140 0
-0.0301420 0.1442094 -0.0093564 255 140 0
-0.0278704 0.1442093 -0.0093564 255 140 0
-0.0255987 0.1442092 -0.0093564 255 140 0
-0.0233271 0.1442091 -0.0093564 255 140 0
-0.0210555 0.1442090 -0.0093563 255 140 0
-0.0187839 0.1442088 -0.0093563 255 140 0
-0.0165123 0.1442074 -0.0093562 255 140 0
-0.0142406 0.1442068 -0.0093562 255 140 0
-0.0119690 0.1442055 -0.0093560 255 140 0
-0.0096974 0.1442003 -0.0093559 255 140 0
-0.0074258 0.1441956 -0.0093558 255 140 0
-0.0051541 0.1441768 -0.0093556 255 140 0
-0.0028831 0.1441444 -0.0093553 255 140 0
-0.0006122 0.1440832 -0.0093550 255 140 0
0.0016580 0.1438761 -0.0093549 255 140 0
-0.0596731 0.1464671 -0.0093548 255 140 0
-0.0574015 0.1464717 -0.0093551 255 140 0
-0.0551299 0.1464758 -0.0093554 255 140 0
-0.0528582 0.1464772 -0.0093555 255 140 0
-0.0505866 0.1464786 -0.0093557 255 140 0
-0.0483150 0.1464791 -0.0093558 255 140 0
-0.0460434 0.1464794 -0.0093559 255 140 0
-0.0437718 0.1464800 -0.0093560 255 140 0
-0.0415001 0.1464810 -0.0093560 255 140 0
-0.0392285 0.1464812 -0.0093560 255 140 0
-0.0369569 0.1464812 -0.0093561 255 140 0
-0.0346853 0.1464812 -0.0093561 255 140 0
-0.0324136 0.1464813 -0.0093561 255 140 0
-0.0301420 0.1464813 -0.0093561 255 140 0
-0.0278704 0.1464813 -0.0093561 255 140 0
-0.0255987 0.1464813 -0.0093561 255 140 0
-0.0233271 0.1464813 -0.0093561 255 140 0
-0.0210555 0.1464813 -0.0093561 255 140 0
-0.0187839 0.1464811 -0.0093561 255 140 0
-0.0165123 0.1464799 -0.0093560 255 140 0
-0.0142406 0.1464797 -0.0093560 255 140 0
-0.0119690 0.1464795 -0.0093558 255 140 0
-0.0096974 0.1464773 -0.0093557 255 140 0
-0.0074258 0.1464749 -0.0093556 255 140 0
-0.0051541 0.1464705 -0.0093555 255 140 0
-0.0028826 0.1464628 -0.0093552 255 140 0
-0.0006115 0.1464580 -0.0093549 255 140 0
-0.0551299 0.1487509 -0.0093553 255 140 0
-0.0528583 0.1487511 -0.0093555 255 140 0
-0.0505866 0.1487513 -0.0093556 255 140 0
-0.0483150 0.1487515 -0.0093557 255 140 0
-0.0460434 0.1487518 -0.0093558 255 140 0
-0.0437718 0.1487519 -0.0093558 255 140 0
-0.0415001 0.1487525 -0.0093559 255 140 0
-0.0392285 0.1487527 -0.0093559 255 140 0
-0.0369569 0.1487528 -0.0093560 255 140 0
-0.0346853 0.1487529 -0.0093560 255 140 0
-0.0324136 0.1487529 -0.0093560 255 140 0
-0.0301420 0.1487529 -0.0093560 255 140 0
-0.0278704 0.1487529 -0.0093560 255 140 0
-0.0255987 0.1487529 -0.0093560 255 140 0
-0.0233271 0.1487529 -0.0093560 255 140 0
-0.0210555 0.1487528 -0.0093560 255 140 0
-0.0187839 0.1487520 -0.0093560 255 140 0
-0.0165123 0.1487516 -0.0093559 255 140 0
-0.0142406 0.1487516 -0.0093559 255 140 0
-0.0119690 0.1487517 -0.0093558 255 140 0
-0.0096974 0.1487509 -0.0093557 255 140 0
-0.0074258 0.1487500 -0.0093556 255 140 0
-0.0051541 0.1487501 -0.0093554 255 140 0
-0.0505866 0.1510221 -0.0093556 255 140 0
-0.0483150 0.1510224 -0.0093557 255 140 0
-0.0460434 0.1510236 -0.0093558 255 140 0
-0.0437718 0.1510235 -0.0093559 255 140 0
-0.0415001 0.1510234 -0.0093559 255 140 0
-0.0392285 0.1510232 -0.0093559 255 140 0
-0.0369569 0.1510232 -0.0093560 255 140 0
-0.0346853 0.1510232 -0.0093560 255 140 0
-0.0324136 0.1510232 -0.0093560 255 140 0
-0.0301420 0.1510232 -0.0093560 255 140 0
-0.0278704 0.1510232 -0.0093560 255 140 0
-0.0255987 0.1510232 -0.0093560 255 140 0
-0.0233271 0.1510232 -0.0093560 255 140 0
-0.0210555 0.1510233 -0.0093560 255 140 0
-0.0187839 0.1510233 -0.0093560 255 140 0
-0.0165123 0.1510232 -0.0093559 255 140 0
-0.0142406 0.1510220 -0.0093559 255 140 0
-0.0119690 0.1510221 -0.0093558 255 140 0
-0.0096974 0.1510176 -0.0093557 255 140 0
-0.0415001 0.1532945 -0.0093560 255 140 0
-0.0392285 0.1532943 -0.0093560 255 140 0
-0.0369569 0.1532943 -0.0093560 255 140 0
-0.0346853 0.1532943 -0.0093560 255 140 0
-0.0324136 0.1532943 -0.0093560 255 140 0
-0.0301420 0.1532943 -0.0093560 255 140 0
-0.0278704 0.1532943 -0.0093560 255 140 0
-0.0255987 0.1532943 -0.0093560 255 140 0
-0.0233271 0.1532943 -0.0093560 255 140 0
-0.0210555 0.1532943 -0.0093560 255 140 0
-0.0187839 0.1532944 -0.0093560 255 140 0
-0.0165123 0.1532944 -0.0093559 255 140 0
-0.0460434 0.0328743 -0.0070845 255 140 0
-0.0437718 0.0328743 -0.0070846 255 140 0
-0.0415001 0.0328743 -0.0070846 255 140 0
-0.0392285 0.0328743 -0.0070847 255 140 0
-0.0369569 0.0328743 -0.0070848 255 140 0
-0.0346853 0.0328743 -0.0070849 255 140 0
-0.0324136 0.0328743 -0.0070849 255 140 0
-0.0301420 0.0328743 -0.0070850 255 140 0
-0.0278704 0.0328743 -0.0070849 255 140 0
-0.0255987 0.0328743 -0.0070849 255 140 0
-0.0233271 0.0328743 -0.0070848 255 140 0
-0.0210555 0.0328743 -0.0070848 255 140 0
-0.0187839 0.0328743 -0.0070847 255 140 0
-0.0165123 0.0328743 -0.0070846 255 140 0
-0.0142406 0.0328743 -0.0070846 255 140 0
-0.0528583 0.0351459 -0.0070845 255 140 0
-0.0505866 0.0351459 -0.0070846 255 140 0
-0.0483150 0.0351459 -0.0070846 255 140 0
-0.0460434 0.0351459 -0.0070846 255 140 0
-0.0437718 0.0351459 -0.0070846 255 140 0
-0.0415001 0.0351459 -0.0070847 255 140 0
-0.0392285 0.0351459 -0.0070848 255 140 0
-0.0369569 0.0351459 -0.0070849 255 140 0
-0.0346853 0.0351459 -0.0070850 255 140 0
-0.0324136 0.0351459 -0.0070850 255 140 0
-0.0301420 0.0351459 -0.0070850 255 140 0
-0.0278704 0.0351459 -0.0070850 255 140 0
-0.0255987 0.0351459 -0.0070850 255 140 0
-0.0233271 0.0351459 -0.0070849 255 140 0
-0.0210555 0.0351459 -0.0070849 255 140 0
-0.0187839 0.0351459 -0.0070848 255 140 0
-0.0165123 0.0351459 -0.0070848 255 140 0
-0.0142406 0.0351459 -0.0070847 255 140 0
-0.0119690 0.0351459 -0.0070846 255 140 0
-0.0096974 0.0351459 -0.0070845 255 140 0
-0.0074258 0.0351459 -0.0070844 255 140 0
-0.0574015 0.0374175 -0.0070846 255 140 0
-0.0551299 0.0374175 -0.0070846 255 140 0
-0.0528583 0.0374175 -0.0070847 255 140 0
-0.0505866 0.0374175 -0.0070847 255 140 0
-0.0483150 0.0374175 -0.0070848 255 140 0
-0.0460434 0.0374175 -0.0070849 255 140 0
-0.0437718 0.0374175 -0.0070849 255 140 0
-0.0415001 0.0374175 -0.0070850 255 140 0
-0.0392285 0.0374175 -0.0070851 255 140 0
-0.0369569 0.0374175 -0.0070852 255 140 0
-0.0346853 0.0374175 -0.0070852 255 140 0
-0.0324136 0.0374175 -0.0070853 255 140 0
-0.0301420 0.0374175 -0.0070853 255 140 0
-0.0278704 0.0374175 -0.0070852 255 140 0
-0.0255987 0.0374175 -0.0070852 255 140 0
-0.0233271 0.0374175 -0.0070852 255 140 0
-0.0210555 0.0374175 -0.0070851 255 140 0
-0.0187839 0.0374175 -0.0070851 255 140 0
-0.0165123 0.0374175 -0.0070850 255 140 0
-0.0142406 0.0374175 -0.0070849 255 140 0
-0.0119690 0.0374175 -0.0070848 255 140 0
-0.0096974 0.0374175 -0.0070847 255 140 0
-0.0074258 0.0374175 -0.0070847 255 140 0
-0.0051541 0.0374175 -0.0070846 255 140 0
-0.0028825 0.0374175 -0.0070845 255 140 0
-0.0006109 0.0374175 -0.0070845 255 140 0
-0.0619448 0.0396892 -0.0070845 255 140 0
-0.0596731 0.0396892 -0.0070846 255 140 0
-0.0574015 0.0396892 -0.0070846 255 140 0
-0.0551299 0.0396892 -0.0070847 255 140 0
-0.0528583 0.0396892 -0.0070848 255 140 0
-0.0505866 0.0396892 -0.0070848 255 140 0
-0.0483150 0.0396892 -0.0070849 255 140 0
-0.0460434 0.0396892 -0.0070849 255 140 0
-0.0437718 0.0396892 -0.0070850 255 140 0
-0.0415001 0.0396892 -0.0070851 255 140 0
-0.0392285 0.0396892 -0.0070852 255 140 0
-0.0369569 0.0396892 -0.0070853 255 140 0
-0.0346853 0.0396892 -0.0070854 255 140 0
-0.0324136 0.0396892 -0.0070855 255 140 0
-0.0301420 0.0396892 -0.0070855 255 140 0
-0.0278704 0.0396892 -0.0070854 255 140 0
-0.0255987 0.0396892 -0.0070854 255 140 0
-0.0233271 0.0396892 -0.0070854 255 140 0
-0.0210555 0.0396892 -0.0070853 255 140 0
-0.0187839 0.0396892 -0.0070852 255 140 0
-0.0165123 0.0396892 -0.0070851 255 140 0
-0.0142406 0.0396892 -0.0070851 255 140 0
-0.0119690 0.0396892 -0.0070849 255 140 0
-0.0096974 0.0396892 -0.0070848 255 140 0
-0.0074258 0.0396892 -0.0070847 255 140 0
-0.0051541 0.0396892 -0.0070847 255 140 0
-0.0028825 0.0396892 -0.0070846 255 140 0
-0.0006109 0.0396892 -0.0070845 255 140 0
0.0016607 0.0396892 -0.0070845 255 140 0
-0.0642164 0.0419608 -0.0070847 255 140 0
-0.0619448 0.0419608 -0.0070848 255 140 0
-0.0596731 0.0419608 -0.0070850 255 140 0
-0.0574015 0.0419608 -0.0070851 255 140 0
-0.0551299 0.0419608 -0.0070852 255 140 0
-0.0528583 0.0419608 -0.0070854 255 140 0
-0.0505866 0.0419608 -0.0070855 255 140 0
-0.0483150 0.0419608 -0.0070856 255 140 0
-0.0460434 0.0419608 -0.0070858 255 140 0
-0.0437718 0.0419608 -0.0070864 255 140 0
-0.0415001 0.0419608 -0.0070866 255 140 0
-0.0392285 0.0419608 -0.0070867 255 140 0
-0.0369569 0.0419608 -0.0070868 255 140 0
-0.0346853 0.0419608 -0.0070868 255 140 0
-0.0324136 0.0419608 -0.0070868 255 140 0
-0.0301420 0.0419608 -0.0070868 255 140 0
-0.0278704 0.0419608 -0.0070868 255 140 0
-0.0255987 0.0419608 -0.0070868 255 140 0
-0.0233271 0.0419608 -0.0070868 255 140 0
-0.0210555 0.0419608 -0.0070867 255 140 0
-0.0187839 0.0419608 -0.0070867 255 140 0
-0.0165123 0.0419608 -0.0070867 255 140 0
-0.0142406 0.0419608 -0.0070866 255 140 0
-0.0119690 0.0419608 -0.0070857 255 140 0
-0.0096974 0.0419608 -0.0070856 255 140 0
-0.0074258 0.0419608 -0.0070855 255 140 0
-0.0051541 0.0419608 -0.0070853 255 140 0
-0.0028825 0.0419608 -0.0070852 255 140 0
-0.0006109 0.0419608 -0.0070850 255 140 0
0.0016607 0.0419608 -0.0070849 255 140 0
0.0039324 0.0419608 -0.0070847 255 140 0
-0.0664880 0.0442324 -0.0070847 255 140 0
-0.0642164 0.0442324 -0.0070849 255 140 0
-0.0619448 0.0442324 -0.0070851 255 140 0
-0.0596731 0.0442324 -0.0070854 255 140 0
-0.0574015 0.0442324 -0.0070856 255 140 0
-0.0551299 0.0442324 -0.0070857 255 140 0
-0.0528583 0.0442324 -0.0070865 255 140 0
-0.0505866 0.0442324 -0.0070867 255 140 0
-0.0483150 0.0442324 -0.0070868 255 140 0
-0.0460434 0.0442324 -0.0070869 255 140 0
-0.0437718 0.0442323 -0.0070869 255 140 0
-0.0415001 0.0442322 -0.0070870 255 140 0
-0.0392285 0.0442322 -0.0070870 255 140 0
-0.0369569 0.0442322 -0.0070871 255 140 0
-0.0346853 0.0442322 -0.0070871 255 140 0
-0.0324136 0.0442322 -0.0070871 255 140 0
-0.0301420 0.0442322 -0.0070871 255 140 0
-0.0278704 0.0442322 -0.0070871 255 140 0
-0.0255987 0.0442322 -0.0070871 255 140 0
-0.0233271 0.0442322 -0.0070871 255 140 0
-0.0210555 0.0442322 -0.0070871 255 140 0
-0.0187839 0.0442322 -0.0070870 255 140 0
-0.0165123 0.0442323 -0.0070870 255 140 0
-0.0142406 0.0442324 -0.0070869 255 140 0
-0.0119690 0.0442324 -0.0070868 255 140 0
-0.0096974 0.0442324 -0.0070867 255 140 0
-0.0074258 0.0442324 -0.0070867 255 140 0
-0.0051541 0.0442324 -0.0070861 255 140 0
-0.0028825 0.0442324 -0.0070857 255 140 0
-0.0006111 0.0442324 -0.0070855 255 140 0
0.0016607 0.0442324 -0.0070852 255 140 0
0.0039324 0.0442324 -0.0070850 255 140 0
0.0062040 0.0442324 -0.0070848 255 140 0
-0.0710313 0.0465040 -0.0070846 255 140 0
-0.0687596 0.0465040 -0.0070847 255 140 0
-0.0664880 0.0465040 -0.0070849 255 140 0
-0.0642164 0.0465040 -0.0070850 255 140 0
-0.0619448 0.0465040 -0.0070853 255 140 0
-0.0596731 0.0465040 -0.0070856 255 140 0
-0.0574015 0.0465040 -0.0070857 255 140 0
-0.0551299 0.0465040 -0.0070864 255 140 0
-0.0528583 0.0465040 -0.0070866 255 140 0
-0.0505866 0.0465040 -0.0070867 255 140 0
-0.0483150 0.0465040 -0.0070868 255 140 0
-0.0460434 0.0465040 -0.0070869 255 140 0
-0.0437718 0.0465040 -0.0070869 255 140 0
-0.0415001 0.0465040 -0.0070870 255 140 0
-0.0392285 0.0465040 -0.0070870 255 140 0
-0.0369569 0.0465039 -0.0070870 255 140 0
-0.0346853 0.0465039 -0.0070871 255 140 0
-0.0324136 0.0465039 -0.0070871 255 140 0
-0.0301420 0.0465039 -0.0070871 255 140 0
-0.0278704 0.0465039 -0.0070871 255 140 0
-0.0255987 0.0465039 -0.0070871 255 140 0
-0.0233271 0.0465040 -0.0070871 255 140 0
-0.0210555 0.0465040 -0.0070870 255 140 0
-0.0187839 0.0465040 -0.0070870 255 140 0
-0.0165123 0.0465040 -0.0070870 255 140 0
-0.0142406 0.0465040 -0.0070869 255 140 0
-0.0119690 0.0465040 -0.0070868 255 140 0
-0.0096974 0.0465040 -0.0070867 255 140 0
-0.0074258 0.0465040 -0.0070867 255 140 0
-0.0051541 0.0465040 -0.0070866 255 140 0
-0.0028825 0.0465040 -0.0070861 255 140 0
-0.0006111 0.0465040 -0.0070857 255 140 0
0.0016607 0.0465040 -0.0070855 255 140 0
0.0039324 0.0465040 -0.0070853 255 140 0
0.0062040 0.0465040 -0.0070851 255 140 0
0.0084756 0.0465040 -0.0070849 255 140 0
0.0107472 0.0465040 -0.0070849 255 140 0
-0.0733029 0.0487757 -0.0070847 255 140 0
-0.0710313 0.0487757 -0.0070848 255 140 0
-0.0687596 0.0487757 -0.0070850 255 140 0
-0.0664880 0.0487757 -0.0070851 255 140 0
-0.0642164 0.0487757 -0.0070853 255 140 0
-0.0619448 0.0487757 -0.0070856 255 140 0
-0.0596731 0.0487757 -0.0070861 255 140 0
-0.0574015 0.0487757 -0.0070866 255 140 0
-0.0551299 0.0487757 -0.0070867 255 140 0
-0.0528583 0.0487757 -0.0070867 255 140 0
-0.0505866 0.0487757 -0.0070868 255 140 0
-0.0483150 0.0487757 -0.0070868 255 140 0
-0.0460434 0.0487757 -0.0070869 255 140 0
-0.0437718 0.0487757 -0.0070869 255 140 0
-0.0415001 0.0487757 -0.0070869 255 140 0
-0.0392285 0.0487757 -0.0070870 255 140 0
-0.0369569 0.0487757 -0.0070870 255 140 0
-0.0346853 0.0487757 -0.0070870 255 140 0
-0.0324136 0.0487757 -0.0070870 255 140 0
-0.0301420 0.0487757 -0.0070870 255 140 0
-0.0278704 0.0487757 -0.0070870 255 140 0
-0.0255987 0.0487757 -0.0070870 255 140 0
-0.0233271 0.0487757 -0.0070870 255 140 0
-0.0210555 0.0487757 -0.0070870 255 140 0
-0.0187839 0.0487757 -0.0070870 255 140 0
-0.0165123 0.0487757 -0.0070869 255 140 0
-0.0142406 0.0487757 -0.0070869 255 140 0
-0.0119690 0.0487757 -0.0070869 255 140 0
-0.0096974 0.0487757 -0.0070868 255 140 0
-0.0074258 0.0487757 -0.0070868 255 140 0
-0.0051541 0.0487757 -0.0070867 255 140 0
-0.0028825 0.0487757 -0.0070866 255 140 0
-0.0006111 0.0487757 -0.0070866 255 140 0
0.0016607 0.0487757 -0.0070858 255 140 0
0.0039324 0.0487757 -0.0070857 255 140 0
0.0062040 0.0487757 -0.0070854 255 140 0
0.0084756 0.0487757 -0.0070853 255 140 0
0.0107472 0.0487757 -0.0070851 255 140 0
0.0130189 0.0487757 -0.0070844 255 140 0
-0.0755745 0.0510473 -0.0070847 255 140 0
-0.0733029 0.0510473 -0.0070849 255 140 0
-0.0710313 0.0510473 -0.0070850 255 140 0
-0.0687596 0.0510473 -0.0070852 255 140 0
-0.0664880 0.0510473 -0.0070853 255 140 0
-0.0642164 0.0510473 -0.0070856 255 140 0
-0.0619448 0.0510473 -0.0070862 255 140 0
-0.0596731 0.0510473 -0.0070867 255 140 0
-0.0574015 0.0510473 -0.0070867 255 140 0
-0.0551299 0.0510473 -0.0070868 255 140 0
-0.0528583 0.0510473 -0.0070869 255 140 0
-0.0505866 0.0510473 -0.0070869 255 140 0
-0.0483150 0.0510473 -0.0070870 255 140 0
-0.0460434 0.0510473 -0.0070870 255 140 0
-0.0437718 0.0510473 -0.0070871 255 140 0
-0.0415001 0.0510473 -0.0070871 255 140 0
-0.0392285 0.0510473 -0.0070871 255 140 0
-0.0369569 0.0510473 -0.0070871 255 140 0
-0.0346853 0.0510473 -0.0070871 255 140 0
-0.0324136 0.0510473 -0.0070871 255 140 0
-0.0301420 0.0510473 -0.0070871 255 140 0
-0.0278704 0.0510473 -0.0070871 255 140 0
-0.0255987 0.0510473 -0.0070871 255 140 0
-0.0233271 0.0510473 -0.0070871 255 140 0
-0.0210555 0.0510473 -0.0070871 255 140 0
-0.0187839 0.0510473 -0.0070871 255 140 0
-0.0165123 0.0510473 -0.0070871 255 140 0
-0.0142406 0.0510473 -0.0070871 255 140 0
-0.0119690 0.0510473 -0.0070870 255 140 0
-0.0096974 0.0510473 -0.0070869 255 140 0
-0.0074258 0.0510473 -0.0070869 255 140 0
-0.0051541 0.0510473 -0.0070869 255 140 0
-0.0028825 0.0510473 -0.0070868 255 140 0
-0.0006111 0.0510473 -0.0070867 255 140 0
0.0016607 0.0510473 -0.0070867 255 140 0
0.0039324 0.0510473 -0.0070863 255 140 0
0.0062040 0.0510473 -0.0070858 255 140 0
0.0084756 0.0510473 -0.0070855 255 140 0
0.0107472 0.0510473 -0.0070853 255 140 0
0.0130189 0.0510473 -0.0070847 255 140 0
0.0152905 0.0510473 -0.0070844 255 140 0
-0.0755745 0.0533189 -0.0070848 255 140 0
-0.0733029 0.0533189 -0.0070850 255 140 0
-0.0710313 0.0533189 -0.0070852 255 140 0
-0.0687596 0.0533189 -0.0070854 255 140 0
-0.0664880 0.0533189 -0.0070856 255 140 0
-0.0642164 0.0533189 -0.0070859 255 140 0
-0.0619448 0.0533189 -0.0070867 255 140 0
-0.0596731 0.0533189 -0.0070868 255 140 0
-0.0574015 0.0533189 -0.0070869 255 140 0
-0.0551299 0.0533189 -0.0070869 255 140 0
-0.0528583 0.0533189 -0.0070870 255 140 0
-0.0505866 0.0533189 -0.0070870 255 140 0
-0.0483150 0.0533189 -0.0070871 255 140 0
-0.0460434 0.0533189 -0.0070871 255 140 0
-0.0437718 0.0533189 -0.0070871 255 140 0
-0.0415001 0.0533189 -0.0070871 255 140 0
-0.0392285 0.0533189 -0.0070872 255 140 0
-0.0369569 0.0533189 -0.0070872 255 140 0
-0.0346853 0.0533189 -0.0070872 255 140 0
-0.0324136 0.0533189 -0.0070872 255 140 0
-0.0301420 0.0533189 -0.0070872 255 140 0
-0.0278704 0.0533189 -0.0070872 255 140 0
-0.0255987 0.0533189 -0.0070872 255 140 0
-0.0233271 0.0533189 -0.0070872 255 140 0
-0.0210555 0.0533189 -0.0070872 255 140 0
-0.0187839 0.0533189 -0.0070872 255 140 0
-0.0165123 0.0533189 -0.0070872 255 140 0
-0.0142406 0.0533189 -0.0070871 255 140 0
-0.0119690 0.0533189 -0.0070871 255 140 0
-0.0096974 0.0533189 -0.0070871 255 140 0
-0.0074258 0.0533189 -0.0070870 255 140 0
-0.0051541 0.0533189 -0.0070870 255 140 0
-0.0028825 0.0533189 -0.0070869 255 140 0
-0.0006110 0.0533189 -0.0070869 255 140 0
0.0016607 0.0533190 -0.0070868 255 140 0
0.0039324 0.0533190 -0.0070867 255 140 0
0.0062040 0.0533190 -0.0070866 255 140 0
0.0084756 0.0533190 -0.0070858 255 140 0
0.0107472 0.0533189 -0.0070856 255 140 0
0.0130189 0.0533189 -0.0070849 255 140 0
0.0152905 0.0533189 -0.0070846 255 140 0
-0.0778461 0.0555905 -0.0070849 255 140 0
-0.0755745 0.0555905 -0.0070850 255 140 0
-0.0733029 0.0555905 -0.0070852 255 140 0
-0.0710313 0.0555906 -0.0070854 255 140 0
-0.0687596 0.0555906 -0.0070856 255 140 0
-0.0664880 0.0555906 -0.0070860 255 140 0
-0.0642164 0.0555906 -0.0070866 255 140 0
-0.0619448 0.0555906 -0.0070868 255 140 0
-0.0596731 0.0555906 -0.0070869 255 140 0
-0.0574015 0.0555906 -0.0070869 255 140 0
-0.0551299 0.0555906 -0.0070870 255 140 0
-0.0528583 0.0555906 -0.0070870 255 140 0
-0.0505866 0.0555906 -0.0070871 255 140 0
-0.0483150 0.0555906 -0.0070871 255 140 0
-0.0460434 0.0555906 -0.0070871 255 140 0
-0.0437718 0.0555906 -0.0070871 255 140 0
-0.0415001 0.0555906 -0.0070872 255 140 0
-0.0392285 0.0555906 -0.0070872 255 140 0
-0.0369569 0.0555906 -0.0070872 255 140 0
-0.0346853 0.0555906 -0.0070872 255 140 0
-0.0324136 0.0555906 -0.0070872 255 140 0
-0.0301420 0.0555906 -0.0070872 255 140 0
-0.0278704 0.0555906 -0.0070872 255 140 0
-0.0255987 0.0555906 -0.0070872 255 140 0
-0.0233271 0.0555906 -0.0070872 255 140 0
-0.0210555 0.0555906 -0.0070872 255 140 0
-0.0187839 0.0555906 -0.0070872 255 140 0
-0.0165123 0.0555906 -0.0070872 255 140 0
-0.0142406 0.0555906 -0.0070871 255 140 0
-0.0119690 0.0555906 -0.0070871 255 140 0
-0.0096974 0.0555906 -0.0070871 255 140 0
-0.0074258 0.0555906 -0.0070871 255 140 0
-0.0051541 0.0555906 -0.0070870 255 140 0
-0.0028825 0.0555906 -0.0070870 255 140 0
-0.0006109 0.0555906 -0.0070869 255 140 0
0.0016607 0.0555906 -0.0070869 255 140 0
0.0039324 0.0555906 -0.0070868 255 140 0
0.0062040 0.0555906 -0.0070867 255 140 0
0.0084756 0.0555906 -0.0070864 255 140 0
0.0107472 0.0555906 -0.0070858 255 140 0
0.0130189 0.0555906 -0.0070851 255 140 0
0.0152905 0.0555905 -0.0070848 255 140 0
0.0175621 0.0555905 -0.0070848 255 140 0
-0.0801177 0.0578622 -0.0070849 255 140 0
-0.0778461 0.0578622 -0.0070850 255 140 0
-0.0755745 0.0578622 -0.0070852 255 140 0
-0.0733029 0.0578622 -0.0070854 255 140 0
-0.0710313 0.0578623 -0.0070856 255 140 0
-0.0687596 0.0578623 -0.0070861 255 140 0
-0.0664880 0.0578623 -0.0070866 255 140 0
-0.0642164 0.0578623 -0.0070868 255 140 0
-0.0619448 0.0578623 -0.0070869 255 140 0
-0.0596731 0.0578623 -0.0070870 255 140 0
-0.0574015 0.0578623 -0.0070870 255 140 0
-0.0551299 0.0578623 -0.0070871 255 140 0
-0.0528583 0.0578623 -0.0070871 255 140 0
-0.0505866 0.0578623 -0.0070872 255 140 0
-0.0483150 0.0578623 -0.0070872 255 140 0
-0.0460434 0.0578623 -0.0070872 255 140 0
-0.0437718 0.0578623 -0.0070873 255 140 0
-0.0415001 0.0578623 -0.0070873 255 140 0
-0.0392285 0.0578623 -0.0070873 255 140 0
-0.0369569 0.0578623 -0.0070873 255 140 0
-0.0346853 0.0578623 -0.0070873 255 140 0
-0.0324136 0.0578623 -0.0070873 255 140 0
-0.0301420 0.0578623 -0.0070873 255 140 0
-0.0278704 0.0578623 -0.0070873 255 140 0
-0.0255987 0.0578623 -0.0070873 255 140 0
-0.0233271 0.0578623 -0.0070873 255 140 0
-0.0210555 0.0578623 -0.0070873 255 140 0
-0.0187839 0.0578623 -0.0070873 255 140 0
-0.0165123 0.0578623 -0.0070873 255 140 0
-0.0142406 0.0578623 -0.0070873 255 140 0
-0.0119690 0.0578624 -0.0070872 255 140 0
-0.0096974 0.0578624 -0.0070872 255 140 0
-0.0074258 0.0578624 -0.0070872 255 140 0
-0.0051541 0.0578624 -0.0070871 255 140 0
-0.0028825 0.0578624 -0.0070871 255 140 0
-0.0006109 0.0578624 -0.0070871 255 140 0
0.0016607 0.0578624 -0.0070870 255 140 0
0.0039324 0.0578624 -0.0070869 255 140 0
0.0062040 0.0578624 -0.0070868 255 140 0
0.0084756 0.0578624 -0.0070867 255 140 0
0.0107472 0.0578624 -0.0070862 255 140 0
0.0130189 0.0578623 -0.0070853 255 140 0
0.0152905 0.0578623 -0.0070850 255 140 0
0.0175621 0.0578622 -0.0070849 255 140 0
0.0198338 0.0578622 -0.0070848 255 140 0
-0.0823894 0.0601338 -0.0070848 255 140 0
-0.0801177 0.0601338 -0.0070849 255 140 0
-0.0778461 0.0601338 -0.0070852 255 140 0
-0.0755745 0.0601339 -0.0070854 255 140 0
-0.0733029 0.0601339 -0.0070856 255 140 0
-0.0710313 0.0601340 -0.0070861 255 140 0
-0.0687596 0.0601340 -0.0070867 255 140 0
-0.0664880 0.0601340 -0.0070868 255 140 0
-0.0642164 0.0601340 -0.0070869 255 140 0
-0.0619448 0.0601340 -0.0070871 255 140 0
-0.0596731 0.0601340 -0.0070872 255 140 0
-0.0574015 0.0601340 -0.0070872 255 140 0
-0.0551299 0.0601340 -0.0070872 255 140 0
-0.0528583 0.0601340 -0.0070873 255 140 0
-0.0505866 0.0601340 -0.0070873 255 140 0
-0.0483150 0.0601340 -0.0070873 255 140 0
-0.0460434 0.0601341 -0.0070873 255 140 0
-0.0437718 0.0601341 -0.0070873 255 140 0
-0.0415001 0.0601341 -0.0070873 255 140 0
-0.0392285 0.0601341 -0.0070873 255 140 0
-0.0369569 0.0601341 -0.0070874 255 140 0
-0.0346853 0.0601341 -0.0070874 255 140 0
-0.0324136 0.0601341 -0.0070874 255 140 0
-0.0301420 0.0601341 -0.0070874 255 140 0
-0.0278704 0.0601341 -0.0070874 255 140 0
-0.0255987 0.0601341 -0.0070874 255 140 0
-0.0233271 0.0601341 -0.0070874 255 140 0
-0.0210555 0.0601341 -0.0070874 255 140 0
-0.0187839 0.0601341 -0.0070874 255 140 0
-0.0165123 0.0601341 -0.0070873 255 140 0
-0.0142406 0.0601341 -0.0070873 255 140 0
-0.0119690 0.0601341 -0.0070873 255 140 0
-0.0096974 0.0601341 -0.0070873 255 140 0
-0.0074258 0.0601341 -0.0070873 255 140 0
-0.0051541 0.0601341 -0.0070873 255 140 0
-0.0028825 0.0601342 -0.0070872 255 140 0
-0.0006109 0.0601342 -0.0070872 255 140 0
0.0016607 0.0601342 -0.0070871 255 140 0
0.0039324 0.0601342 -0.0070870 255 140 0
0.0062040 0.0601342 -0.0070870 255 140 0
0.0084756 0.0601341 -0.0070868 255 140 0
0.0107472 0.0601341 -0.0070867 255 140 0
0.0130189 0.0601340 -0.0070855 255 140 0
0.0152905 0.0601340 -0.0070851 255 140 0
0.0175621 0.0601339 -0.0070850 255 140 0
0.0198338 0.0601338 -0.0070848 255 140 0
0.0221054 0.0601338 -0.0070848 255 140 0
-0.0823894 0.0624054 -0.0070849 255 140 0
-0.0801177 0.0624054 -0.0070851 255 140 0
-0.0778461 0.0624055 -0.0070853 255 140 0
-0.0755745 0.0624057 -0.0070856 255 140 0
-0.0733029 0.0624057 -0.0070860 255 140 0
-0.0710313 0.0624058 -0.0070866 255 140 0
-0.0687596 0.0624058 -0.0070868 255 140 0
-0.0664880 0.0624059 -0.0070869 255 140 0
-0.0642164 0.0624059 -0.0070870 255 140 0
-0.0619448 0.0624059 -0.0070871 255 140 0
-0.0596731 0.0624059 -0.0070872 255 140 0
-0.0574015 0.0624059 -0.0070873 255 140 0
-0.0551299 0.0624059 -0.0070873 255 140 0
-0.0528583 0.0624059 -0.0070873 255 140 0
-0.0505866 0.0624059 -0.0070873 255 140 0
-0.0483150 0.0624059 -0.0070873 255 140 0
-0.0460434 0.0624059 -0.0070873 255 140 0
-0.0437718 0.0624059 -0.0070874 255 140 0
-0.0415001 0.0624059 -0.0070874 255 140 0
-0.0392285 0.0624059 -0.0070874 255 140 0
-0.0369569 0.0624059 -0.0070874 255 140 0
-0.0346853 0.0624059 -0.0070874 255 140 0
-0.0324136 0.0624059 -0.0070874 255 140 0
-0.0301420 0.0624059 -0.0070874 255 140 0
-0.0278704 0.0624059 -0.0070874 255 140 0
-0.0255987 0.0624059 -0.0070874 255 140 0
-0.0233271 0.0624059 -0.0070874 255 140 0
-0.0210555 0.0624059 -0.0070874 255 140 0
-0.0187839 0.0624059 -0.0070874 255 140 0
-0.0165123 0.0624059 -0.0070874 255 140 0
-0.0142406 0.0624059 -0.0070874 255 140 0
-0.0119690 0.0624060 -0.0070874 255 140 0
-0.0096974 0.0624060 -0.0070873 255 140 0
-0.0074258 0.0624060 -0.0070873 255 140 0
-0.0051541 0.0624060 -0.0070873 255 140 0
-0.0028825 0.0624060 -0.0070873 255 140 0
-0.0006109 0.0624060 -0.0070872 255 140 0
0.0016607 0.0624060 -0.0070872 255 140 0
0.0039324 0.0624060 -0.0070871 255 140 0
0.0062040 0.0624060 -0.0070870 255 140 0
0.0084756 0.0624059 -0.0070869 255 140 0
0.0107472 0.0624059 -0.0070868 255 140 0
0.0130189 0.0624058 -0.0070857 255 140 0
0.0152905 0.0624058 -0.0070853 255 140 0
0.0175621 0.0624057 -0.0070852 255 140 0
0.0198338 0.0624055 -0.0070850 255 140 0
0.0221054 0.0624054 -0.0070849 255 140 0
-0.0846610 0.0647072 -0.0070849 255 140 0
-0.0823894 0.0647062 -0.0070850 255 140 0
-0.0801177 0.0647053 -0.0070853 255 140 0
-0.0778461 0.0647047 -0.0070855 255 140 0
-0.0755745 0.0647045 -0.0070858 255 140 0
-0.0733029 0.0647040 -0.0070866 255 140 0
-0.0710313 0.0647038 -0.0070868 255 140 0
-0.0687596 0.0647034 -0.0070869 255 140 0
-0.0664880 0.0647032 -0.0070871 255 140 0
-0.0642164 0.0647031 -0.0070872 255 140 0
-0.0619448 0.0647027 -0.0070873 255 140 0
-0.0596731 0.0647026 -0.0070873 255 140 0
-0.0574015 0.0647025 -0.0070873 255 140 0
-0.0551299 0.0647025 -0.0070874 255 140 0
-0.0528583 0.0647025 -0.0070874 255 140 0
-0.0505866 0.0647025 -0.0070874 255 140 0
-0.0483150 0.0647024 -0.0070874 255 140 0
-0.0460434 0.0647024 -0.0070874 255 140 0
-0.0437718 0.0647024 -0.0070874 255 140 0
-0.0415001 0.0647024 -0.0070874 255 140 0
-0.0392285 0.0647024 -0.0070874 255 140 0
-0.0369569 0.0647023 -0.0070874 255 140 0
-0.0346853 0.0647023 -0.0070874 255 140 0
-0.0324136 0.0647023 -0.0070874 255 140 0
-0.0301420 0.0647023 -0.0070874 255 140 0
-0.0278704 0.0647023 -0.0070874 255 140 0
-0.0255987 0.0647023 -0.0070874 255 140 0
-0.0233271 0.0647023 -0.0070874 255 140 0
-0.0210555 0.0647023 -0.0070874 255 140 0
-0.0187839 0.0647023 -0.0070874 255 140 0
-0.0165123 0.0647023 -0.0070874 255 140 0
-0.0142406 0.0647023 -0.0070874 255 140 0
-0.0119690 0.0647023 -0.0070874 255 140 0
-0.0096974 0.0647024 -0.0070874 255 140 0
-0.0074258 0.0647024 -0.0070874 255 140 0
-0.0051541 0.0647024 -0.0070874 255 140 0
-0.0028825 0.0647025 -0.0070874 255 140 0
-0.0006109 0.0647025 -0.0070873 255 140 0
0.0016607 0.0647026 -0.0070873 255 140 0
0.0039324 0.0647027 -0.0070872 255 140 0
0.0062040 0.0647030 -0.0070871 255 140 0
0.0084756 0.0647032 -0.0070870 255 140 0
0.0107472 0.0647035 -0.0070869 255 140 0
0.0130189 0.0647043 -0.0070860 255 140 0
0.0152905 0.0647050 -0.0070855 255 140 0
0.0175621 0.0647052 -0.0070853 255 140 0
0.0198338 0.0647056 -0.0070852 255 140 0
0.0221054 0.0647063 -0.0070850 255 140 0
0.0243770 0.0647071 -0.0070849 255 140 0
-0.0846610 0.0669774 -0.0070850 255 140 0
-0.0823894 0.0669767 -0.0070853 255 140 0
-0.0801177 0.0669758 -0.0070857 255 140 0
-0.0778461 0.0669755 -0.0070862 255 140 0
-0.0755745 0.0669753 -0.0070867 255 140 0
-0.0733029 0.0669750 -0.0070870 255 140 0
-0.0710313 0.0669749 -0.0070871 255 140 0
-0.0687596 0.0669746 -0.0070873 255 140 0
-0.0664880 0.0669745 -0.0070874 255 140 0
-0.0642164 0.0669744 -0.0070875 255 140 0
-0.0619448 0.0669743 -0.0070875 255 140 0
-0.0596731 0.0669741 -0.0070876 255 140 0
-0.0574015 0.0669741 -0.0070876 255 140 0
-0.0551299 0.0669741 -0.0070876 255 140 0
-0.0528583 0.0669741 -0.0070876 255 140 0
-0.0505866 0.0669741 -0.0070876 255 140 0
-0.0483150 0.0669740 -0.0070876 255 140 0
-0.0460434 0.0669740 -0.0070876 255 140 0
-0.0437718 0.0669740 -0.0070876 255 140 0
-0.0415001 0.0669740 -0.0070876 255 140 0
-0.0392285 0.0669740 -0.0070876 255 140 0
-0.0369569 0.0669740 -0.0070877 255 140 0
-0.0346853 0.0669740 -0.0070877 255 140 0
-0.0324136 0.0669740 -0.0070877 255 140 0
-0.0301420 0.0669740 -0.0070877 255 140 0
-0.0278704 0.0669740 -0.0070877 255 140 0
-0.0255987 0.0669740 -0.0070877 255 140 0
-0.0233271 0.0669740 -0.0070877 255 140 0
-0.0210555 0.0669740 -0.0070877 255 140 0
-0.0187839 0.0669740 -0.0070877 255 140 0
-0.0165123 0.0669740 -0.0070877 255 140 0
-0.0142406 0.0669740 -0.0070877 255 140 0
-0.0119690 0.0669740 -0.0070877 255 140 0
-0.0096974 0.0669740 -0.0070876 255 140 0
-0.0074258 0.0669741 -0.0070876 255 140 0
-0.0051541 0.0669741 -0.0070876 255 140 0
-0.0028825 0.0669741 -0.0070876 255 140 0
-0.0006109 0.0669741 -0.0070876 255 140 0
0.0016607 0.0669742 -0.0070876 255 140 0
0.0039324 0.0669743 -0.0070875 255 140 0
0.0062040 0.0669744 -0.0070875 255 140 0
0.0084756 0.0669746 -0.0070874 255 140 0
0.0107472 0.0669747 -0.0070872 255 140 0
0.0130189 0.0669753 -0.0070869 255 140 0
0.0152905 0.0669755 -0.0070863 255 140 0
0.0175621 0.0669757 -0.0070859 255 140 0
0.0198338 0.0669759 -0.0070857 255 140 0
0.0221054 0.0669767 -0.0070853 255 140 0
0.0243770 0.0669772 -0.0070851 255 140 0
-0.0869326 0.0692496 -0.0070850 255 140 0
-0.0846610 0.0692483 -0.0070853 255 140 0
-0.0823894 0.0692478 -0.0070856 255 140 0
-0.0801177 0.0692475 -0.0070861 255 140 0
-0.0778461 0.0692469 -0.0070867 255 140 0
-0.0755745 0.0692466 -0.0070871 255 140 0
-0.0733029 0.0692465 -0.0070873 255 140 0
-0.0710313 0.0692464 -0.0070874 255 140 0
-0.0687596 0.0692462 -0.0070875 255 140 0
-0.0664880 0.0692461 -0.0070876 255 140 0
-0.0642164 0.0692460 -0.0070877 255 140 0
-0.0619448 0.0692460 -0.0070878 255 140 0
-0.0596731 0.0692459 -0.0070878 255 140 0
-0.0574015 0.0692459 -0.0070878 255 140 0
-0.0551299 0.0692459 -0.0070878 255 140 0
-0.0528583 0.0692459 -0.0070878 255 140 0
-0.0505866 0.0692459 -0.0070878 255 140 0
-0.0483150 0.0692459 -0.0070878 255 140 0
-0.0460434 0.0692459 -0.0070878 255 140 0
-0.0437718 0.0692459 -0.0070878 255 140 0
-0.0415001 0.0692459 -0.0070878 255 140 0
-0.0392285 0.0692459 -0.0070878 255 140 0
-0.0369569 0.0692459 -0.0070878 255 140 0
-0.0346853 0.0692459 -0.0070878 255 140 0
-0.0324136 0.0692459 -0.0070878 255 140 0
-0.0301420 0.0692459 -0.0070878 255 140 0
-0.0278704 0.0692459 -0.0070878 255 140 0
-0.0255987 0.0692459 -0.0070878 255 140 0
-0.0233271 0.0692459 -0.0070878 255 140 0
-0.0210555 0.0692459 -0.0070878 255 140 0
-0.0187839 0.0692459 -0.0070878 255 140 0
-0.0165123 0.0692459 -0.0070878 255 140 0
-0.0142406 0.0692459 -0.0070878 255 140 0
-0.0119690 0.0692459 -0.0070878 255 140 0
-0.0096974 0.0692459 -0.0070878 255 140 0
-0.0074258 0.0692459 -0.0070878 255 140 0
-0.0051541 0.0692459 -0.0070878 255 140 0
-0.0028825 0.0692459 -0.0070878 255 140 0
-0.0006109 0.0692459 -0.0070878 255 140 0
0.0016607 0.0692460 -0.0070878 255 140 0
0.0039324 0.0692461 -0.0070877 255 140 0
0.0062040 0.0692461 -0.0070877 255 140 0
0.0084756 0.0692462 -0.0070876 255 140 0
0.0107472 0.0692463 -0.0070875 255 140 0
0.0130189 0.0692465 -0.0070873 255 140 0
0.0152905 0.0692468 -0.0070870 255 140 0
0.0175621 0.0692471 -0.0070866 255 140 0
0.0198338 0.0692476 -0.0070860 255 140 0
0.0221054 0.0692478 -0.0070856 255 140 0
0.0243770 0.0692482 -0.0070853 255 140 0
0.0266486 0.0692489 -0.0070851 255 140 0
-0.0869326 0.0715210 -0.0070850 255 140 0
-0.0846610 0.0715201 -0.0070853 255 140 0
-0.0823894 0.0715194 -0.0070857 255 140 0
-0.0801177 0.0715187 -0.0070863 255 140 0
-0.0778461 0.0715185 -0.0070868 255 140 0
-0.0755745 0.0715183 -0.0070871 255 140 0
-0.0733029 0.0715181 -0.0070872 255 140 0
-0.0710313 0.0715180 -0.0070874 255 140 0
-0.0687596 0.0715178 -0.0070875 255 140 0
-0.0664880 0.0715177 -0.0070876 255 140 0
-0.0642164 0.0715176 -0.0070876 255 140 0
-0.0619448 0.0715175 -0.0070877 255 140 0
-0.0596731 0.0715175 -0.0070877 255 140 0
-0.0574015 0.0715174 -0.0070877 255 140 0
-0.0551299 0.0715174 -0.0070877 255 140 0
-0.0528583 0.0715174 -0.0070877 255 140 0
-0.0505866 0.0715174 -0.0070878 255 140 0
-0.0483150 0.0715174 -0.0070878 255 140 0
-0.0460434 0.0715174 -0.0070878 255 140 0
-0.0437718 0.0715174 -0.0070878 255 140 0
-0.0415001 0.0715174 -0.0070878 255 140 0
-0.0392285 0.0715174 -0.0070878 255 140 0
-0.0369569 0.0715174 -0.0070878 255 140 0
-0.0346853 0.0715174 -0.0070878 255 140 0
-0.0324136 0.0715174 -0.0070878 255 140 0
-0.0301420 0.0715174 -0.0070878 255 140 0
-0.0278704 0.0715174 -0.0070878 255 140 0
-0.0255987 0.0715175 -0.0070878 255 140 0
-0.0233271 0.0715174 -0.0070878 255 140 0
-0.0210555 0.0715174 -0.0070878 255 140 0
-0.0187839 0.0715174 -0.0070878 255 140 0
-0.0165123 0.0715174 -0.0070878 255 140 0
-0.0142406 0.0715174 -0.0070878 255 140 0
-0.0119690 0.0715174 -0.0070878 255 140 0
-0.0096974 0.0715174 -0.0070878 255 140 0
-0.0074258 0.0715174 -0.0070878 255 140 0
-0.0051541 0.0715175 -0.0070878 255 140 0
-0.0028825 0.0715175 -0.0070877 255 140 0
-0.0006109 0.0715175 -0.0070877 255 140 0
0.0016607 0.0715175 -0.0070877 255 140 0
0.0039324 0.0715176 -0.0070877 255 140 0
0.0062040 0.0715177 -0.0070876 255 140 0
0.0084756 0.0715178 -0.0070875 255 140 0
0.0107472 0.0715179 -0.0070874 255 140 0
0.0130189 0.0715182 -0.0070872 255 140 0
0.0152905 0.0715185 -0.0070870 255 140 0
0.0175621 0.0715186 -0.0070867 255 140 0
0.0198338 0.0715187 -0.0070861 255 140 0
0.0221054 0.0715194 -0.0070857 255 140 0
0.0243770 0.0715199 -0.0070854 255 140 0
0.0266486 0.0715204 -0.0070851 255 140 0
-0.0869326 0.0737924 -0.0070851 255 140 0
-0.0846610 0.0737913 -0.0070854 255 140 0
-0.0823894 0.0737908 -0.0070857 255 140 0
-0.0801177 0.0737904 -0.0070865 255 140 0
-0.0778461 0.0737902 -0.0070869 255 140 0
-0.0755745 0.0737900 -0.0070871 255 140 0
-0.0733029 0.0737897 -0.0070873 255 140 0
-0.0710313 0.0737894 -0.0070874 255 140 0
-0.0687596 0.0737891 -0.0070875 255 140 0
-0.0664880 0.0737889 -0.0070876 255 140 0
-0.0642164 0.0737888 -0.0070876 255 140 0
-0.0619448 0.0737887 -0.0070877 255 140 0
-0.0596731 0.0737886 -0.0070877 255 140 0
-0.0574015 0.0737886 -0.0070877 255 140 0
-0.0551299 0.0737886 -0.0070877 255 140 0
-0.0528583 0.0737886 -0.0070877 255 140 0
-0.0505866 0.0737886 -0.0070877 255 140 0
-0.0483150 0.0737886 -0.0070878 255 140 0
-0.0460434 0.0737886 -0.0070878 255 140 0
-0.0437718 0.0737886 -0.0070878 255 140 0
-0.0415001 0.0737886 -0.0070878 255 140 0
-0.0392285 0.0737886 -0.0070878 255 140 0
-0.0369569 0.0737886 -0.0070878 255 140 0
-0.0346853 0.0737886 -0.0070878 255 140 0
-0.0324136 0.0737886 -0.0070878 255 140 0
-0.0301420 0.0737886 -0.0070878 255 140 0
-0.0278704 0.0737886 -0.0070878 255 140 0
-0.0255987 0.0737886 -0.0070878 255 140 0
-0.0233271 0.0737886 -0.0070878 255 140 0
-0.0210555 0.0737886 -0.0070878 255 140 0
-0.0187839 0.0737886 -0.0070878 255 140 0
-0.0165123 0.0737886 -0.0070878 255 140 0
-0.0142406 0.0737886 -0.0070878 255 140 0
-0.0119690 0.0737886 -0.0070877 255 140 0
-0.0096974 0.0737886 -0.0070877 255 140 0
-0.0074258 0.0737886 -0.0070877 255 140 0
-0.0051541 0.0737886 -0.0070877 255 140 0
-0.0028825 0.0737886 -0.0070877 255 140 0
-0.0006109 0.0737887 -0.0070877 255 140 0
0.0016607 0.0737887 -0.0070877 255 140 0
0.0039324 0.0737889 -0.0070877 255 140 0
0.0062040 0.0737889 -0.0070876 255 140 0
0.0084756 0.0737890 -0.0070875 255 140 0
0.0107472 0.0737893 -0.0070875 255 140 0
0.0130189 0.0737900 -0.0070872 255 140 0
0.0152905 0.0737901 -0.0070870 255 140 0
0.0175621 0.0737903 -0.0070868 255 140 0
0.0198338 0.0737904 -0.0070863 255 140 0
0.0221054 0.0737908 -0.0070857 255 140 0
0.0243770 0.0737911 -0.0070855 255 140 0
0.0266486 0.0737920 -0.0070852 255 140 0
-0.0869326 0.0760635 -0.0070851 255 140 0
-0.0846610 0.0760630 -0.0070855 255 140 0
-0.0823894 0.0760623 -0.0070860 255 140 0
-0.0801177 0.0760617 -0.0070867 255 140 0
-0.0778461 0.0760614 -0.0070870 255 140 0
-0.0755745 0.0760613 -0.0070872 255 140 0
-0.0733029 0.0760611 -0.0070873 255 140 0
-0.0710313 0.0760610 -0.0070875 255 140 0
-0.0687596 0.0760608 -0.0070876 255 140 0
-0.0664880 0.0760607 -0.0070876 255 140 0
-0.0642164 0.0760606 -0.0070877 255 140 0
-0.0619448 0.0760606 -0.0070877 255 140 0
-0.0596731 0.0760606 -0.0070878 255 140 0
-0.0574015 0.0760606 -0.0070878 255 140 0
-0.0551299 0.0760605 -0.0070878 255 140 0
-0.0528583 0.0760605 -0.0070878 255 140 0
-0.0505866 0.0760605 -0.0070878 255 140 0
-0.0483150 0.0760605 -0.0070878 255 140 0
-0.0460434 0.0760605 -0.0070878 255 140 0
-0.0437718 0.0760605 -0.0070878 255 140 0
-0.0415001 0.0760605 -0.0070878 255 140 0
-0.0392285 0.0760605 -0.0070878 255 140 0
-0.0369569 0.0760605 -0.0070878 255 140 0
-0.0346853 0.0760605 -0.0070878 255 140 0
-0.0324136 0.0760605 -0.0070878 255 140 0
-0.0301420 0.0760605 -0.0070878 255 140 0
-0.0278704 0.0760605 -0.0070878 255 140 0
-0.0255987 0.0760605 -0.0070878 255 140 0
-0.0233271 0.0760605 -0.0070878 255 140 0
-0.0210555 0.0760605 -0.0070878 255 140 0
-0.0187839 0.0760605 -0.0070878 255 140 0
-0.0165123 0.0760605 -0.0070878 255 140 0
-0.0142406 0.0760605 -0.0070878 255 140 0
-0.0119690 0.0760605 -0.0070878 255 140 0
-0.0096974 0.0760605 -0.0070878 255 140 0
-0.0074258 0.0760605 -0.0070878 255 140 0
-0.0051541 0.0760605 -0.0070878 255 140 0
-0.0028825 0.0760605 -0.0070878 255 140 0
-0.0006109 0.0760605 -0.0070878 255 140 0
0.0016607 0.0760605 -0.0070877 255 140 0
0.0039324 0.0760605 -0.0070877 255 140 0
0.0062040 0.0760606 -0.0070877 255 140 0
0.0084756 0.0760607 -0.0070876 255 140 0
0.0107472 0.0760610 -0.0070875 255 140 0
0.0130189 0.0760612 -0.0070873 255 140 0
0.0152905 0.0760613 -0.0070872 255 140 0
0.0175621 0.0760614 -0.0070870 255 140 0
0.0198338 0.0760619 -0.0070866 255 140 0
0.0221054 0.0760624 -0.0070859 255 140 0
0.0243770 0.0760628 -0.0070855 255 140 0
0.0266486 0.0760633 -0.0070853 255 140 0
0.0289202 0.0760640 -0.0070851 255 140 0
-0.0892043 0.0783375 -0.0070848 255 140 0
-0.0869326 0.0783353 -0.0070852 255 140 0
-0.0846610 0.0783342 -0.0070857 255 140 0
-0.0823894 0.0783338 -0.0070863 255 140 0
-0.0801177 0.0783335 -0.0070868 255 140 0
-0.0778461 0.0783333 -0.0070871 255 140 0
-0.0755745 0.0783330 -0.0070873 255 140 0
-0.0733029 0.0783329 -0.0070874 255 140 0
-0.0710313 0.0783328 -0.0070875 255 140 0
-0.0687596 0.0783327 -0.0070876 255 140 0
-0.0664880 0.0783326 -0.0070877 255 140 0
-0.0642164 0.0783326 -0.0070878 255 140 0
-0.0619448 0.0783324 -0.0070878 255 140 0
-0.0596731 0.0783323 -0.0070878 255 140 0
-0.0574015 0.0783323 -0.0070878 255 140 0
-0.0551299 0.0783322 -0.0070878 255 140 0
-0.0528583 0.0783322 -0.0070878 255 140 0
-0.0505866 0.0783322 -0.0070878 255 140 0
-0.0483150 0.0783323 -0.0070878 255 140 0
-0.0460434 0.0783323 -0.0070878 255 140 0
-0.0437718 0.0783323 -0.0070878 255 140 0
-0.0415001 0.0783323 -0.0070878 255 140 0
-0.0392285 0.0783323 -0.0070878 255 140 0
-0.0369569 0.0783323 -0.0070878 255 140 0
-0.0346853 0.0783323 -0.0070879 255 140 0
-0.0324136 0.0783323 -0.0070879 255 140 0
-0.0301420 0.0783323 -0.0070879 255 140 0
-0.0278704 0.0783323 -0.0070879 255 140 0
-0.0255987 0.0783323 -0.0070879 255 140 0
-0.0233271 0.0783323 -0.0070879 255 140 0
-0.0210555 0.0783323 -0.0070879 255 140 0
-0.0187839 0.0783323 -0.0070879 255 140 0
-0.0165123 0.0783323 -0.0070879 255 140 0
-0.0142406 0.0783323 -0.0070879 255 140 0
-0.0119690 0.0783323 -0.0070878 255 140 0
-0.0096974 0.0783323 -0.0070878 255 140 0
-0.0074258 0.0783323 -0.0070878 255 140 0
-0.0051541 0.0783323 -0.0070878 255 140 0
-0.0028825 0.0783323 -0.0070878 255 140 0
-0.0006109 0.0783323 -0.0070878 255 140 0
0.0016607 0.0783326 -0.0070878 255 140 0
0.0039324 0.0783326 -0.0070878 255 140 0
0.0062040 0.0783326 -0.0070877 255 140 0
0.0084756 0.0783327 -0.0070877 255 140 0
0.0107472 0.0783327 -0.0070876 255 140 0
0.0130189 0.0783329 -0.0070874 255 140 0
0.0152905 0.0783332 -0.0070872 255 140 0
0.0175621 0.0783334 -0.0070871 255 140 0
0.0198338 0.0783335 -0.0070868 255 140 0
0.0221054 0.0783337 -0.0070860 255 140 0
0.0243770 0.0783341 -0.0070857 255 140 0
0.0266486 0.0783349 -0.0070854 255 140 0
0.0289202 0.0783355 -0.0070851 255 140 0
-0.0892043 0.0806089 -0.0070849 255 140 0
-0.0869326 0.0806065 -0.0070854 255 140 0
-0.0846610 0.0806059 -0.0070858 255 140 0
-0.0823894 0.0806056 -0.0070865 255 140 0
-0.0801177 0.0806050 -0.0070869 255 140 0
-0.0778461 0.0806046 -0.0070872 255 140 0
-0.0755745 0.0806045 -0.0070873 255 140 0
-0.0733029 0.0806042 -0.0070874 255 140 0
-0.0710313 0.0806041 -0.0070876 255 140 0
-0.0687596 0.0806040 -0.0070876 255 140 0
-0.0664880 0.0806039 -0.0070877 255 140 0
-0.0642164 0.0806039 -0.0070877 255 140 0
-0.0619448 0.0806038 -0.0070878 255 140 0
-0.0596731 0.0806038 -0.0070878 255 140 0
-0.0574015 0.0806038 -0.0070878 255 140 0
-0.0551299 0.0806038 -0.0070878 255 140 0
-0.0528583 0.0806038 -0.0070878 255 140 0
-0.0505866 0.0806038 -0.0070878 255 140 0
-0.0483150 0.0806038 -0.0070878 255 140 0
-0.0460434 0.0806038 -0.0070878 255 140 0
-0.0437718 0.0806038 -0.0070878 255 140 0
-0.0415001 0.0806038 -0.0070878 255 140 0
-0.0392285 0.0806038 -0.0070878 255 140 0
-0.0369569 0.0806038 -0.0070878 255 140 0
-0.0346853 0.0806038 -0.0070878 255 140 0
-0.0324136 0.0806038 -0.0070878 255 140 0
-0.0301420 0.0806038 -0.0070878 255 140 0
-0.0278704 0.0806038 -0.0070878 255 140 0
-0.0255987 0.0806038 -0.0070878 255 140 0
-0.0233271 0.0806038 -0.0070878 255 140 0
-0.0210555 0.0806038 -0.0070878 255 140 0
-0.0187839 0.0806038 -0.0070878 255 140 0
-0.0165123 0.0806038 -0.0070878 255 140 0
-0.0142406 0.0806037 -0.0070878 255 140 0
-0.0119690 0.0806037 -0.0070878 255 140 0
-0.0096974 0.0806037 -0.0070878 255 140 0
-0.0074258 0.0806038 -0.0070878 255 140 0
-0.0051541 0.0806038 -0.0070878 255 140 0
-0.0028825 0.0806038 -0.0070878 255 140 0
-0.0006109 0.0806038 -0.0070878 255 140 0
0.0016607 0.0806038 -0.0070878 255 140 0
0.0039324 0.0806038 -0.0070877 255 140 0
0.0062040 0.0806038 -0.0070877 255 140 0
0.0084756 0.0806039 -0.0070877 255 140 0
0.0107472 0.0806040 -0.0070876 255 140 0
0.0130189 0.0806043 -0.0070874 255 140 0
0.0152905 0.0806045 -0.0070873 255 140 0
0.0175621 0.0806047 -0.0070871 255 140 0
0.0198338 0.0806050 -0.0070869 255 140 0
0.0221054 0.0806056 -0.0070864 255 140 0
0.0243770 0.0806059 -0.0070858 255 140 0
0.0266486 0.0806063 -0.0070854 255 140 0
0.0289202 0.0806071 -0.0070851 255 140 0
-0.0892043 0.0828804 -0.0070849 255 140 0
-0.0869326 0.0828782 -0.0070854 255 140 0
-0.0846610 0.0828773 -0.0070860 255 140 0
-0.0823894 0.0828769 -0.0070866 255 140 0
-0.0801177 0.0828767 -0.0070870 255 140 0
-0.0778461 0.0828764 -0.0070872 255 140 0
-0.0755745 0.0828762 -0.0070874 255 140 0
-0.0733029 0.0828761 -0.0070875 255 140 0
-0.0710313 0.0828760 -0.0070876 255 140 0
-0.0687596 0.0828759 -0.0070877 255 140 0
-0.0664880 0.0828757 -0.0070877 255 140 0
-0.0642164 0.0828756 -0.0070878 255 140 0
-0.0619448 0.0828756 -0.0070878 255 140 0
-0.0596731 0.0828756 -0.0070878 255 140 0
-0.0574015 0.0828756 -0.0070878 255 140 0
-0.0551299 0.0828756 -0.0070878 255 140 0
-0.0528583 0.0828755 -0.0070878 255 140 0
-0.0505866 0.0828755 -0.0070878 255 140 0
-0.0483150 0.0828755 -0.0070878 255 140 0
-0.0460434 0.0828755 -0.0070878 255 140 0
-0.0437718 0.0828756 -0.0070878 255 140 0
-0.0415001 0.0828756 -0.0070878 255 140 0
-0.0392285 0.0828756 -0.0070878 255 140 0
-0.0369569 0.0828756 -0.0070878 255 140 0
-0.0346853 0.0828756 -0.0070878 255 140 0
-0.0324136 0.0828756 -0.0070878 255 140 0
-0.0301420 0.0828756 -0.0070878 255 140 0
-0.0278704 0.0828756 -0.0070878 255 140 0
-0.0255987 0.0828756 -0.0070878 255 140 0
-0.0233271 0.0828756 -0.0070878 255 140 0
-0.0210555 0.0828756 -0.0070878 255 140 0
-0.0187839 0.0828756 -0.0070878 255 140 0
-0.0165123 0.0828756 -0.0070878 255 140 0
-0.0142406 0.0828756 -0.0070878 255 140 0
-0.0119690 0.0828756 -0.0070878 255 140 0
-0.0096974 0.0828756 -0.0070878 255 140 0
-0.0074258 0.0828756 -0.0070878 255 140 0
-0.0051541 0.0828756 -0.0070878 255 140 0
-0.0028825 0.0828756 -0.0070878 255 140 0
-0.0006109 0.0828756 -0.0070878 255 140 0
0.0016607 0.0828756 -0.0070878 255 140 0
0.0039324 0.0828756 -0.0070878 255 140 0
0.0062040 0.0828757 -0.0070878 255 140 0
0.0084756 0.0828758 -0.0070877 255 140 0
0.0107472 0.0828760 -0.0070876 255 140 0
0.0130189 0.0828761 -0.0070875 255 140 0
0.0152905 0.0828762 -0.0070873 255 140 0
0.0175621 0.0828763 -0.0070872 255 140 0
0.0198338 0.0828766 -0.0070870 255 140 0
0.0221054 0.0828769 -0.0070865 255 140 0
0.0243770 0.0828774 -0.0070859 255 140 0
0.0266486 0.0828781 -0.0070855 255 140 0
0.0289202 0.0828788 -0.0070852 255 140 0
0.0311919 0.0828802 -0.0070850 255 140 0
-0.0892043 0.0851519 -0.0070849 255 140 0
-0.0869326 0.0851496 -0.0070855 255 140 0
-0.0846610 0.0851489 -0.0070862 255 140 0
-0.0823894 0.0851486 -0.0070867 255 140 0
-0.0801177 0.0851485 -0.0070871 255 140 0
-0.0778461 0.0851483 -0.0070872 255 140 0
-0.0755745 0.0851481 -0.0070874 255 140 0
-0.0733029 0.0851479 -0.0070875 255 140 0
-0.0710313 0.0851478 -0.0070876 255 140 0
-0.0687596 0.0851477 -0.0070877 255 140 0
-0.0664880 0.0851477 -0.0070878 255 140 0
-0.0642164 0.0851476 -0.0070878 255 140 0
-0.0619448 0.0851476 -0.0070879 255 140 0
-0.0596731 0.0851476 -0.0070879 255 140 0
-0.0574015 0.0851476 -0.0070879 255 140 0
-0.0551299 0.0851476 -0.0070879 255 140 0
-0.0528583 0.0851476 -0.0070879 255 140 0
-0.0505866 0.0851476 -0.0070879 255 140 0
-0.0483150 0.0851476 -0.0070879 255 140 0
-0.0460434 0.0851476 -0.0070879 255 140 0
-0.0437718 0.0851476 -0.0070879 255 140 0
-0.0415001 0.0851476 -0.0070879 255 140 0
-0.0392285 0.0851476 -0.0070879 255 140 0
-0.0369569 0.0851476 -0.0070879 255 140 0
-0.0346853 0.0851476 -0.0070879 255 140 0
-0.0324136 0.0851476 -0.0070879 255 140 0
-0.0301420 0.0851476 -0.0070879 255 140 0
-0.0278704 0.0851476 -0.0070879 255 140 0
-0.0255987 0.0851476 -0.0070879 255 140 0
-0.0233271 0.0851476 -0.0070879 255 140 0
-0.0210555 0.0851476 -0.0070879 255 140 0
-0.0187839 0.0851476 -0.0070879 255 140 0
-0.0165123 0.0851475 -0.0070879 255 140 0
-0.0142406 0.0851475 -0.0070879 255 140 0
-0.0119690 0.0851475 -0.0070879 255 140 0
-0.0096974 0.0851475 -0.0070879 255 140 0
-0.0074258 0.0851475 -0.0070879 255 140 0
-0.0051541 0.0851475 -0.0070879 255 140 0
-0.0028825 0.0851475 -0.0070879 255 140 0
-0.0006109 0.0851475 -0.0070879 255 140 0
0.0016607 0.0851475 -0.0070879 255 140 0
0.0039324 0.0851475 -0.0070878 255 140 0
0.0062040 0.0851475 -0.0070878 255 140 0
0.0084756 0.0851476 -0.0070877 255 140 0
0.0107472 0.0851476 -0.0070877 255 140 0
0.0130189 0.0851477 -0.0070875 255 140 0
0.0152905 0.0851480 -0.0070873 255 140 0
0.0175621 0.0851482 -0.0070872 255 140 0
0.0198338 0.0851483 -0.0070870 255 140 0
0.0221054 0.0851484 -0.0070867 255 140 0
0.0243770 0.0851489 -0.0070859 255 140 0
0.0266486 0.0851494 -0.0070855 255 140 0
0.0289202 0.0851503 -0.0070852 255 140 0
0.0311919 0.0851517 -0.0070850 255 140 0
-0.0914759 0.0874243 -0.0070847 255 140 0
-0.0892043 0.0874231 -0.0070850 255 140 0
-0.0869326 0.0874212 -0.0070855 255 140 0
-0.0846610 0.0874207 -0.0070863 255 140 0
-0.0823894 0.0874205 -0.0070868 255 140 0
-0.0801177 0.0874202 -0.0070871 255 140 0
-0.0778461 0.0874198 -0.0070873 255 140 0
-0.0755745 0.0874195 -0.0070875 255 140 0
-0.0733029 0.0874194 -0.0070876 255 140 0
-0.0710313 0.0874192 -0.0070877 255 140 0
-0.0687596 0.0874191 -0.0070877 255 140 0
-0.0664880 0.0874189 -0.0070878 255 140 0
-0.0642164 0.0874189 -0.0070878 255 140 0
-0.0619448 0.0874188 -0.0070878 255 140 0
-0.0596731 0.0874188 -0.0070879 255 140 0
-0.0574015 0.0874187 -0.0070879 255 140 0
-0.0551299 0.0874187 -0.0070879 255 140 0
-0.0528583 0.0874187 -0.0070879 255 140 0
-0.0505866 0.0874187 -0.0070879 255 140 0
-0.0483150 0.0874187 -0.0070879 255 140 0
-0.0460434 0.0874187 -0.0070879 255 140 0
-0.0437718 0.0874186 -0.0070879 255 140 0
-0.0415001 0.0874186 -0.0070879 255 140 0
-0.0392285 0.0874186 -0.0070879 255 140 0
-0.0369569 0.0874186 -0.0070879 255 140 0
-0.0346853 0.0874186 -0.0070879 255 140 0
-0.0324136 0.0874186 -0.0070879 255 140 0
-0.0301420 0.0874186 -0.0070879 255 140 0
-0.0278704 0.0874186 -0.0070879 255 140 0
