ply
format ascii 1.0
element vertex 1143
property float x
property float y
property float z
property uchar red
property uchar green
property uchar blue
end_header
-0.0596944 0.1030627 -0.0087978 255 134 0
-0.0574199 0.1030812 -0.0087908 255 134 0
-0.0551476 0.1030892 -0.0087917 255 134 0
-0.0528754 0.1030816 -0.0087989 255 133 0
-0.0506035 0.1030797 -0.0087995 255 133 0
-0.0483317 0.1030764 -0.0087995 255 133 0
-0.0460598 0.1030737 -0.0087979 255 133 0
-0.0437876 0.1030708 -0.0087968 255 133 0
-0.0415157 0.1030656 -0.0087977 255 133 0
-0.0392437 0.1030636 -0.0087956 255 133 0
-0.0369732 0.1030465 -0.0088030 255 133 0
-0.0347024 0.1030339 -0.0088081 255 132 0
-0.0324281 0.1030285 -0.0088106 255 132 0
-0.0301554 0.1030282 -0.0088080 255 132 0
-0.0278819 0.1030301 -0.0088031 255 133 0
-0.0256093 0.1030261 -0.0088040 255 133 0
-0.0233382 0.1030238 -0.0088035 255 133 0
-0.0210644 0.1030210 -0.0088035 255 133 0
-0.0187900 0.1030235 -0.0087996 255 133 0
-0.0165182 0.1030213 -0.0087989 255 133 0
-0.0142470 0.1030160 -0.0088013 255 133 0
-0.0119746 0.1030113 -0.0088024 255 133 0
-0.0097018 0.1030146 -0.0087987 255 133 0
-0.0074289 0.1030264 -0.0087908 255 134 0
-0.0051563 0.1030362 -0.0087849 255 134 0
-0.0028841 0.1030424 -0.0087814 255 135 0
-0.0006116 0.1030480 -0.0087790 255 135 0
0.0016611 0.1030540 -0.0087772 255 135 0
0.0039344 0.1030635 -0.0087735 255 136 0
0.0062076 0.1030656 -0.0087739 255 136 0
0.0084803 0.1030468 -0.0087837 255 135 0
0.0107521 0.1030191 -0.0087990 255 133 0
0.0130238 0.1029775 -0.0088209 255 131 0
0.0152957 0.1029499 -0.0088343 255 129 0
0.0175673 0.1029309 -0.0088447 255 128 0
0.0198402 0.1029163 -0.0088569 255 127 0
0.0221141 0.1029028 -0.0088737 255 125 0
0.0243867 0.1028923 -0.0088848 255 124 0
0.0266570 0.1028790 -0.0088988 255 123 0
0.0289300 0.1028710 -0.0089074 255 122 1
-0.0892438 0.1054046 -0.0088245 255 133 0
-0.0869700 0.1053517 -0.0088385 255 132 0
-0.0846972 0.1053136 -0.0088437 255 131 0
-0.0824208 0.1053030 -0.0088379 255 131 0
-0.0801483 0.1052920 -0.0088340 255 131 0
-0.0778755 0.1052813 -0.0088343 255 131 0
-0.0756010 0.1052748 -0.0088336 255 131 0
-0.0733254 0.1052722 -0.0088314 255 131 0
-0.0710525 0.1052782 -0.0088267 255 131 0
-0.0687811 0.1052874 -0.0088209 255 132 0
-0.0665096 0.1052929 -0.0088161 255 132 0
-0.0642379 0.1052965 -0.0088113 255 132 0
-0.0619658 0.1053040 -0.0088033 255 133 0
-0.0596942 0.1053098 -0.0087977 255 133 0
-0.0574200 0.1053171 -0.0087952 255 133 0
-0.0551474 0.1053199 -0.0087981 255 133 0
-0.0528753 0.1053165 -0.0088010 255 133 0
-0.0506034 0.1053142 -0.0088018 255 133 0
-0.0483317 0.1053138 -0.0088012 255 133 0
-0.0460597 0.1053127 -0.0088008 255 133 0
-0.0437874 0.1053096 -0.0088015 255 133 0
-0.0415153 0.1053030 -0.0088044 255 132 0
-0.0392434 0.1052956 -0.0088078 255 132 0
-0.0369724 0.1052836 -0.0088125 255 132 0
-0.0347020 0.1052758 -0.0088156 255 131 0
-0.0324280 0.1052769 -0.0088153 255 131 0
-0.0301550 0.1052743 -0.0088161 255 131 0
-0.0278815 0.1052687 -0.0088163 255 131 0
-0.0256089 0.1052630 -0.0088139 255 132 0
-0.0233378 0.1052585 -0.0088111 255 132 0
-0.0210640 0.1052552 -0.0088082 255 132 0
-0.0187896 0.1052538 -0.0088051 255 132 0
-0.0165178 0.1052532 -0.0088014 255 133 0
-0.0142466 0.1052533 -0.0087970 255 133 0
-0.0119739 0.1052463 -0.0087967 255 133 0
-0.0097011 0.1052450 -0.0087951 255 133 0
-0.0074283 0.1052538 -0.0087901 255 134 0
-0.0051558 0.1052616 -0.0087861 255 134 0
-0.0028836 0.1052664 -0.0087837 255 135 0
-0.0006112 0.1052752 -0.0087800 255 135 0
0.0016616 0.1052878 -0.0087752 255 135 0
0.0039347 0.1053037 -0.0087734 255 136 0
0.0062079 0.1053132 -0.0087754 255 135 0
0.0084808 0.1053045 -0.0087817 255 135 0
0.0107528 0.1052889 -0.0087898 255 134 0
0.0130248 0.1052475 -0.0088026 255 133 0
0.0152968 0.1052175 -0.0088136 255 132 0
0.0175682 0.1052007 -0.0088204 255 131 0
0.0198412 0.1051901 -0.0088278 255 130 0
0.0221153 0.1051868 -0.0088362 255 129 0
0.0243884 0.1051797 -0.0088452 255 128 0
0.0266583 0.1051675 -0.0088550 255 127 0
0.0289315 0.1051535 -0.0088622 255 127 0
-0.0869698 0.1076112 -0.0088402 255 129 0
-0.0846975 0.1075908 -0.0088254 255 130 0
-0.0824210 0.1075800 -0.0088174 255 131 0
-0.0801483 0.1075694 -0.0088096 255 132 0
-0.0778755 0.1075589 -0.0088016 255 133 0
-0.0756010 0.1075533 -0.0087963 255 133 0
-0.0733249 0.1075463 -0.0087986 255 133 0
-0.0710521 0.1075523 -0.0088018 255 133 0
-0.0687807 0.1075657 -0.0088040 255 133 0
-0.0665093 0.1075766 -0.0088037 255 133 0
-0.0642375 0.1075851 -0.0088007 255 133 0
-0.0619651 0.1075918 -0.0087943 255 134 0
-0.0596938 0.1075960 -0.0087878 255 134 0
-0.0574197 0.1075949 -0.0087856 255 134 0
-0.0551475 0.1075930 -0.0087861 255 134 0
-0.0528752 0.1075923 -0.0087809 255 135 0
-0.0506034 0.1075915 -0.0087755 255 135 0
-0.0483316 0.1075860 -0.0087752 255 135 0
-0.0460595 0.1075838 -0.0087753 255 135 0
-0.0437873 0.1075767 -0.0087770 255 135 0
-0.0415154 0.1075658 -0.0087780 255 135 0
-0.0392434 0.1075517 -0.0087807 255 135 0
-0.0369722 0.1075396 -0.0087809 255 135 0
-0.0347017 0.1075301 -0.0087803 255 135 0
-0.0324279 0.1075282 -0.0087770 255 135 0
-0.0301550 0.1075207 -0.0087762 255 135 0
-0.0278815 0.1075093 -0.0087779 255 135 0
-0.0256087 0.1075038 -0.0087757 255 135 0
-0.0233376 0.1074990 -0.0087731 255 136 0
-0.0210639 0.1074934 -0.0087717 255 136 0
-0.0187896 0.1074882 -0.0087723 255 136 0
-0.0165177 0.1074883 -0.0087686 255 136 0
-0.0142464 0.1074894 -0.0087652 255 136 0
-0.0119734 0.1074815 -0.0087659 255 136 0
-0.0097007 0.1074809 -0.0087645 255 137 0
-0.0074279 0.1074865 -0.0087623 255 137 0
-0.0051557 0.1074916 -0.0087610 255 137 0
-0.0028835 0.1074964 -0.0087585 255 137 0
-0.0006109 0.1075090 -0.0087548 255 138 0
0.0016620 0.1075312 -0.0087478 255 138 0
0.0039348 0.1075514 -0.0087472 255 138 0
0.0062081 0.1075682 -0.0087495 255 138 0
0.0084812 0.1075659 -0.0087552 255 137 0
0.0107533 0.1075594 -0.0087604 255 137 0
0.0130257 0.1075127 -0.0087742 255 136 0
0.0152976 0.1074805 -0.0087853 255 134 0
0.0175686 0.1074616 -0.0087941 255 133 0
0.0198419 0.1074545 -0.0088007 255 133 0
0.0221157 0.1074597 -0.0088070 255 132 0
0.0243866 0.1074611 -0.0088124 255 132 0
0.0266580 0.1074560 -0.0088189 255 131 0
0.0289296 0.1074480 -0.0088184 255 131 0
-0.0869690 0.1099028 -0.0088303 255 130 0
-0.0846961 0.1098620 -0.0088411 255 129 0
-0.0824205 0.1098432 -0.0088403 255 129 0
-0.0801478 0.1098291 -0.0088400 255 129 0
-0.0778751 0.1098176 -0.0088398 255 129 0
-0.0756004 0.1098115 -0.0088382 255 129 0
-0.0733251 0.1098107 -0.0088346 255 129 0
-0.0710523 0.1098198 -0.0088290 255 130 0
-0.0687809 0.1098329 -0.0088221 255 131 0
-0.0665094 0.1098400 -0.0088149 255 131 0
-0.0642376 0.1098441 -0.0088076 255 132 0
-0.0619653 0.1098388 -0.0088053 255 132 0
-0.0596937 0.1098342 -0.0088021 255 133 0
-0.0574197 0.1098314 -0.0087987 255 133 0
-0.0551473 0.1098312 -0.0088000 255 133 0
-0.0528751 0.1098311 -0.0087995 255 133 0
-0.0506032 0.1098304 -0.0087990 255 133 0
-0.0483314 0.1098280 -0.0087993 255 133 0
-0.0460595 0.1098231 -0.0088020 255 133 0
-0.0437873 0.1098161 -0.0088060 255 132 0
-0.0415153 0.1098086 -0.0088093 255 132 0
-0.0392434 0.1098010 -0.0088125 255 132 0
-0.0369718 0.1097966 -0.0088127 255 132 0
-0.0347013 0.1097920 -0.0088139 255 131 0
-0.0324277 0.1097853 -0.0088177 255 131 0
-0.0301549 0.1097800 -0.0088201 255 131 0
-0.0278815 0.1097754 -0.0088198 255 131 0
-0.0256088 0.1097736 -0.0088152 255 131 0
-0.0233377 0.1097737 -0.0088098 255 132 0
-0.0210642 0.1097684 -0.0088083 255 132 0
-0.0187898 0.1097624 -0.0088082 255 132 0
-0.0165179 0.1097595 -0.0088061 255 132 0
-0.0142466 0.1097577 -0.0088031 255 133 0
-0.0119732 0.1097590 -0.0087977 255 133 0
-0.0097002 0.1097615 -0.0087939 255 134 0
-0.0074278 0.1097644 -0.0087923 255 134 0
-0.0051558 0.1097691 -0.0087902 255 134 0
-0.0028837 0.1097750 -0.0087877 255 134 0
-0.0006112 0.1097874 -0.0087840 255 135 0
0.0016614 0.1098043 -0.0087794 255 135 0
0.0039342 0.1098175 -0.0087769 255 135 0
0.0062074 0.1098225 -0.0087779 255 135 0
0.0084794 0.1098107 -0.0087842 255 134 0
0.0107516 0.1097923 -0.0087933 255 134 0
0.0130254 0.1097638 -0.0088010 255 133 0
0.0152975 0.1097405 -0.0088097 255 132 0
0.0175683 0.1097203 -0.0088198 255 131 0
0.0198416 0.1097075 -0.0088288 255 130 0
0.0221149 0.1097037 -0.0088373 255 129 0
0.0243850 0.1097029 -0.0088442 255 128 0
0.0266568 0.1097042 -0.0088493 255 128 0
-0.0869679 0.1121719 -0.0088228 255 140 0
-0.0846955 0.1121203 -0.0088447 255 140 0
-0.0824198 0.1120986 -0.0088497 255 140 0
-0.0801474 0.1120808 -0.0088517 255 140 0
-0.0778746 0.1120698 -0.0088530 255 140 0
-0.0756005 0.1120660 -0.0088513 255 140 0
-0.0733246 0.1120697 -0.0088464 255 140 0
-0.0710516 0.1120802 -0.0088401 255 140 0
-0.0687803 0.1120915 -0.0088336 255 140 0
-0.0665087 0.1120942 -0.0088279 255 140 0
-0.0642369 0.1120935 -0.0088218 255 140 0
-0.0619653 0.1120839 -0.0088217 255 140 0
-0.0596934 0.1120751 -0.0088216 255 140 0
-0.0574197 0.1120747 -0.0088175 255 140 0
-0.0551473 0.1120737 -0.0088191 255 140 0
-0.0528751 0.1120710 -0.0088217 255 140 0
-0.0506033 0.1120688 -0.0088234 255 140 0
-0.0483315 0.1120666 -0.0088245 255 140 0
-0.0460595 0.1120609 -0.0088280 255 140 0
-0.0437874 0.1120506 -0.0088343 255 140 0
-0.0415155 0.1120440 -0.0088371 255 140 0
-0.0392436 0.1120398 -0.0088386 255 140 0
-0.0369717 0.1120325 -0.0088378 255 140 0
-0.0347009 0.1120265 -0.0088366 255 140 0
-0.0324277 0.1120163 -0.0088393 255 140 0
-0.0301549 0.1120090 -0.0088398 255 140 0
-0.0278815 0.1120085 -0.0088358 255 140 0
-0.0256088 0.1120081 -0.0088319 255 140 0
-0.0233377 0.1120084 -0.0088281 255 140 0
-0.0210643 0.1120052 -0.0088259 255 140 0
-0.0187900 0.1119983 -0.0088261 255 140 0
-0.0165182 0.1119922 -0.0088260 255 140 0
-0.0142469 0.1119850 -0.0088260 255 140 0
-0.0119733 0.1119878 -0.0088208 255 140 0
-0.0096988 0.1119942 -0.0088159 255 140 0
-0.0074279 0.1119987 -0.0088134 255 140 0
-0.0051560 0.1120055 -0.0088104 255 140 0
-0.0028842 0.1120113 -0.0088085 255 140 0
-0.0006118 0.1120239 -0.0088053 255 140 0
0.0016607 0.1120353 -0.0088047 255 140 0
0.0039338 0.1120466 -0.0088008 255 140 0
0.0062065 0.1120495 -0.0087996 255 140 0
0.0084788 0.1120366 -0.0088052 255 140 0
0.0107508 0.1120095 -0.0088180 255 140 0
0.0130253 0.1119905 -0.0088247 255 140 0
0.0152980 0.1119730 -0.0088323 255 140 0
0.0175681 0.1119569 -0.0088414 255 140 0
0.0198412 0.1119470 -0.0088493 255 140 0
0.0221145 0.1119361 -0.0088612 255 140 0
0.0243841 0.1119400 -0.0088668 255 140 0
0.0266559 0.1119484 -0.0088730 255 140 0
-0.0869687 0.1144660 -0.0088039 255 140 0
-0.0846947 0.1144495 -0.0088284 255 140 0
-0.0824198 0.1144205 -0.0088362 255 140 0
-0.0801473 0.1143996 -0.0088393 255 140 0
-0.0778743 0.1143884 -0.0088398 255 140 0
-0.0755996 0.1143844 -0.0088374 255 140 0
-0.0733242 0.1143865 -0.0088317 255 140 0
-0.0710517 0.1143933 -0.0088245 255 140 0
-0.0687805 0.1143999 -0.0088176 255 140 0
-0.0665090 0.1143976 -0.0088130 255 140 0
-0.0642371 0.1143916 -0.0088085 255 140 0
-0.0619644 0.1143862 -0.0088044 255 140 0
-0.0596926 0.1143818 -0.0088004 255 140 0
-0.0574189 0.1143812 -0.0087953 255 140 0
-0.0551464 0.1143779 -0.0087973 255 140 0
-0.0528744 0.1143713 -0.0088018 255 140 0
-0.0506025 0.1143675 -0.0088038 255 140 0
-0.0483307 0.1143663 -0.0088038 255 140 0
-0.0460586 0.1143634 -0.0088053 255 140 0
-0.0437866 0.1143600 -0.0088071 255 140 0
-0.0415146 0.1143562 -0.0088080 255 140 0
-0.0392428 0.1143535 -0.0088088 255 140 0
-0.0369715 0.1143425 -0.0088145 255 140 0
-0.0347005 0.1143347 -0.0088183 255 140 0
-0.0324272 0.1143309 -0.0088211 255 140 0
-0.0301544 0.1143291 -0.0088220 255 140 0
-0.0278810 0.1143292 -0.0088173 255 140 0
-0.0256082 0.1143277 -0.0088143 255 140 0
-0.0233373 0.1143249 -0.0088126 255 140 0
-0.0210639 0.1143222 -0.0088098 255 140 0
-0.0187894 0.1143208 -0.0088070 255 140 0
-0.0165177 0.1143168 -0.0088059 255 140 0
-0.0142463 0.1143130 -0.0088039 255 140 0
-0.0119727 0.1143111 -0.0088014 255 140 0
-0.0096997 0.1143135 -0.0087980 255 140 0
-0.0074273 0.1143238 -0.0087912 255 140 0
-0.0051554 0.1143321 -0.0087863 255 140 0
-0.0028833 0.1143388 -0.0087835 255 140 0
-0.0006110 0.1143476 -0.0087808 255 140 0
0.0016616 0.1143589 -0.0087781 255 140 0
0.0039344 0.1143667 -0.0087748 255 140 0
0.0062077 0.1143659 -0.0087744 255 140 0
0.0084809 0.1143478 -0.0087812 255 140 0
0.0107528 0.1143250 -0.0087911 255 140 0
0.0130259 0.1142995 -0.0088018 255 140 0
0.0152981 0.1142799 -0.0088111 255 140 0
0.0175685 0.1142661 -0.0088176 255 140 0
0.0198415 0.1142567 -0.0088246 255 140 0
0.0221124 0.1142484 -0.0088342 255 140 0
0.0243832 0.1142551 -0.0088362 255 140 0
0.0266515 0.1142847 -0.0088304 255 140 0
-0.0846952 0.1166225 -0.0088123 255 140 0
-0.0824224 0.1166030 -0.0088275 255 140 0
-0.0801475 0.1165877 -0.0088358 255 140 0
-0.0778743 0.1165772 -0.0088380 255 140 0
-0.0756001 0.1165706 -0.0088372 255 140 0
-0.0733243 0.1165685 -0.0088328 255 140 0
-0.0710514 0.1165710 -0.0088260 255 140 0
-0.0687799 0.1165744 -0.0088180 255 140 0
-0.0665084 0.1165685 -0.0088137 255 140 0
-0.0642365 0.1165597 -0.0088103 255 140 0
-0.0619645 0.1165599 -0.0088037 255 140 0
-0.0596924 0.1165598 -0.0087988 255 140 0
-0.0574188 0.1165596 -0.0087966 255 140 0
-0.0551464 0.1165592 -0.0088003 255 140 0
-0.0528741 0.1165527 -0.0088065 255 140 0
-0.0506022 0.1165507 -0.0088098 255 140 0
-0.0483304 0.1165523 -0.0088107 255 140 0
-0.0460584 0.1165545 -0.0088117 255 140 0
-0.0437861 0.1165558 -0.0088133 255 140 0
-0.0415142 0.1165540 -0.0088163 255 140 0
-0.0392422 0.1165523 -0.0088193 255 140 0
-0.0369707 0.1165441 -0.0088258 255 140 0
-0.0346995 0.1165381 -0.0088295 255 140 0
-0.0324264 0.1165399 -0.0088263 255 140 0
-0.0301535 0.1165420 -0.0088232 255 140 0
-0.0278800 0.1165438 -0.0088207 255 140 0
-0.0256073 0.1165445 -0.0088185 255 140 0
-0.0233362 0.1165428 -0.0088181 255 140 0
-0.0210629 0.1165427 -0.0088156 255 140 0
-0.0187886 0.1165459 -0.0088113 255 140 0
-0.0165167 0.1165465 -0.0088087 255 140 0
-0.0142452 0.1165472 -0.0088062 255 140 0
-0.0119716 0.1165456 -0.0088055 255 140 0
-0.0096987 0.1165487 -0.0088033 255 140 0
-0.0074263 0.1165629 -0.0087955 255 140 0
-0.0051543 0.1165781 -0.0087879 255 140 0
-0.0028822 0.1165864 -0.0087843 255 140 0
-0.0006097 0.1166004 -0.0087795 255 140 0
0.0016628 0.1166142 -0.0087755 255 140 0
0.0039363 0.1166226 -0.0087728 255 140 0
0.0062087 0.1166240 -0.0087724 255 140 0
0.0084819 0.1166097 -0.0087783 255 140 0
0.0107539 0.1165894 -0.0087872 255 140 0
0.0130253 0.1165626 -0.0087999 255 140 0
0.0152988 0.1165423 -0.0088106 255 140 0
0.0175694 0.1165295 -0.0088195 255 140 0
0.0198426 0.1165217 -0.0088240 255 140 0
0.0221128 0.1165063 -0.0088324 255 140 0
0.0243854 0.1164892 -0.0088284 255 140 0
-0.0846947 0.1188732 -0.0087989 255 140 0
-0.0824216 0.1188487 -0.0088217 255 140 0
-0.0801468 0.1188290 -0.0088353 255 140 0
-0.0778740 0.1188158 -0.0088387 255 140 0
-0.0755990 0.1188036 -0.0088398 255 140 0
-0.0733235 0.1187926 -0.0088377 255 140 0
-0.0710509 0.1187893 -0.0088316 255 140 0
-0.0687795 0.1187896 -0.0088236 255 140 0
-0.0665079 0.1187856 -0.0088164 255 140 0
-0.0642362 0.1187801 -0.0088101 255 140 0
-0.0619640 0.1187821 -0.0088027 255 140 0
-0.0596916 0.1187822 -0.0087978 255 140 0
-0.0574181 0.1187800 -0.0087976 255 140 0
-0.0551456 0.1187799 -0.0088010 255 140 0
-0.0528735 0.1187809 -0.0088027 255 140 0
-0.0506014 0.1187829 -0.0088033 255 140 0
-0.0483295 0.1187855 -0.0088030 255 140 0
-0.0460574 0.1187880 -0.0088029 255 140 0
-0.0437852 0.1187902 -0.0088042 255 140 0
-0.0415132 0.1187882 -0.0088084 255 140 0
-0.0392412 0.1187858 -0.0088129 255 140 0
-0.0369699 0.1187855 -0.0088158 255 140 0
-0.0346985 0.1187872 -0.0088178 255 140 0
-0.0324255 0.1187925 -0.0088175 255 140 0
-0.0301526 0.1187962 -0.0088177 255 140 0
-0.0278791 0.1187970 -0.0088176 255 140 0
-0.0256063 0.1188009 -0.0088150 255 140 0
-0.0233351 0.1188059 -0.0088109 255 140 0
-0.0210619 0.1188069 -0.0088088 255 140 0
-0.0187876 0.1188078 -0.0088066 255 140 0
-0.0165157 0.1188127 -0.0088017 255 140 0
-0.0142441 0.1188199 -0.0087951 255 140 0
-0.0119704 0.1188220 -0.0087933 255 140 0
-0.0096977 0.1188292 -0.0087899 255 140 0
-0.0074252 0.1188455 -0.0087754 255 140 0
-0.0051532 0.1188698 -0.0087489 255 140 0
-0.0028808 0.1188966 -0.0087295 255 140 0
-0.0006083 0.1189279 -0.0087141 255 140 0
0.0016646 0.1189381 -0.0087417 255 140 0
0.0039372 0.1189397 -0.0087571 255 140 0
0.0062103 0.1189402 -0.0087612 255 140 0
0.0084835 0.1189383 -0.0087504 255 140 0
0.0107555 0.1189355 -0.0087321 255 140 0
0.0130267 0.1188957 -0.0087430 255 140 0
0.0152999 0.1188543 -0.0087780 255 140 0
0.0175703 0.1188325 -0.0088116 255 140 0
0.0198438 0.1188184 -0.0088223 255 140 0
0.0221149 0.1188090 -0.0088267 255 140 0
0.0243884 0.1187541 -0.0088210 255 140 0
-0.0824193 0.1211784 -0.0088048 255 140 0
-0.0801458 0.1211448 -0.0088213 255 140 0
-0.0778714 0.1211329 -0.0088259 255 140 0
-0.0755972 0.1211246 -0.0088266 255 140 0
-0.0733216 0.1211213 -0.0088238 255 140 0
-0.0710489 0.1211231 -0.0088176 255 140 0
-0.0687773 0.1211297 -0.0088091 255 140 0
-0.0665057 0.1211389 -0.0088000 255 140 0
-0.0642339 0.1211469 -0.0087912 255 140 0
-0.0619619 0.1211482 -0.0087863 255 140 0
-0.0596895 0.1211497 -0.0087823 255 140 0
-0.0574163 0.1211484 -0.0087813 255 140 0
-0.0551438 0.1211503 -0.0087833 255 140 0
-0.0528717 0.1211553 -0.0087832 255 140 0
-0.0505997 0.1211601 -0.0087831 255 140 0
-0.0483279 0.1211643 -0.0087832 255 140 0
-0.0460559 0.1211658 -0.0087852 255 140 0
-0.0437837 0.1211655 -0.0087885 255 140 0
-0.0415117 0.1211628 -0.0087924 255 140 0
-0.0392396 0.1211596 -0.0087964 255 140 0
-0.0369686 0.1211620 -0.0087962 255 140 0
-0.0346969 0.1211638 -0.0087970 255 140 0
-0.0324242 0.1211632 -0.0087995 255 140 0
-0.0301513 0.1211635 -0.0088002 255 140 0
-0.0278779 0.1211632 -0.0087980 255 140 0
-0.0256052 0.1211672 -0.0087930 255 140 0
-0.0233347 0.1211744 -0.0087870 255 140 0
-0.0210613 0.1211735 -0.0087850 255 140 0
-0.0187859 0.1211704 -0.0087844 255 140 0
-0.0165144 0.1211734 -0.0087807 255 140 0
-0.0142433 0.1211788 -0.0087754 255 140 0
-0.0119697 0.1211848 -0.0087702 255 140 0
-0.0096968 0.1211920 -0.0087655 255 140 0
-0.0074252 0.1211995 -0.0087620 255 140 0
-0.0051526 0.1212096 -0.0087579 255 140 0
-0.0028809 0.1212213 -0.0087534 255 140 0
-0.0006084 0.1212377 -0.0087478 255 140 0
0.0016643 0.1212563 -0.0087421 255 140 0
0.0039371 0.1212683 -0.0087402 255 140 0
0.0062102 0.1212720 -0.0087421 255 140 0
0.0084834 0.1212627 -0.0087476 255 140 0
0.0107554 0.1212480 -0.0087559 255 140 0
0.0130270 0.1212262 -0.0087660 255 140 0
0.0153005 0.1212064 -0.0087767 255 140 0
0.0175709 0.1211895 -0.0087908 255 140 0
0.0198440 0.1211763 -0.0087990 255 140 0
0.0221148 0.1211615 -0.0088025 255 140 0
-0.0801442 0.1234393 -0.0087989 255 140 0
-0.0778698 0.1234195 -0.0088184 255 140 0
-0.0755956 0.1234104 -0.0088280 255 140 0
-0.0733203 0.1234116 -0.0088266 255 140 0
-0.0710474 0.1234181 -0.0088234 255 140 0
-0.0687759 0.1234318 -0.0088207 255 140 0
-0.0665044 0.1234613 -0.0088096 255 140 0
-0.0642325 0.1235098 -0.0087979 255 140 0
-0.0619605 0.1235326 -0.0087941 255 140 0
-0.0596881 0.1235354 -0.0087914 255 140 0
-0.0574154 0.1235364 -0.0087869 255 140 0
-0.0551430 0.1235394 -0.0087869 255 140 0
-0.0528705 0.1235432 -0.0087844 255 140 0
-0.0505988 0.1235477 -0.0087805 255 140 0
-0.0483273 0.1235508 -0.0087774 255 140 0
-0.0460554 0.1235485 -0.0087764 255 140 0
-0.0437833 0.1235420 -0.0087801 255 140 0
-0.0415113 0.1235413 -0.0087797 255 140 0
-0.0392393 0.1235384 -0.0087817 255 140 0
-0.0369682 0.1235417 -0.0087775 255 140 0
-0.0346965 0.1235428 -0.0087743 255 140 0
-0.0324237 0.1235376 -0.0087767 255 140 0
-0.0301508 0.1235337 -0.0087782 255 140 0
-0.0278776 0.1235371 -0.0087742 255 140 0
-0.0256048 0.1235435 -0.0087684 255 140 0
-0.0233334 0.1235508 -0.0087614 255 140 0
-0.0210605 0.1235535 -0.0087593 255 140 0
-0.0187867 0.1235469 -0.0087614 255 140 0
-0.0165149 0.1235425 -0.0087620 255 140 0
-0.0142433 0.1235440 -0.0087592 255 140 0
-0.0119711 0.1235525 -0.0087521 255 140 0
-0.0096965 0.1235615 -0.0087467 255 140 0
-0.0074251 0.1235638 -0.0087472 255 140 0
-0.0051525 0.1235717 -0.0087438 255 140 0
-0.0028808 0.1235818 -0.0087402 255 140 0
-0.0006084 0.1235944 -0.0087367 255 140 0
0.0016641 0.1236100 -0.0087332 255 140 0
0.0039369 0.1236268 -0.0087299 255 140 0
0.0062101 0.1236396 -0.0087285 255 140 0
0.0084834 0.1236291 -0.0087362 255 140 0
0.0107552 0.1236129 -0.0087458 255 140 0
0.0130270 0.1236011 -0.0087530 255 140 0
0.0152990 0.1235858 -0.0087590 255 140 0
0.0175709 0.1235709 -0.0087692 255 140 0
0.0198406 0.1235698 -0.0087732 255 140 0
0.0221141 0.1235763 -0.0087750 255 140 0
-0.0801439 0.1258288 -0.0088321 255 140 0
-0.0778701 0.1258149 -0.0088404 255 140 0
-0.0755951 0.1258126 -0.0088411 255 140 0
-0.0733194 0.1258260 -0.0088349 255 140 0
-0.0710466 0.1258320 -0.0088274 255 140 0
-0.0687753 0.1258419 -0.0088215 255 140 0
-0.0665039 0.1258506 -0.0088174 255 140 0
-0.0642322 0.1258567 -0.0088125 255 140 0
-0.0619604 0.1258426 -0.0088082 255 140 0
-0.0596879 0.1258352 -0.0088041 255 140 0
-0.0574153 0.1258397 -0.0087981 255 140 0
-0.0551427 0.1258430 -0.0087990 255 140 0
-0.0528701 0.1258419 -0.0088020 255 140 0
-0.0505985 0.1258439 -0.0088022 255 140 0
-0.0483271 0.1258487 -0.0088021 255 140 0
-0.0460551 0.1258498 -0.0088038 255 140 0
-0.0437831 0.1258503 -0.0088057 255 140 0
-0.0415111 0.1258523 -0.0088047 255 140 0
-0.0392391 0.1258555 -0.0088046 255 140 0
-0.0369679 0.1258525 -0.0088080 255 140 0
-0.0346964 0.1258512 -0.0088105 255 140 0
-0.0324237 0.1258499 -0.0088124 255 140 0
-0.0301507 0.1258526 -0.0088125 255 140 0
-0.0278775 0.1258610 -0.0088082 255 140 0
-0.0256046 0.1258670 -0.0088036 255 140 0
-0.0233322 0.1258716 -0.0087999 255 140 0
-0.0210600 0.1258769 -0.0087956 255 140 0
-0.0187877 0.1258796 -0.0087923 255 140 0
-0.0165156 0.1258785 -0.0087907 255 140 0
-0.0142434 0.1258792 -0.0087890 255 140 0
-0.0119712 0.1258848 -0.0087848 255 140 0
-0.0096964 0.1258930 -0.0087799 255 140 0
-0.0074250 0.1259054 -0.0087738 255 140 0
-0.0051525 0.1259181 -0.0087695 255 140 0
-0.0028810 0.1259255 -0.0087667 255 140 0
-0.0006087 0.1259389 -0.0087639 255 140 0
0.0016636 0.1259568 -0.0087608 255 140 0
0.0039363 0.1259761 -0.0087576 255 140 0
0.0062095 0.1259886 -0.0087572 255 140 0
0.0084830 0.1259823 -0.0087644 255 140 0
0.0107531 0.1259704 -0.0087740 255 140 0
0.0130266 0.1259839 -0.0087820 255 140 0
0.0152985 0.1259835 -0.0087905 255 140 0
0.0175703 0.1259844 -0.0087939 255 140 0
0.0198391 0.1259515 -0.0088009 255 140 0
-0.0778704 0.1281348 -0.0088767 255 140 0
-0.0755946 0.1281443 -0.0088790 255 140 0
-0.0733194 0.1281506 -0.0088779 255 140 0
-0.0710467 0.1281578 -0.0088759 255 140 0
-0.0687754 0.1281653 -0.0088714 255 140 0
-0.0665040 0.1281637 -0.0088716 255 140 0
-0.0642323 0.1281578 -0.0088724 255 140 0
-0.0619603 0.1281461 -0.0088641 255 140 0
-0.0596878 0.1281373 -0.0088570 255 140 0
-0.0574148 0.1281418 -0.0088527 255 140 0
-0.0551420 0.1281489 -0.0088554 255 140 0
-0.0528697 0.1281472 -0.0088613 255 140 0
-0.0505982 0.1281496 -0.0088653 255 140 0
-0.0483266 0.1281582 -0.0088648 255 140 0
-0.0460547 0.1281671 -0.0088652 255 140 0
-0.0437826 0.1281730 -0.0088668 255 140 0
-0.0415106 0.1281808 -0.0088668 255 140 0
-0.0392387 0.1281887 -0.0088631 255 140 0
-0.0369673 0.1281868 -0.0088664 255 140 0
-0.0346957 0.1281851 -0.0088701 255 140 0
-0.0324233 0.1281914 -0.0088697 255 140 0
-0.0301507 0.1282012 -0.0088662 255 140 0
-0.0278774 0.1282160 -0.0088638 255 140 0
-0.0256045 0.1282315 -0.0088614 255 140 0
-0.0233324 0.1282377 -0.0088638 255 140 0
-0.0210602 0.1282498 -0.0088609 255 140 0
-0.0187879 0.1282665 -0.0088575 255 140 0
-0.0165159 0.1282782 -0.0088560 255 140 0
-0.0142437 0.1282859 -0.0088565 255 140 0
-0.0119695 0.1282953 -0.0088557 255 140 0
-0.0096964 0.1283067 -0.0088537 255 140 0
-0.0074253 0.1283301 -0.0088467 255 140 0
-0.0051530 0.1283548 -0.0088399 255 140 0
-0.0028815 0.1283734 -0.0088377 255 140 0
-0.0006093 0.1284014 -0.0088323 255 140 0
0.0016628 0.1284313 -0.0088297 255 140 0
0.0039352 0.1284578 -0.0088257 255 140 0
0.0062085 0.1284771 -0.0088247 255 140 0
0.0084805 0.1284848 -0.0088282 255 140 0
0.0107523 0.1284809 -0.0088366 255 140 0
0.0130263 0.1285230 -0.0088380 255 140 0
0.0152984 0.1285346 -0.0088419 255 140 0
0.0175658 0.1285489 -0.0088329 255 140 0
-0.0755951 0.1306730 -0.0088582 255 140 0
-0.0733206 0.1306832 -0.0088682 255 140 0
-0.0710482 0.1306983 -0.0088699 255 140 0
-0.0687770 0.1307135 -0.0088659 255 140 0
-0.0665055 0.1307252 -0.0088620 255 140 0
-0.0642333 0.1307339 -0.0088576 255 140 0
-0.0619606 0.1307340 -0.0088501 255 140 0
-0.0596874 0.1307347 -0.0088440 255 140 0
-0.0574087 0.1307382 -0.0088439 255 140 0
-0.0551307 0.1307475 -0.0088480 255 140 0
-0.0528586 0.1307576 -0.0088509 255 140 0
-0.0505868 0.1307702 -0.0088524 255 140 0
-0.0483152 0.1307847 -0.0088527 255 140 0
-0.0460433 0.1307987 -0.0088521 255 140 0
-0.0437715 0.1308105 -0.0088539 255 140 0
-0.0414998 0.1308180 -0.0088582 255 140 0
-0.0392280 0.1308256 -0.0088629 255 140 0
-0.0369566 0.1308346 -0.0088662 255 140 0
-0.0346849 0.1308440 -0.0088683 255 140 0
-0.0324124 0.1308568 -0.0088677 255 140 0
-0.0301396 0.1308696 -0.0088696 255 140 0
-0.0278668 0.1308801 -0.0088734 255 140 0
-0.0255943 0.1308935 -0.0088754 255 140 0
-0.0233222 0.1309069 -0.0088759 255 140 0
-0.0210500 0.1309203 -0.0088779 255 140 0
-0.0187778 0.1309327 -0.0088791 255 140 0
-0.0165056 0.1309484 -0.0088797 255 140 0
-0.0142334 0.1309654 -0.0088798 255 140 0
-0.0119598 0.1309771 -0.0088831 255 140 0
-0.0096880 0.1309910 -0.0088859 255 140 0
-0.0074169 0.1310093 -0.0088862 255 140 0
-0.0051459 0.1310292 -0.0088867 255 140 0
-0.0028722 0.1310451 -0.0088875 255 140 0
-0.0005980 0.1310679 -0.0088876 255 140 0
0.0016735 0.1310958 -0.0088875 255 140 0
0.0039434 0.1311140 -0.0088894 255 140 0
0.0062157 0.1311226 -0.0088944 255 140 0
0.0084866 0.1311266 -0.0089020 255 140 0
0.0107567 0.1311220 -0.0089040 255 140 0
0.0130320 0.1311628 -0.0089014 255 140 0
0.0153068 0.1311760 -0.0088896 255 140 0
0.0175732 0.1311451 -0.0088619 255 140 0
-0.0755832 0.1332230 -0.0089560 255 140 0
-0.0733096 0.1332465 -0.0089895 255 140 0
-0.0710374 0.1332684 -0.0090083 255 140 0
-0.0687665 0.1332878 -0.0090157 255 140 0
-0.0664940 0.1333025 -0.0090192 255 140 0
-0.0642215 0.1333163 -0.0090210 255 140 0
-0.0619499 0.1333061 -0.0090226 255 140 0
-0.0596776 0.1333036 -0.0090228 255 140 0
-0.0574019 0.1333078 -0.0090256 255 140 0
-0.0551266 0.1333103 -0.0090286 255 140 0
-0.0528548 0.1333165 -0.0090290 255 140 0
-0.0505831 0.1333237 -0.0090292 255 140 0
-0.0483114 0.1333313 -0.0090295 255 140 0
-0.0460398 0.1333365 -0.0090310 255 140 0
-0.0437681 0.1333393 -0.0090335 255 140 0
-0.0414965 0.1333393 -0.0090373 255 140 0
-0.0392247 0.1333395 -0.0090413 255 140 0
-0.0369532 0.1333462 -0.0090416 255 140 0
-0.0346813 0.1333515 -0.0090416 255 140 0
-0.0324091 0.1333540 -0.0090446 255 140 0
-0.0301366 0.1333569 -0.0090476 255 140 0
-0.0278638 0.1333591 -0.0090510 255 140 0
-0.0255914 0.1333662 -0.0090520 255 140 0
-0.0233194 0.1333766 -0.0090517 255 140 0
-0.0210473 0.1333797 -0.0090554 255 140 0
-0.0187753 0.1333815 -0.0090604 255 140 0
-0.0165032 0.1333882 -0.0090617 255 140 0
-0.0142315 0.1333974 -0.0090634 255 140 0
-0.0119601 0.1334067 -0.0090657 255 140 0
-0.0096860 0.1334167 -0.0090680 255 140 0
-0.0074134 0.1334252 -0.0090726 255 140 0
-0.0051428 0.1334373 -0.0090778 255 140 0
-0.0028714 0.1334481 -0.0090819 255 140 0
-0.0005969 0.1334646 -0.0090853 255 140 0
0.0016749 0.1334846 -0.0090886 255 140 0
0.0039449 0.1334968 -0.0090944 255 140 0
0.0062168 0.1335019 -0.0091023 255 140 0
0.0084874 0.1334979 -0.0091111 255 140 0
0.0107581 0.1334859 -0.0091139 255 140 0
0.0130335 0.1335056 -0.0090934 255 140 0
0.0153069 0.1335043 -0.0090697 255 140 0
-0.0732998 0.1357290 -0.0090898 255 140 0
-0.0710284 0.1357191 -0.0091484 255 140 0
-0.0687579 0.1357057 -0.0091832 255 140 0
-0.0664848 0.1357098 -0.0091945 255 140 0
-0.0642121 0.1357104 -0.0092012 255 140 0
-0.0619413 0.1356625 -0.0092131 255 140 0
-0.0596698 0.1356343 -0.0092222 255 140 0
-0.0573982 0.1356371 -0.0092258 255 140 0
-0.0551265 0.1356379 -0.0092275 255 140 0
-0.0528548 0.1356398 -0.0092281 255 140 0
-0.0505832 0.1356438 -0.0092282 255 140 0
-0.0483115 0.1356517 -0.0092258 255 140 0
-0.0460399 0.1356531 -0.0092281 255 140 0
-0.0437682 0.1356505 -0.0092336 255 140 0
-0.0414966 0.1356522 -0.0092353 255 140 0
-0.0392248 0.1356566 -0.0092344 255 140 0
-0.0369532 0.1356612 -0.0092348 255 140 0
-0.0346814 0.1356634 -0.0092366 255 140 0
-0.0324093 0.1356563 -0.0092429 255 140 0
-0.0301371 0.1356554 -0.0092463 255 140 0
-0.0278643 0.1356581 -0.0092480 255 140 0
-0.0255920 0.1356633 -0.0092492 255 140 0
-0.0233200 0.1356710 -0.0092482 255 140 0
-0.0210480 0.1356679 -0.0092548 255 140 0
-0.0187760 0.1356653 -0.0092608 255 140 0
-0.0165042 0.1356645 -0.0092664 255 140 0
-0.0142326 0.1356654 -0.0092720 255 140 0
-0.0119613 0.1356743 -0.0092741 255 140 0
-0.0096865 0.1356824 -0.0092777 255 140 0
-0.0074145 0.1356892 -0.0092833 255 140 0
-0.0051440 0.1356953 -0.0092924 255 140 0
-0.0028730 0.1357058 -0.0093007 255 140 0
-0.0006002 0.1357214 -0.0093079 255 140 0
0.0016718 0.1357372 -0.0093169 255 140 0
0.0039428 0.1357547 -0.0093240 255 140 0
0.0062137 0.1357704 -0.0093276 255 140 0
0.0084864 0.1357867 -0.0093235 255 140 0
0.0107574 0.1357967 -0.0093133 255 140 0
0.0130334 0.1357486 -0.0092910 255 140 0
-0.0710261 0.1377835 -0.0095474 255 140 0
-0.0687550 0.1377745 -0.0095752 255 140 0
-0.0664845 0.1377473 -0.0095980 255 140 0
-0.0642139 0.1377157 -0.0096147 255 140 0
-0.0619425 0.1376907 -0.0096201 255 140 0
-0.0596710 0.1376638 -0.0096220 255 140 0
-0.0573994 0.1376644 -0.0096237 255 140 0
-0.0551278 0.1376648 -0.0096249 255 140 0
-0.0528561 0.1376641 -0.0096253 255 140 0
-0.0505845 0.1376670 -0.0096259 255 140 0
-0.0483129 0.1376733 -0.0096271 255 140 0
-0.0460412 0.1376793 -0.0096302 255 140 0
-0.0437695 0.1376856 -0.0096338 255 140 0
-0.0414979 0.1376917 -0.0096356 255 140 0
-0.0392262 0.1376958 -0.0096369 255 140 0
-0.0369546 0.1376990 -0.0096371 255 140 0
-0.0346828 0.1377002 -0.0096384 255 140 0
-0.0324110 0.1376963 -0.0096421 255 140 0
-0.0301390 0.1376954 -0.0096443 255 140 0
-0.0278667 0.1376977 -0.0096448 255 140 0
-0.0255947 0.1377004 -0.0096454 255 140 0
-0.0233229 0.1377029 -0.0096463 255 140 0
-0.0210510 0.1377021 -0.0096476 255 140 0
-0.0187791 0.1376999 -0.0096523 255 140 0
-0.0165073 0.1376975 -0.0096571 255 140 0
-0.0142354 0.1376963 -0.0096614 255 140 0
-0.0119636 0.1377027 -0.0096626 255 140 0
-0.0096917 0.1377075 -0.0096653 255 140 0
-0.0074198 0.1377090 -0.0096685 255 140 0
-0.0051493 0.1377101 -0.0096736 255 140 0
-0.0028775 0.1376937 -0.0096762 255 140 0
-0.0006062 0.1376994 -0.0096821 255 140 0
0.0016660 0.1377063 -0.0096879 255 140 0
0.0039364 0.1377145 -0.0096936 255 140 0
0.0062079 0.1377178 -0.0096968 255 140 0
0.0084803 0.1377140 -0.0096989 255 140 0
0.0107580 0.1376918 -0.0097155 255 140 0
0.0130310 0.1377644 -0.0095816 255 140 0
-0.0687435 0.1400489 -0.0098304 255 140 0
-0.0664543 0.1399545 -0.0098891 255 140 0
-0.0641912 0.1397833 -0.0099486 255 140 0
-0.0619409 0.1397554 -0.0099592 255 140 0
-0.0596721 0.1396945 -0.0099556 255 140 0
-0.0574007 0.1396882 -0.0099562 255 140 0
-0.0551291 0.1396835 -0.0099564 255 140 0
-0.0528575 0.1396797 -0.0099571 255 140 0
-0.0505859 0.1396831 -0.0099585 255 140 0
-0.0483143 0.1396866 -0.0099660 255 140 0
-0.0460427 0.1397105 -0.0099729 255 140 0
-0.0437711 0.1397383 -0.0099794 255 140 0
-0.0414995 0.1397503 -0.0099829 255 140 0
-0.0392279 0.1397490 -0.0099840 255 140 0
-0.0369562 0.1397489 -0.0099845 255 140 0
-0.0346845 0.1397491 -0.0099849 255 140 0
-0.0324128 0.1397490 -0.0099851 255 140 0
-0.0301410 0.1397490 -0.0099855 255 140 0
-0.0278693 0.1397492 -0.0099860 255 140 0
-0.0255976 0.1397493 -0.0099865 255 140 0
-0.0233259 0.1397494 -0.0099871 255 140 0
-0.0210541 0.1397494 -0.0099878 255 140 0
-0.0187825 0.1397494 -0.0099885 255 140 0
-0.0165108 0.1397490 -0.0099895 255 140 0
-0.0142391 0.1397486 -0.0099905 255 140 0
-0.0119674 0.1397488 -0.0099914 255 140 0
-0.0096957 0.1397485 -0.0099922 255 140 0
-0.0074255 0.1397535 -0.0099915 255 140 0
-0.0051547 0.1397653 -0.0099932 255 140 0
-0.0028837 0.1397800 -0.0099952 255 140 0
-0.0006122 0.1397955 -0.0099950 255 140 0
0.0016602 0.1397886 -0.0099943 255 140 0
0.0039334 0.1397732 -0.0099931 255 140 0
0.0062065 0.1396928 -0.0100117 255 140 0
0.0084785 0.1396178 -0.0100573 255 140 0
-0.0665086 0.1414040 -0.0100682 255 140 0
-0.0642216 0.1417265 -0.0100356 255 140 0
-0.0619473 0.1418289 -0.0100381 255 140 0
-0.0596734 0.1419007 -0.0100408 255 140 0
-0.0574013 0.1419198 -0.0100405 255 140 0
-0.0551296 0.1419313 -0.0100406 255 140 0
-0.0528579 0.1419326 -0.0100410 255 140 0
-0.0505863 0.1419346 -0.0100421 255 140 0
-0.0483147 0.1419338 -0.0100437 255 140 0
-0.0460431 0.1419268 -0.0100455 255 140 0
-0.0437714 0.1419161 -0.0100471 255 140 0
-0.0414998 0.1419054 -0.0100476 255 140 0
-0.0392282 0.1418977 -0.0100477 255 140 0
-0.0369566 0.1418823 -0.0100475 255 140 0
-0.0346849 0.1418718 -0.0100476 255 140 0
-0.0324132 0.1418704 -0.0100478 255 140 0
-0.0301415 0.1418693 -0.0100480 255 140 0
-0.0278699 0.1418688 -0.0100482 255 140 0
-0.0255982 0.1418692 -0.0100484 255 140 0
-0.0233265 0.1418701 -0.0100486 255 140 0
-0.0210548 0.1418718 -0.0100489 255 140 0
-0.0187832 0.1418750 -0.0100494 255 140 0
-0.0165115 0.1418808 -0.0100499 255 140 0
-0.0142399 0.1418821 -0.0100503 255 140 0
-0.0119682 0.1418867 -0.0100507 255 140 0
-0.0096965 0.1418763 -0.0100507 255 140 0
-0.0074253 0.1418500 -0.0100513 255 140 0
-0.0051544 0.1418156 -0.0100519 255 140 0
-0.0028833 0.1417692 -0.0100509 255 140 0
-0.0006115 0.1417264 -0.0100486 255 140 0
0.0016606 0.1417121 -0.0100470 255 140 0
0.0039313 0.1416416 -0.0100385 255 140 0
0.0062038 0.1418042 -0.0099815 255 140 0
-0.0619638 0.1439960 -0.0101031 255 140 0
-0.0596761 0.1441291 -0.0100935 255 140 0
-0.0574024 0.1441684 -0.0100887 255 140 0
-0.0551299 0.1441929 -0.0100864 255 140 0
-0.0528582 0.1441997 -0.0100866 255 140 0
-0.0505866 0.1441995 -0.0100873 255 140 0
-0.0483149 0.1441889 -0.0100886 255 140 0
-0.0460433 0.1441642 -0.0100905 255 140 0
-0.0437717 0.1441338 -0.0100924 255 140 0
-0.0415001 0.1441040 -0.0100939 255 140 0
-0.0392284 0.1440805 -0.0100950 255 140 0
-0.0369568 0.1440483 -0.0100953 255 140 0
-0.0346852 0.1440275 -0.0100956 255 140 0
-0.0324136 0.1440247 -0.0100958 255 140 0
-0.0301419 0.1440226 -0.0100959 255 140 0
-0.0278703 0.1440211 -0.0100959 255 140 0
-0.0255986 0.1440216 -0.0100959 255 140 0
-0.0233270 0.1440240 -0.0100958 255 140 0
-0.0210554 0.1440274 -0.0100958 255 140 0
-0.0187837 0.1440326 -0.0100959 255 140 0
-0.0165121 0.1440424 -0.0100959 255 140 0
-0.0142405 0.1440448 -0.0100957 255 140 0
-0.0119688 0.1440517 -0.0100955 255 140 0
-0.0096972 0.1440308 -0.0100957 255 140 0
-0.0074252 0.1440164 -0.0100975 255 140 0
-0.0051526 0.1439399 -0.0100988 255 140 0
-0.0028807 0.1438311 -0.0101009 255 140 0
-0.0006123 0.1437349 -0.0100798 255 140 0
0.0016593 0.1436081 -0.0100740 255 140 0
-0.0596729 0.1464600 -0.0100803 255 140 0
-0.0574014 0.1464690 -0.0100866 255 140 0
-0.0551299 0.1464747 -0.0100906 255 140 0
-0.0528582 0.1464772 -0.0100922 255 140 0
-0.0505866 0.1464761 -0.0100934 255 140 0
-0.0483150 0.1464720 -0.0100943 255 140 0
-0.0460434 0.1464621 -0.0100951 255 140 0
-0.0437717 0.1464504 -0.0100958 255 140 0
-0.0415001 0.1464397 -0.0100963 255 140 0
-0.0392285 0.1464302 -0.0100966 255 140 0
-0.0369568 0.1464174 -0.0100968 255 140 0
-0.0346852 0.1464087 -0.0100969 255 140 0
-0.0324136 0.1464077 -0.0100970 255 140 0
-0.0301419 0.1464068 -0.0100971 255 140 0
-0.0278703 0.1464060 -0.0100971 255 140 0
-0.0255987 0.1464061 -0.0100971 255 140 0
-0.0233270 0.1464070 -0.0100971 255 140 0
-0.0210554 0.1464083 -0.0100971 255 140 0
-0.0187838 0.1464088 -0.0100971 255 140 0
-0.0165121 0.1464121 -0.0100971 255 140 0
-0.0142405 0.1464132 -0.0100968 255 140 0
-0.0119688 0.1464169 -0.0100963 255 140 0
-0.0096972 0.1464085 -0.0100951 255 140 0
-0.0074260 0.1463885 -0.0100938 255 140 0
-0.0051554 0.1463686 -0.0100906 255 140 0
-0.0028849 0.1463456 -0.0100858 255 140 0
-0.0551298 0.1487501 -0.0100941 255 140 0
-0.0528582 0.1487509 -0.0100963 255 140 0
-0.0505866 0.1487500 -0.0100977 255 140 0
-0.0483150 0.1487503 -0.0100984 255 140 0
-0.0460434 0.1487495 -0.0100987 255 140 0
-0.0437718 0.1487479 -0.0100988 255 140 0
-0.0415001 0.1487453 -0.0100988 255 140 0
-0.0392285 0.1487448 -0.0100989 255 140 0
-0.0369569 0.1487424 -0.0100990 255 140 0
-0.0346853 0.1487414 -0.0100990 255 140 0
-0.0324136 0.1487411 -0.0100991 255 140 0
-0.0301419 0.1487410 -0.0100991 255 140 0
-0.0278703 0.1487406 -0.0100991 255 140 0
-0.0255987 0.1487405 -0.0100991 255 140 0
-0.0233271 0.1487407 -0.0100992 255 140 0
-0.0210554 0.1487406 -0.0100992 255 140 0
-0.0187838 0.1487396 -0.0100991 255 140 0
-0.0165121 0.1487385 -0.0100990 255 140 0
-0.0142405 0.1487383 -0.0100985 255 140 0
-0.0119688 0.1487373 -0.0100978 255 140 0
-0.0096971 0.1487322 -0.0100963 255 140 0
-0.0074255 0.1486974 -0.0100945 255 140 0
-0.0051553 0.1486974 -0.0100906 255 140 0
-0.0483150 0.1510186 -0.0101011 255 140 0
-0.0460434 0.1510185 -0.0101017 255 140 0
-0.0437718 0.1510169 -0.0101022 255 140 0
-0.0415001 0.1510148 -0.0101026 255 140 0
-0.0392285 0.1510135 -0.0101029 255 140 0
-0.0369569 0.1510112 -0.0101030 255 140 0
-0.0346853 0.1510103 -0.0101031 255 140 0
-0.0324136 0.1510098 -0.0101031 255 140 0
-0.0301420 0.1510094 -0.0101031 255 140 0
-0.0278703 0.1510093 -0.0101031 255 140 0
-0.0255987 0.1510092 -0.0101032 255 140 0
-0.0233271 0.1510091 -0.0101032 255 140 0
-0.0210554 0.1510096 -0.0101031 255 140 0
-0.0187838 0.1510087 -0.0101030 255 140 0
-0.0165122 0.1510070 -0.0101027 255 140 0
-0.0142405 0.1510037 -0.0101022 255 140 0
-0.0119685 0.1510007 -0.0101038 255 140 0
-0.0415001 0.1532859 -0.0101046 255 140 0
-0.0392285 0.1532853 -0.0101051 255 140 0
-0.0369569 0.1532836 -0.0101052 255 140 0
-0.0346853 0.1532819 -0.0101053 255 140 0
-0.0324136 0.1532817 -0.0101053 255 140 0
-0.0301420 0.1532815 -0.0101053 255 140 0
-0.0278704 0.1532813 -0.0101053 255 140 0
-0.0255987 0.1532810 -0.0101053 255 140 0
-0.0233271 0.1532811 -0.0101053 255 140 0
-0.0210555 0.1532812 -0.0101052 255 140 0
-0.0187838 0.1532798 -0.0101050 255 140 0
-0.0460517 0.0322873 -0.0084759 255 140 0
-0.0437797 0.0322833 -0.0084845 255 140 0
-0.0415081 0.0322718 -0.0084923 255 140 0
-0.0392365 0.0322593 -0.0084986 255 140 0
-0.0369650 0.0322545 -0.0084984 255 140 0
-0.0346934 0.0322513 -0.0084984 255 140 0
-0.0324218 0.0322518 -0.0085003 255 140 0
-0.0301500 0.0322502 -0.0085006 255 140 0
-0.0278783 0.0322461 -0.0084973 255 140 0
-0.0256066 0.0322421 -0.0084939 255 140 0
-0.0233350 0.0322389 -0.0084909 255 140 0
-0.0210632 0.0322397 -0.0084885 255 140 0
-0.0187912 0.0322448 -0.0084852 255 140 0
-0.0165193 0.0322550 -0.0084819 255 140 0
-0.0528669 0.0345579 -0.0084704 255 140 0
-0.0505948 0.0345598 -0.0084778 255 140 0
-0.0483232 0.0345581 -0.0084825 255 140 0
-0.0460515 0.0345577 -0.0084877 255 140 0
-0.0437797 0.0345566 -0.0084926 255 140 0
-0.0415080 0.0345518 -0.0084982 255 140 0
-0.0392364 0.0345463 -0.0085027 255 140 0
-0.0369648 0.0345425 -0.0085039 255 140 0
-0.0346932 0.0345397 -0.0085047 255 140 0
-0.0324215 0.0345392 -0.0085057 255 140 0
-0.0301500 0.0345374 -0.0085058 255 140 0
-0.0278783 0.0345343 -0.0085040 255 140 0
-0.0256066 0.0345314 -0.0085033 255 140 0
-0.0233350 0.0345291 -0.0085018 255 140 0
-0.0210631 0.0345283 -0.0085002 255 140 0
-0.0187911 0.0345285 -0.0084982 255 140 0
-0.0165194 0.0345302 -0.0084959 255 140 0
-0.0142476 0.0345339 -0.0084933 255 140 0
-0.0119759 0.0345202 -0.0084895 255 140 0
-0.0097055 0.0345164 -0.0084838 255 140 0
-0.0574107 0.0368418 -0.0084738 255 140 0
-0.0551388 0.0368556 -0.0084790 255 140 0
-0.0528668 0.0368598 -0.0084846 255 140 0
-0.0505951 0.0368600 -0.0084887 255 140 0
-0.0483236 0.0368579 -0.0084921 255 140 0
-0.0460518 0.0368573 -0.0084946 255 140 0
-0.0437801 0.0368567 -0.0084969 255 140 0
-0.0415083 0.0368544 -0.0085000 255 140 0
-0.0392365 0.0368518 -0.0085024 255 140 0
-0.0369650 0.0368480 -0.0085033 255 140 0
-0.0346934 0.0368450 -0.0085045 255 140 0
-0.0324217 0.0368440 -0.0085057 255 140 0
-0.0301498 0.0368422 -0.0085061 255 140 0
-0.0278780 0.0368395 -0.0085055 255 140 0
-0.0256064 0.0368372 -0.0085052 255 140 0
-0.0233347 0.0368354 -0.0085048 255 140 0
-0.0210629 0.0368341 -0.0085046 255 140 0
-0.0187909 0.0368326 -0.0085046 255 140 0
-0.0165192 0.0368304 -0.0085039 255 140 0
-0.0142476 0.0368298 -0.0085032 255 140 0
-0.0119759 0.0368225 -0.0085007 255 140 0
-0.0097041 0.0368203 -0.0084967 255 140 0
-0.0074328 0.0368251 -0.0084919 255 140 0
-0.0051608 0.0368314 -0.0084845 255 140 0
-0.0028887 0.0368401 -0.0084746 255 140 0
-0.0596825 0.0391512 -0.0085169 255 140 0
-0.0574104 0.0391837 -0.0085208 255 140 0
-0.0551382 0.0392027 -0.0085241 255 140 0
-0.0528664 0.0392063 -0.0085264 255 140 0
-0.0505947 0.0392078 -0.0085283 255 140 0
-0.0483230 0.0392074 -0.0085288 255 140 0
-0.0460512 0.0392068 -0.0085297 255 140 0
-0.0437794 0.0392053 -0.0085300 255 140 0
-0.0415076 0.0392025 -0.0085304 255 140 0
-0.0392359 0.0391993 -0.0085312 255 140 0
-0.0369645 0.0391957 -0.0085321 255 140 0
-0.0346930 0.0391931 -0.0085331 255 140 0
-0.0324211 0.0391919 -0.0085349 255 140 0
-0.0301495 0.0391900 -0.0085354 255 140 0
-0.0278777 0.0391872 -0.0085351 255 140 0
-0.0256061 0.0391847 -0.0085348 255 140 0
-0.0233344 0.0391825 -0.0085348 255 140 0
-0.0210626 0.0391812 -0.0085357 255 140 0
-0.0187907 0.0391801 -0.0085373 255 140 0
-0.0165190 0.0391793 -0.0085396 255 140 0
-0.0142474 0.0391783 -0.0085414 255 140 0
-0.0119756 0.0391732 -0.0085401 255 140 0
-0.0097038 0.0391703 -0.0085378 255 140 0
-0.0074319 0.0391692 -0.0085370 255 140 0
-0.0051600 0.0391679 -0.0085328 255 140 0
-0.0028883 0.0391674 -0.0085244 255 140 0
-0.0006160 0.0391617 -0.0085140 255 140 0
0.0016570 0.0391508 -0.0085024 255 140 0
-0.0642269 0.0413846 -0.0084675 255 140 0
-0.0619550 0.0414004 -0.0084824 255 140 0
-0.0596830 0.0414186 -0.0084911 255 140 0
-0.0574108 0.0414472 -0.0084901 255 140 0
-0.0551389 0.0414634 -0.0084899 255 140 0
-0.0528670 0.0414658 -0.0084907 255 140 0
-0.0505952 0.0414675 -0.0084919 255 140 0
-0.0483235 0.0414685 -0.0084923 255 140 0
-0.0460518 0.0414690 -0.0084928 255 140 0
-0.0437799 0.0414686 -0.0084930 255 140 0
-0.0415082 0.0414668 -0.0084930 255 140 0
-0.0392365 0.0414622 -0.0084930 255 140 0
-0.0369650 0.0414577 -0.0084949 255 140 0
-0.0346935 0.0414543 -0.0084958 255 140 0
-0.0324217 0.0414528 -0.0084967 255 140 0
-0.0301500 0.0414505 -0.0084974 255 140 0
-0.0278783 0.0414477 -0.0084981 255 140 0
-0.0256066 0.0414450 -0.0084983 255 140 0
-0.0233349 0.0414424 -0.0084983 255 140 0
-0.0210630 0.0414401 -0.0084991 255 140 0
-0.0187911 0.0414392 -0.0084998 255 140 0
-0.0165194 0.0414366 -0.0085009 255 140 0
-0.0142478 0.0414330 -0.0085020 255 140 0
-0.0119760 0.0414283 -0.0085021 255 140 0
-0.0097044 0.0414248 -0.0085013 255 140 0
-0.0074323 0.0414233 -0.0085012 255 140 0
-0.0051604 0.0414223 -0.0084996 255 140 0
-0.0028886 0.0414220 -0.0084966 255 140 0
-0.0006167 0.0414185 -0.0084931 255 140 0
0.0016558 0.0414113 -0.0084885 255 140 0
0.0039291 0.0413964 -0.0084842 255 140 0
-0.0664987 0.0436507 -0.0084855 255 140 0
-0.0642266 0.0436820 -0.0084886 255 140 0
-0.0619551 0.0436913 -0.0084857 255 140 0
-0.0596832 0.0437038 -0.0084831 255 140 0
-0.0574111 0.0437264 -0.0084794 255 140 0
-0.0551392 0.0437407 -0.0084778 255 140 0
-0.0528674 0.0437431 -0.0084783 255 140 0
-0.0505956 0.0437455 -0.0084790 255 140 0
-0.0483239 0.0437514 -0.0084829 255 140 0
-0.0460522 0.0437531 -0.0084837 255 140 0
-0.0437804 0.0437541 -0.0084839 255 140 0
-0.0415087 0.0437536 -0.0084841 255 140 0
-0.0392369 0.0437523 -0.0084841 255 140 0
-0.0369654 0.0437433 -0.0084828 255 140 0
-0.0346938 0.0437390 -0.0084834 255 140 0
-0.0324220 0.0437365 -0.0084832 255 140 0
-0.0301503 0.0437335 -0.0084836 255 140 0
-0.0278785 0.0437302 -0.0084849 255 140 0
-0.0256069 0.0437268 -0.0084854 255 140 0
-0.0233352 0.0437233 -0.0084855 255 140 0
-0.0210632 0.0437195 -0.0084863 255 140 0
-0.0187913 0.0437151 -0.0084873 255 140 0
-0.0165196 0.0437081 -0.0084872 255 140 0
-0.0142481 0.0437014 -0.0084869 255 140 0
-0.0119762 0.0436971 -0.0084880 255 140 0
-0.0097047 0.0436934 -0.0084867 255 140 0
-0.0074325 0.0436931 -0.0084869 255 140 0
-0.0051607 0.0436930 -0.0084870 255 140 0
-0.0028888 0.0436932 -0.0084875 255 140 0
-0.0006171 0.0436929 -0.0084884 255 140 0
0.0016551 0.0436915 -0.0084887 255 140 0
0.0039280 0.0436847 -0.0084909 255 140 0
0.0062002 0.0436730 -0.0084939 255 140 0
-0.0687707 0.0458827 -0.0084786 255 140 0
-0.0664989 0.0459156 -0.0084828 255 140 0
-0.0642269 0.0459474 -0.0084848 255 140 0
-0.0619552 0.0459698 -0.0084810 255 140 0
-0.0596832 0.0459923 -0.0084780 255 140 0
-0.0574111 0.0460237 -0.0084757 255 140 0
-0.0551390 0.0460428 -0.0084746 255 140 0
-0.0528671 0.0460483 -0.0084751 255 140 0
-0.0505953 0.0460520 -0.0084764 255 140 0
-0.0483236 0.0460542 -0.0084768 255 140 0
-0.0460519 0.0460558 -0.0084773 255 140 0
-0.0437802 0.0460563 -0.0084783 255 140 0
-0.0415085 0.0460557 -0.0084796 255 140 0
-0.0392367 0.0460546 -0.0084809 255 140 0
-0.0369652 0.0460483 -0.0084818 255 140 0
-0.0346936 0.0460434 -0.0084824 255 140 0
-0.0324218 0.0460411 -0.0084825 255 140 0
-0.0301502 0.0460381 -0.0084829 255 140 0
-0.0278784 0.0460344 -0.0084837 255 140 0
-0.0256067 0.0460309 -0.0084845 255 140 0
-0.0233351 0.0460276 -0.0084855 255 140 0
-0.0210632 0.0460237 -0.0084868 255 140 0
-0.0187912 0.0460187 -0.0084877 255 140 0
-0.0165196 0.0460112 -0.0084877 255 140 0
-0.0142480 0.0460035 -0.0084871 255 140 0
-0.0119762 0.0459956 -0.0084877 255 140 0
-0.0097048 0.0459897 -0.0084877 255 140 0
-0.0074325 0.0459887 -0.0084860 255 140 0
-0.0051606 0.0459860 -0.0084857 255 140 0
-0.0028888 0.0459811 -0.0084857 255 140 0
-0.0006171 0.0459755 -0.0084861 255 140 0
0.0016548 0.0459690 -0.0084879 255 140 0
0.0039276 0.0459622 -0.0084885 255 140 0
0.0061998 0.0459504 -0.0084888 255 140 0
0.0084712 0.0459287 -0.0084892 255 140 0
-0.0733142 0.0480358 -0.0084618 255 140 0
-0.0710421 0.0480838 -0.0084736 255 140 0
-0.0687704 0.0481445 -0.0084782 255 140 0
-0.0664987 0.0481871 -0.0084792 255 140 0
-0.0642270 0.0482208 -0.0084778 255 140 0
-0.0619553 0.0482543 -0.0084757 255 140 0
-0.0596833 0.0482840 -0.0084739 255 140 0
-0.0574110 0.0483191 -0.0084722 255 140 0
-0.0551390 0.0483387 -0.0084715 255 140 0
-0.0528671 0.0483456 -0.0084733 255 140 0
-0.0505953 0.0483489 -0.0084735 255 140 0
-0.0483236 0.0483492 -0.0084732 255 140 0
-0.0460517 0.0483487 -0.0084736 255 140 0
-0.0437800 0.0483472 -0.0084746 255 140 0
-0.0415082 0.0483450 -0.0084764 255 140 0
-0.0392365 0.0483424 -0.0084781 255 140 0
-0.0369650 0.0483349 -0.0084789 255 140 0
-0.0346935 0.0483294 -0.0084794 255 140 0
-0.0324216 0.0483272 -0.0084794 255 140 0
-0.0301501 0.0483243 -0.0084797 255 140 0
-0.0278783 0.0483203 -0.0084802 255 140 0
-0.0256066 0.0483169 -0.0084810 255 140 0
-0.0233350 0.0483139 -0.0084823 255 140 0
-0.0210631 0.0483105 -0.0084837 255 140 0
-0.0187911 0.0483061 -0.0084846 255 140 0
-0.0165194 0.0483000 -0.0084853 255 140 0
-0.0142479 0.0482952 -0.0084847 255 140 0
-0.0119773 0.0482858 -0.0084858 255 140 0
-0.0097057 0.0482791 -0.0084858 255 140 0
-0.0074325 0.0482769 -0.0084852 255 140 0
-0.0051605 0.0482716 -0.0084840 255 140 0
-0.0028887 0.0482636 -0.0084822 255 140 0
-0.0006171 0.0482540 -0.0084822 255 140 0
0.0016547 0.0482439 -0.0084829 255 140 0
0.0039270 0.0482361 -0.0084818 255 140 0
0.0061996 0.0482232 -0.0084800 255 140 0
0.0084712 0.0481945 -0.0084798 255 140 0
0.0107447 0.0481744 -0.0084857 255 140 0
-0.0755860 0.0502710 -0.0084595 255 140 0
-0.0733142 0.0503060 -0.0084722 255 140 0
-0.0710423 0.0503486 -0.0084791 255 140 0
-0.0687704 0.0503932 -0.0084806 255 140 0
-0.0664987 0.0504257 -0.0084795 255 140 0
-0.0642269 0.0504534 -0.0084777 255 140 0
-0.0619550 0.0504807 -0.0084753 255 140 0
-0.0596830 0.0505074 -0.0084735 255 140 0
