ply
format ascii 1.0
element vertex 1170
property float x
property float y
property float z
property uchar red
property uchar green
property uchar blue
end_header
0.0243926 0.1169843 0.0184893 255 140 0
-0.0824184 0.1191668 0.0186767 255 140 0
-0.0801317 0.1191913 0.0185066 255 140 0
-0.0778555 0.1191990 0.0184619 255 140 0
-0.0755826 0.1192031 0.0184343 255 140 0
-0.0733105 0.1192047 0.0184234 255 140 0
-0.0710384 0.1192058 0.0184155 255 140 0
-0.0687662 0.1192069 0.0184116 255 140 0
-0.0664941 0.1192091 0.0184077 255 140 0
-0.0642222 0.1192119 0.0184046 255 140 0
-0.0619511 0.1192168 0.0184015 255 140 0
-0.0596810 0.1192205 0.0183990 255 140 0
-0.0574071 0.1192229 0.0183977 255 140 0
-0.0551348 0.1192251 0.0183959 255 140 0
-0.0528629 0.1192277 0.0183938 255 140 0
-0.0505909 0.1192302 0.0183917 255 140 0
-0.0483190 0.1192322 0.0183896 255 140 0
-0.0460471 0.1192340 0.0183874 255 140 0
-0.0437751 0.1192364 0.0183852 255 140 0
-0.0415036 0.1192394 0.0183828 255 140 0
-0.0392320 0.1192425 0.0183806 255 140 0
-0.0369613 0.1192466 0.0183782 255 140 0
-0.0346909 0.1192501 0.0183764 255 140 0
-0.0324175 0.1192528 0.0183758 255 140 0
-0.0301452 0.1192556 0.0183753 255 140 0
-0.0278733 0.1192582 0.0183757 255 140 0
-0.0256011 0.1192603 0.0183757 255 140 0
-0.0233291 0.1192632 0.0183748 255 140 0
-0.0210568 0.1192661 0.0183738 255 140 0
-0.0187824 0.1192690 0.0183728 255 140 0
-0.0165131 0.1192725 0.0183717 255 140 0
-0.0142402 0.1192761 0.0183706 255 140 0
-0.0119726 0.1192808 0.0183688 255 140 0
-0.0097027 0.1192848 0.0183673 255 140 0
-0.0074279 0.1192872 0.0183663 255 140 0
-0.0051547 0.1192903 0.0183653 255 140 0
-0.0028823 0.1192939 0.0183641 255 140 0
-0.0006101 0.1192973 0.0183631 255 140 0
0.0016621 0.1193009 0.0183621 255 140 0
0.0039345 0.1193044 0.0183614 255 140 0
0.0062069 0.1193076 0.0183611 255 140 0
0.0084787 0.1193109 0.0183615 255 140 0
0.0107507 0.1193132 0.0183642 255 140 0
0.0130186 0.1193178 0.0183672 255 140 0
0.0152902 0.1193202 0.0183780 255 140 0
0.0175648 0.1193204 0.0183899 255 140 0
0.0198409 0.1193174 0.0184189 255 140 0
0.0221173 0.1193116 0.0184682 255 140 0
-0.0801301 0.1215276 0.0184600 255 140 0
-0.0778539 0.1215367 0.0184156 255 140 0
-0.0755813 0.1215432 0.0183880 255 140 0
-0.0733086 0.1215471 0.0183750 255 140 0
-0.0710365 0.1215505 0.0183666 255 140 0
-0.0687642 0.1215538 0.0183611 255 140 0
-0.0664924 0.1215571 0.0183569 255 140 0
-0.0642205 0.1215606 0.0183536 255 140 0
-0.0619494 0.1215639 0.0183499 255 140 0
-0.0596787 0.1215664 0.0183471 255 140 0
-0.0574055 0.1215677 0.0183456 255 140 0
-0.0551333 0.1215691 0.0183437 255 140 0
-0.0528614 0.1215710 0.0183415 255 140 0
-0.0505895 0.1215728 0.0183390 255 140 0
-0.0483176 0.1215750 0.0183363 255 140 0
-0.0460457 0.1215767 0.0183334 255 140 0
-0.0437739 0.1215791 0.0183305 255 140 0
-0.0415023 0.1215812 0.0183276 255 140 0
-0.0392306 0.1215834 0.0183250 255 140 0
-0.0369597 0.1215851 0.0183217 255 140 0
-0.0346889 0.1215870 0.0183192 255 140 0
-0.0324160 0.1215888 0.0183179 255 140 0
-0.0301438 0.1215910 0.0183166 255 140 0
-0.0278719 0.1215936 0.0183153 255 140 0
-0.0255998 0.1215959 0.0183138 255 140 0
-0.0233279 0.1215976 0.0183121 255 140 0
-0.0210557 0.1215993 0.0183104 255 140 0
-0.0187837 0.1216013 0.0183085 255 140 0
-0.0165120 0.1216035 0.0183065 255 140 0
-0.0142391 0.1216057 0.0183047 255 140 0
-0.0119711 0.1216082 0.0183018 255 140 0
-0.0096999 0.1216106 0.0182995 255 140 0
-0.0074266 0.1216123 0.0182982 255 140 0
-0.0051535 0.1216142 0.0182967 255 140 0
-0.0028813 0.1216163 0.0182949 255 140 0
-0.0006092 0.1216184 0.0182933 255 140 0
0.0016628 0.1216207 0.0182917 255 140 0
0.0039350 0.1216231 0.0182905 255 140 0
0.0062070 0.1216257 0.0182899 255 140 0
0.0084795 0.1216284 0.0182901 255 140 0
0.0107514 0.1216304 0.0182933 255 140 0
0.0130207 0.1216341 0.0182967 255 140 0
0.0152912 0.1216356 0.0183064 255 140 0
0.0175656 0.1216361 0.0183218 255 140 0
0.0198416 0.1216307 0.0183419 255 140 0
-0.0801289 0.1238525 0.0184263 255 140 0
-0.0778526 0.1238641 0.0183765 255 140 0
-0.0755797 0.1238726 0.0183463 255 140 0
-0.0733074 0.1238781 0.0183315 255 140 0
-0.0710348 0.1238823 0.0183216 255 140 0
-0.0687626 0.1238863 0.0183151 255 140 0
-0.0664908 0.1238897 0.0183103 255 140 0
-0.0642191 0.1238925 0.0183066 255 140 0
-0.0619479 0.1238949 0.0183023 255 140 0
-0.0596769 0.1238967 0.0182990 255 140 0
-0.0574041 0.1238972 0.0182974 255 140 0
-0.0551321 0.1238980 0.0182955 255 140 0
-0.0528602 0.1238994 0.0182933 255 140 0
-0.0505884 0.1239010 0.0182895 255 140 0
-0.0483166 0.1239026 0.0182865 255 140 0
-0.0460448 0.1239043 0.0182833 255 140 0
-0.0437730 0.1239065 0.0182802 255 140 0
-0.0415014 0.1239085 0.0182772 255 140 0
-0.0392297 0.1239101 0.0182746 255 140 0
-0.0369585 0.1239103 0.0182710 255 140 0
-0.0346873 0.1239109 0.0182682 255 140 0
-0.0324148 0.1239120 0.0182667 255 140 0
-0.0301427 0.1239138 0.0182650 255 140 0
-0.0278707 0.1239160 0.0182632 255 140 0
-0.0255988 0.1239181 0.0182612 255 140 0
-0.0233269 0.1239195 0.0182592 255 140 0
-0.0210548 0.1239209 0.0182571 255 140 0
-0.0187829 0.1239221 0.0182549 255 140 0
-0.0165112 0.1239235 0.0182527 255 140 0
-0.0142395 0.1239248 0.0182505 255 140 0
-0.0119688 0.1239260 0.0182473 255 140 0
-0.0096988 0.1239274 0.0182447 255 140 0
-0.0074249 0.1239285 0.0182432 255 140 0
-0.0051527 0.1239300 0.0182415 255 140 0
-0.0028804 0.1239312 0.0182396 255 140 0
-0.0006085 0.1239325 0.0182377 255 140 0
0.0016635 0.1239341 0.0182360 255 140 0
0.0039357 0.1239362 0.0182347 255 140 0
0.0062076 0.1239386 0.0182342 255 140 0
0.0084788 0.1239416 0.0182350 255 140 0
0.0107507 0.1239444 0.0182391 255 140 0
0.0130216 0.1239491 0.0182461 255 140 0
0.0152933 0.1239511 0.0182573 255 140 0
0.0175664 0.1239527 0.0182762 255 140 0
0.0198424 0.1239465 0.0182924 255 140 0
-0.0778532 0.1261695 0.0183396 255 140 0
-0.0755786 0.1261805 0.0183045 255 140 0
-0.0733062 0.1261839 0.0182859 255 140 0
-0.0710340 0.1261871 0.0182737 255 140 0
-0.0687621 0.1261896 0.0182660 255 140 0
-0.0664903 0.1261918 0.0182602 255 140 0
-0.0642184 0.1261934 0.0182556 255 140 0
-0.0619469 0.1261954 0.0182511 255 140 0
-0.0596755 0.1261971 0.0182477 255 140 0
-0.0574032 0.1261977 0.0182461 255 140 0
-0.0551313 0.1261986 0.0182443 255 140 0
-0.0528594 0.1262001 0.0182423 255 140 0
-0.0505877 0.1262014 0.0182402 255 140 0
-0.0483159 0.1262030 0.0182380 255 140 0
-0.0460440 0.1262045 0.0182359 255 140 0
-0.0437722 0.1262058 0.0182338 255 140 0
-0.0415006 0.1262078 0.0182317 255 140 0
-0.0392290 0.1262096 0.0182298 255 140 0
-0.0369578 0.1262106 0.0182270 255 140 0
-0.0346863 0.1262120 0.0182249 255 140 0
-0.0324141 0.1262136 0.0182237 255 140 0
-0.0301421 0.1262155 0.0182224 255 140 0
-0.0278702 0.1262176 0.0182210 255 140 0
-0.0255984 0.1262200 0.0182195 255 140 0
-0.0233264 0.1262219 0.0182179 255 140 0
-0.0210544 0.1262236 0.0182163 255 140 0
-0.0187825 0.1262251 0.0182146 255 140 0
-0.0165108 0.1262264 0.0182128 255 140 0
-0.0142391 0.1262278 0.0182110 255 140 0
-0.0119681 0.1262293 0.0182080 255 140 0
-0.0096968 0.1262307 0.0182052 255 140 0
-0.0074244 0.1262319 0.0182035 255 140 0
-0.0051522 0.1262335 0.0182019 255 140 0
-0.0028800 0.1262352 0.0182002 255 140 0
-0.0006082 0.1262370 0.0181987 255 140 0
0.0016638 0.1262394 0.0181973 255 140 0
0.0039360 0.1262422 0.0181966 255 140 0
0.0062079 0.1262458 0.0181969 255 140 0
0.0084791 0.1262503 0.0181989 255 140 0
0.0107510 0.1262551 0.0182056 255 140 0
0.0130221 0.1262645 0.0182183 255 140 0
0.0152941 0.1262692 0.0182363 255 140 0
0.0175672 0.1262740 0.0182637 255 140 0
-0.0778525 0.1284789 0.0183169 255 140 0
-0.0755778 0.1284903 0.0182756 255 140 0
-0.0733055 0.1284936 0.0182535 255 140 0
-0.0710331 0.1284950 0.0182384 255 140 0
-0.0687611 0.1284948 0.0182284 255 140 0
-0.0664894 0.1284958 0.0182206 255 140 0
-0.0642175 0.1284959 0.0182149 255 140 0
-0.0619461 0.1284970 0.0182098 255 140 0
-0.0596746 0.1284977 0.0182061 255 140 0
-0.0574025 0.1284984 0.0182046 255 140 0
-0.0551306 0.1284992 0.0182029 255 140 0
-0.0528587 0.1285003 0.0182010 255 140 0
-0.0505870 0.1285015 0.0181993 255 140 0
-0.0483152 0.1285024 0.0181977 255 140 0
-0.0460435 0.1285040 0.0181961 255 140 0
-0.0437717 0.1285052 0.0181946 255 140 0
-0.0415001 0.1285070 0.0181931 255 140 0
-0.0392284 0.1285090 0.0181918 255 140 0
-0.0369571 0.1285109 0.0181897 255 140 0
-0.0346856 0.1285123 0.0181881 255 140 0
-0.0324135 0.1285139 0.0181873 255 140 0
-0.0301416 0.1285152 0.0181863 255 140 0
-0.0278697 0.1285174 0.0181852 255 140 0
-0.0255978 0.1285191 0.0181841 255 140 0
-0.0233259 0.1285212 0.0181829 255 140 0
-0.0210539 0.1285227 0.0181817 255 140 0
-0.0187821 0.1285245 0.0181804 255 140 0
-0.0165104 0.1285263 0.0181790 255 140 0
-0.0142387 0.1285278 0.0181776 255 140 0
-0.0119676 0.1285298 0.0181755 255 140 0
-0.0096960 0.1285314 0.0181738 255 140 0
-0.0074238 0.1285327 0.0181728 255 140 0
-0.0051517 0.1285343 0.0181716 255 140 0
-0.0028799 0.1285359 0.0181702 255 140 0
-0.0006078 0.1285382 0.0181691 255 140 0
0.0016640 0.1285406 0.0181683 255 140 0
0.0039358 0.1285439 0.0181684 255 140 0
0.0062076 0.1285477 0.0181698 255 140 0
0.0084794 0.1285542 0.0181736 255 140 0
0.0107513 0.1285605 0.0181815 255 140 0
0.0130227 0.1285769 0.0182052 255 140 0
0.0152947 0.1285868 0.0182298 255 140 0
-0.0755778 0.1308119 0.0182610 255 140 0
-0.0733047 0.1308143 0.0182349 255 140 0
-0.0710323 0.1308138 0.0182163 255 140 0
-0.0687603 0.1308128 0.0182036 255 140 0
-0.0664885 0.1308114 0.0181943 255 140 0
-0.0642168 0.1308096 0.0181874 255 140 0
-0.0619453 0.1308091 0.0181816 255 140 0
-0.0596736 0.1308086 0.0181775 255 140 0
-0.0574017 0.1308087 0.0181761 255 140 0
-0.0551299 0.1308088 0.0181746 255 140 0
-0.0528582 0.1308093 0.0181729 255 140 0
-0.0505864 0.1308098 0.0181714 255 140 0
-0.0483148 0.1308106 0.0181700 255 140 0
-0.0460431 0.1308112 0.0181686 255 140 0
-0.0437713 0.1308121 0.0181673 255 140 0
-0.0414997 0.1308132 0.0181661 255 140 0
-0.0392280 0.1308146 0.0181651 255 140 0
-0.0369566 0.1308160 0.0181635 255 140 0
-0.0346850 0.1308174 0.0181623 255 140 0
-0.0324130 0.1308186 0.0181618 255 140 0
-0.0301410 0.1308201 0.0181611 255 140 0
-0.0278692 0.1308217 0.0181602 255 140 0
-0.0255974 0.1308236 0.0181594 255 140 0
-0.0233255 0.1308250 0.0181586 255 140 0
-0.0210536 0.1308268 0.0181578 255 140 0
-0.0187818 0.1308280 0.0181569 255 140 0
-0.0165100 0.1308292 0.0181559 255 140 0
-0.0142383 0.1308305 0.0181548 255 140 0
-0.0119670 0.1308325 0.0181534 255 140 0
-0.0096954 0.1308342 0.0181521 255 140 0
-0.0074233 0.1308352 0.0181512 255 140 0
-0.0051513 0.1308361 0.0181503 255 140 0
-0.0028794 0.1308378 0.0181491 255 140 0
-0.0006075 0.1308398 0.0181484 255 140 0
0.0016643 0.1308427 0.0181481 255 140 0
0.0039362 0.1308468 0.0181490 255 140 0
0.0062081 0.1308520 0.0181518 255 140 0
0.0084799 0.1308596 0.0181579 255 140 0
0.0107519 0.1308663 0.0181657 255 140 0
0.0130234 0.1308939 0.0182053 255 140 0
0.0152955 0.1309125 0.0182360 255 140 0
-0.0733040 0.1331405 0.0182357 255 140 0
-0.0710319 0.1331379 0.0182131 255 140 0
-0.0687597 0.1331342 0.0181980 255 140 0
-0.0664879 0.1331305 0.0181865 255 140 0
-0.0642161 0.1331269 0.0181778 255 140 0
-0.0619446 0.1331245 0.0181700 255 140 0
-0.0596730 0.1331235 0.0181646 255 140 0
-0.0574012 0.1331227 0.0181630 255 140 0
-0.0551294 0.1331225 0.0181615 255 140 0
-0.0528576 0.1331225 0.0181598 255 140 0
-0.0505859 0.1331229 0.0181584 255 140 0
-0.0483142 0.1331235 0.0181572 255 140 0
-0.0460425 0.1331238 0.0181561 255 140 0
-0.0437708 0.1331244 0.0181551 255 140 0
-0.0414991 0.1331252 0.0181540 255 140 0
-0.0392274 0.1331263 0.0181531 255 140 0
-0.0369561 0.1331268 0.0181518 255 140 0
-0.0346845 0.1331277 0.0181508 255 140 0
-0.0324125 0.1331288 0.0181504 255 140 0
-0.0301406 0.1331301 0.0181498 255 140 0
-0.0278687 0.1331313 0.0181492 255 140 0
-0.0255969 0.1331329 0.0181485 255 140 0
-0.0233250 0.1331344 0.0181479 255 140 0
-0.0210532 0.1331359 0.0181473 255 140 0
-0.0187813 0.1331372 0.0181466 255 140 0
-0.0165096 0.1331387 0.0181459 255 140 0
-0.0142379 0.1331400 0.0181451 255 140 0
-0.0119664 0.1331425 0.0181442 255 140 0
-0.0096948 0.1331442 0.0181432 255 140 0
-0.0074227 0.1331452 0.0181426 255 140 0
-0.0051507 0.1331464 0.0181418 255 140 0
-0.0028788 0.1331479 0.0181409 255 140 0
-0.0006073 0.1331501 0.0181404 255 140 0
0.0016650 0.1331531 0.0181406 255 140 0
0.0039369 0.1331573 0.0181423 255 140 0
0.0062088 0.1331642 0.0181467 255 140 0
0.0084807 0.1331766 0.0181558 255 140 0
0.0107526 0.1331844 0.0181620 255 140 0
0.0130244 0.1332381 0.0182230 255 140 0
-0.0710314 0.1354212 0.0181839 255 140 0
-0.0687593 0.1354405 0.0181889 255 140 0
-0.0664876 0.1354479 0.0181845 255 140 0
-0.0642159 0.1354452 0.0181749 255 140 0
-0.0619442 0.1354384 0.0181662 255 140 0
-0.0596727 0.1354348 0.0181604 255 140 0
-0.0574008 0.1354335 0.0181583 255 140 0
-0.0551290 0.1354323 0.0181563 255 140 0
-0.0528573 0.1354324 0.0181546 255 140 0
-0.0505857 0.1354326 0.0181531 255 140 0
-0.0483139 0.1354328 0.0181520 255 140 0
-0.0460422 0.1354329 0.0181509 255 140 0
-0.0437705 0.1354334 0.0181501 255 140 0
-0.0414989 0.1354342 0.0181491 255 140 0
-0.0392273 0.1354347 0.0181482 255 140 0
-0.0369559 0.1354350 0.0181468 255 140 0
-0.0346841 0.1354357 0.0181458 255 140 0
-0.0324122 0.1354365 0.0181454 255 140 0
-0.0301403 0.1354374 0.0181448 255 140 0
-0.0278684 0.1354385 0.0181442 255 140 0
-0.0255966 0.1354396 0.0181437 255 140 0
-0.0233247 0.1354406 0.0181432 255 140 0
-0.0210528 0.1354419 0.0181426 255 140 0
-0.0187810 0.1354429 0.0181421 255 140 0
-0.0165093 0.1354440 0.0181416 255 140 0
-0.0142375 0.1354456 0.0181411 255 140 0
-0.0119660 0.1354486 0.0181406 255 140 0
-0.0096942 0.1354511 0.0181402 255 140 0
-0.0074222 0.1354523 0.0181400 255 140 0
-0.0051501 0.1354545 0.0181398 255 140 0
-0.0028781 0.1354577 0.0181400 255 140 0
-0.0006065 0.1354624 0.0181409 255 140 0
0.0016658 0.1354683 0.0181426 255 140 0
0.0039381 0.1354781 0.0181460 255 140 0
0.0062136 0.1354877 0.0181508 255 140 0
0.0084811 0.1354928 0.0181584 255 140 0
0.0107540 0.1354842 0.0181593 255 140 0
-0.0687595 0.1377596 0.0182037 255 140 0
-0.0664876 0.1377432 0.0181661 255 140 0
-0.0642157 0.1377331 0.0181384 255 140 0
-0.0619440 0.1377254 0.0181406 255 140 0
-0.0596723 0.1377197 0.0181413 255 140 0
-0.0574006 0.1377169 0.0181395 255 140 0
-0.0551288 0.1377142 0.0181380 255 140 0
-0.0528571 0.1377124 0.0181367 255 140 0
-0.0505854 0.1377111 0.0181352 255 140 0
-0.0483137 0.1377104 0.0181339 255 140 0
-0.0460420 0.1377098 0.0181327 255 140 0
-0.0437703 0.1377096 0.0181318 255 140 0
-0.0414987 0.1377096 0.0181309 255 140 0
-0.0392270 0.1377099 0.0181302 255 140 0
-0.0369557 0.1377101 0.0181292 255 140 0
-0.0346841 0.1377107 0.0181285 255 140 0
-0.0324121 0.1377112 0.0181283 255 140 0
-0.0301402 0.1377121 0.0181280 255 140 0
-0.0278683 0.1377129 0.0181277 255 140 0
-0.0255965 0.1377140 0.0181274 255 140 0
-0.0233246 0.1377153 0.0181271 255 140 0
-0.0210528 0.1377164 0.0181269 255 140 0
-0.0187810 0.1377177 0.0181268 255 140 0
-0.0165092 0.1377195 0.0181267 255 140 0
-0.0142375 0.1377214 0.0181266 255 140 0
-0.0119659 0.1377249 0.0181269 255 140 0
-0.0096941 0.1377279 0.0181270 255 140 0
-0.0074221 0.1377295 0.0181269 255 140 0
-0.0051499 0.1377312 0.0181258 255 140 0
-0.0028777 0.1377323 0.0181240 255 140 0
-0.0006050 0.1377316 0.0181201 255 140 0
0.0016682 0.1377297 0.0181148 255 140 0
0.0039437 0.1377304 0.0181115 255 140 0
0.0062171 0.1377395 0.0181166 255 140 0
0.0084918 0.1377693 0.0181401 255 140 0
-0.0642179 0.1400066 0.0178997 255 140 0
-0.0619452 0.1400034 0.0179978 255 140 0
-0.0596723 0.1399924 0.0181165 255 140 0
-0.0574005 0.1399834 0.0181198 255 140 0
-0.0551287 0.1399949 0.0181210 255 140 0
-0.0528571 0.1399884 0.0181192 255 140 0
-0.0505854 0.1399825 0.0181170 255 140 0
-0.0483137 0.1399784 0.0181146 255 140 0
-0.0460421 0.1399759 0.0181127 255 140 0
-0.0437704 0.1399746 0.0181113 255 140 0
-0.0414987 0.1399738 0.0181101 255 140 0
-0.0392271 0.1399732 0.0181093 255 140 0
-0.0369556 0.1399733 0.0181084 255 140 0
-0.0346840 0.1399733 0.0181079 255 140 0
-0.0324121 0.1399738 0.0181078 255 140 0
-0.0301402 0.1399744 0.0181078 255 140 0
-0.0278684 0.1399749 0.0181078 255 140 0
-0.0255966 0.1399756 0.0181079 255 140 0
-0.0233248 0.1399765 0.0181080 255 140 0
-0.0210529 0.1399777 0.0181082 255 140 0
-0.0187811 0.1399790 0.0181085 255 140 0
-0.0165094 0.1399812 0.0181090 255 140 0
-0.0142375 0.1399836 0.0181095 255 140 0
-0.0119659 0.1399876 0.0181107 255 140 0
-0.0096939 0.1399909 0.0181108 255 140 0
-0.0074217 0.1399943 0.0181109 255 140 0
-0.0051483 0.1399943 0.0181068 255 140 0
-0.0028735 0.1399921 0.0180996 255 140 0
-0.0005974 0.1399736 0.0180789 255 140 0
0.0016813 0.1399255 0.0180451 255 140 0
0.0039555 0.1397968 0.0179068 255 140 0
0.0062412 0.1397528 0.0178111 255 140 0
-0.0619406 0.1422729 0.0184199 255 140 0
-0.0596717 0.1422696 0.0181647 255 140 0
-0.0574002 0.1422634 0.0181399 255 140 0
-0.0551286 0.1422578 0.0181229 255 140 0
-0.0528570 0.1422520 0.0181143 255 140 0
-0.0505854 0.1422479 0.0181079 255 140 0
-0.0483137 0.1422446 0.0181035 255 140 0
-0.0460421 0.1422416 0.0181003 255 140 0
-0.0437704 0.1422392 0.0180981 255 140 0
-0.0414988 0.1422374 0.0180963 255 140 0
-0.0392272 0.1422367 0.0180950 255 140 0
-0.0369557 0.1422362 0.0180939 255 140 0
-0.0346840 0.1422362 0.0180931 255 140 0
-0.0324122 0.1422368 0.0180930 255 140 0
-0.0301403 0.1422372 0.0180930 255 140 0
-0.0278685 0.1422377 0.0180929 255 140 0
-0.0255967 0.1422384 0.0180930 255 140 0
-0.0233249 0.1422396 0.0180932 255 140 0
-0.0210531 0.1422409 0.0180937 255 140 0
-0.0187813 0.1422427 0.0180945 255 140 0
-0.0165096 0.1422448 0.0180961 255 140 0
-0.0142380 0.1422499 0.0180992 255 140 0
-0.0119666 0.1422568 0.0181041 255 140 0
-0.0096953 0.1422658 0.0181121 255 140 0
-0.0074239 0.1422752 0.0181208 255 140 0
-0.0051529 0.1422930 0.0181385 255 140 0
-0.0028843 0.1423163 0.0181632 255 140 0
-0.0006180 0.1423775 0.0182194 255 140 0
0.0016435 0.1424755 0.0183170 255 140 0
0.0038968 0.1425665 0.0185501 255 140 0
-0.0596727 0.1445538 0.0181939 255 140 0
-0.0573999 0.1445326 0.0181543 255 140 0
-0.0551284 0.1445288 0.0181269 255 140 0
-0.0528569 0.1445241 0.0181128 255 140 0
-0.0505853 0.1445180 0.0181020 255 140 0
-0.0483137 0.1445121 0.0180947 255 140 0
-0.0460421 0.1445071 0.0180896 255 140 0
-0.0437704 0.1445030 0.0180860 255 140 0
-0.0414988 0.1445004 0.0180830 255 140 0
-0.0392272 0.1444980 0.0180806 255 140 0
-0.0369557 0.1444961 0.0180786 255 140 0
-0.0346841 0.1444951 0.0180773 255 140 0
-0.0324122 0.1444954 0.0180771 255 140 0
-0.0301404 0.1444959 0.0180770 255 140 0
-0.0278686 0.1444966 0.0180771 255 140 0
-0.0255968 0.1444976 0.0180774 255 140 0
-0.0233250 0.1444993 0.0180780 255 140 0
-0.0210532 0.1445013 0.0180789 255 140 0
-0.0187815 0.1445046 0.0180805 255 140 0
-0.0165099 0.1445085 0.0180836 255 140 0
-0.0142383 0.1445158 0.0180891 255 140 0
-0.0119671 0.1445263 0.0180972 255 140 0
-0.0096961 0.1445402 0.0181109 255 140 0
-0.0074270 0.1445557 0.0181261 255 140 0
-0.0051587 0.1445842 0.0181566 255 140 0
-0.0028920 0.1445121 0.0181936 255 140 0
-0.0006302 0.1445960 0.0182773 255 140 0
-0.0551284 0.1468470 0.0181418 255 140 0
-0.0528568 0.1468209 0.0181209 255 140 0
-0.0505853 0.1467996 0.0181041 255 140 0
-0.0483138 0.1467844 0.0180914 255 140 0
-0.0460423 0.1467730 0.0180826 255 140 0
-0.0437706 0.1467646 0.0180765 255 140 0
-0.0414990 0.1467580 0.0180716 255 140 0
-0.0392274 0.1467535 0.0180678 255 140 0
-0.0369559 0.1467498 0.0180647 255 140 0
-0.0346842 0.1467476 0.0180627 255 140 0
-0.0324124 0.1467473 0.0180623 255 140 0
-0.0301405 0.1467475 0.0180622 255 140 0
-0.0278687 0.1467483 0.0180625 255 140 0
-0.0255970 0.1467496 0.0180631 255 140 0
-0.0233252 0.1467518 0.0180641 255 140 0
-0.0210534 0.1467547 0.0180655 255 140 0
-0.0187816 0.1467589 0.0180678 255 140 0
-0.0165099 0.1467644 0.0180717 255 140 0
-0.0142382 0.1467738 0.0180781 255 140 0
-0.0119667 0.1467875 0.0180878 255 140 0
-0.0096951 0.1468061 0.0181008 255 140 0
-0.0074235 0.1468275 0.0181168 255 140 0
-0.0051517 0.1468552 0.0181360 255 140 0
-0.0505854 0.1490789 0.0181045 255 140 0
-0.0483138 0.1490546 0.0180878 255 140 0
-0.0460422 0.1490376 0.0180761 255 140 0
-0.0437706 0.1490256 0.0180678 255 140 0
-0.0414990 0.1490157 0.0180605 255 140 0
-0.0392274 0.1490086 0.0180547 255 140 0
-0.0369559 0.1490018 0.0180497 255 140 0
-0.0346842 0.1489976 0.0180466 255 140 0
-0.0324125 0.1489972 0.0180460 255 140 0
-0.0301406 0.1489974 0.0180461 255 140 0
-0.0278689 0.1489987 0.0180469 255 140 0
-0.0255971 0.1490008 0.0180480 255 140 0
-0.0233253 0.1490038 0.0180497 255 140 0
-0.0210535 0.1490079 0.0180519 255 140 0
-0.0187817 0.1490139 0.0180554 255 140 0
-0.0165100 0.1490222 0.0180612 255 140 0
-0.0142382 0.1490348 0.0180698 255 140 0
-0.0119665 0.1490536 0.0180815 255 140 0
-0.0096947 0.1490761 0.0180952 255 140 0
-0.0460422 0.1513078 0.0180709 255 140 0
-0.0437706 0.1512924 0.0180607 255 140 0
-0.0414990 0.1512767 0.0180499 255 140 0
-0.0392275 0.1512623 0.0180404 255 140 0
-0.0369559 0.1512497 0.0180319 255 140 0
-0.0346843 0.1512420 0.0180268 255 140 0
-0.0324126 0.1512411 0.0180262 255 140 0
-0.0301408 0.1512420 0.0180267 255 140 0
-0.0278690 0.1512448 0.0180285 255 140 0
-0.0255972 0.1512488 0.0180308 255 140 0
-0.0233255 0.1512538 0.0180338 255 140 0
-0.0210537 0.1512600 0.0180376 255 140 0
-0.0187819 0.1512697 0.0180434 255 140 0
-0.0165101 0.1512868 0.0180533 255 140 0
-0.0346843 0.1534964 0.0180141 255 140 0
-0.0324126 0.1534958 0.0180137 255 140 0
-0.0415061 0.0349253 0.0206093 255 140 0
-0.0392341 0.0349416 0.0205750 255 140 0
-0.0369627 0.0349481 0.0205642 255 140 0
-0.0346950 0.0349501 0.0205588 255 140 0
-0.0324190 0.0349499 0.0205585 255 140 0
-0.0301471 0.0349489 0.0205603 255 140 0
-0.0278754 0.0349472 0.0205649 255 140 0
-0.0256037 0.0349440 0.0205711 255 140 0
-0.0233303 0.0349391 0.0205820 255 140 0
-0.0210584 0.0349287 0.0205981 255 140 0
-0.0187868 0.0349192 0.0206177 255 140 0
-0.0505960 0.0371998 0.0206069 255 140 0
-0.0483210 0.0372111 0.0205878 255 140 0
-0.0460489 0.0372181 0.0205719 255 140 0
-0.0437769 0.0372250 0.0205567 255 140 0
-0.0415052 0.0372328 0.0205395 255 140 0
-0.0392333 0.0372397 0.0205240 255 140 0
-0.0369619 0.0372437 0.0205144 255 140 0
-0.0346942 0.0372461 0.0205097 255 140 0
-0.0324184 0.0372458 0.0205100 255 140 0
-0.0301466 0.0372449 0.0205115 255 140 0
-0.0278747 0.0372433 0.0205144 255 140 0
-0.0256029 0.0372410 0.0205184 255 140 0
-0.0233312 0.0372382 0.0205250 255 140 0
-0.0210576 0.0372345 0.0205321 255 140 0
-0.0187861 0.0372296 0.0205430 255 140 0
-0.0165145 0.0372233 0.0205566 255 140 0
-0.0142428 0.0372161 0.0205720 255 140 0
-0.0119751 0.0372023 0.0205967 255 140 0
-0.0097048 0.0371916 0.0206199 255 140 0
-0.0551402 0.0394924 0.0205662 255 140 0
-0.0528681 0.0395066 0.0205408 255 140 0
-0.0505920 0.0395146 0.0205236 255 140 0
-0.0483199 0.0395201 0.0205115 255 140 0
-0.0460478 0.0395244 0.0205023 255 140 0
-0.0437760 0.0395308 0.0204942 255 140 0
-0.0415043 0.0395344 0.0204854 255 140 0
-0.0392325 0.0395375 0.0204792 255 140 0
-0.0369613 0.0395400 0.0204726 255 140 0
-0.0346937 0.0395412 0.0204696 255 140 0
-0.0324177 0.0395410 0.0204698 255 140 0
-0.0301459 0.0395406 0.0204704 255 140 0
-0.0278742 0.0395398 0.0204716 255 140 0
-0.0256025 0.0395387 0.0204735 255 140 0
-0.0233308 0.0395373 0.0204762 255 140 0
-0.0210570 0.0395353 0.0204810 255 140 0
-0.0187853 0.0395326 0.0204857 255 140 0
-0.0165137 0.0395270 0.0204936 255 140 0
-0.0142425 0.0395222 0.0205022 255 140 0
-0.0119741 0.0395153 0.0205178 255 140 0
-0.0097038 0.0395080 0.0205340 255 140 0
-0.0074292 0.0395014 0.0205487 255 140 0
-0.0051553 0.0394875 0.0205720 255 140 0
-0.0596851 0.0417426 0.0206114 255 140 0
-0.0574124 0.0417619 0.0205742 255 140 0
-0.0551399 0.0417733 0.0205493 255 140 0
-0.0528639 0.0417796 0.0205360 255 140 0
-0.0505920 0.0417859 0.0205280 255 140 0
-0.0483200 0.0417887 0.0205215 255 140 0
-0.0460481 0.0417906 0.0205177 255 140 0
-0.0437763 0.0417923 0.0205130 255 140 0
-0.0415047 0.0417939 0.0205100 255 140 0
-0.0392330 0.0417953 0.0205075 255 140 0
-0.0369619 0.0417966 0.0205040 255 140 0
-0.0346944 0.0417973 0.0205018 255 140 0
-0.0324183 0.0417971 0.0205018 255 140 0
-0.0301465 0.0417968 0.0205020 255 140 0
-0.0278747 0.0417964 0.0205025 255 140 0
-0.0256030 0.0417957 0.0205033 255 140 0
-0.0233313 0.0417950 0.0205047 255 140 0
-0.0210575 0.0417941 0.0205073 255 140 0
-0.0187858 0.0417925 0.0205093 255 140 0
-0.0165141 0.0417908 0.0205120 255 140 0
-0.0142434 0.0417888 0.0205170 255 140 0
-0.0119743 0.0417854 0.0205233 255 140 0
-0.0097038 0.0417810 0.0205314 255 140 0
-0.0074298 0.0417764 0.0205381 255 140 0
-0.0051563 0.0417710 0.0205495 255 140 0
-0.0028833 0.0417634 0.0205664 255 140 0
-0.0006099 0.0417489 0.0205961 255 140 0
-0.0642244 0.0440017 0.0206385 255 140 0
-0.0619564 0.0440275 0.0205846 255 140 0
-0.0596841 0.0440467 0.0205498 255 140 0
-0.0574120 0.0440504 0.0205419 255 140 0
-0.0551360 0.0440532 0.0205356 255 140 0
-0.0528639 0.0440551 0.0205325 255 140 0
-0.0505921 0.0440567 0.0205288 255 140 0
-0.0483203 0.0440578 0.0205274 255 140 0
-0.0460483 0.0440586 0.0205253 255 140 0
-0.0437765 0.0440594 0.0205242 255 140 0
-0.0415048 0.0440598 0.0205235 255 140 0
-0.0392331 0.0440608 0.0205230 255 140 0
-0.0369622 0.0440628 0.0205220 255 140 0
-0.0346948 0.0440630 0.0205214 255 140 0
-0.0324186 0.0440628 0.0205214 255 140 0
-0.0301467 0.0440626 0.0205214 255 140 0
-0.0278749 0.0440624 0.0205215 255 140 0
-0.0256032 0.0440621 0.0205216 255 140 0
-0.0233314 0.0440616 0.0205218 255 140 0
-0.0210595 0.0440603 0.0205220 255 140 0
-0.0187859 0.0440583 0.0205224 255 140 0
-0.0165143 0.0440576 0.0205231 255 140 0
-0.0142435 0.0440565 0.0205240 255 140 0
-0.0119745 0.0440554 0.0205266 255 140 0
-0.0097040 0.0440541 0.0205282 255 140 0
-0.0074299 0.0440534 0.0205307 255 140 0
-0.0051568 0.0440517 0.0205344 255 140 0
-0.0028840 0.0440492 0.0205405 255 140 0
-0.0006113 0.0440390 0.0205569 255 140 0
0.0016617 0.0440252 0.0205862 255 140 0
-0.0664967 0.0462612 0.0206636 255 140 0
-0.0642239 0.0463000 0.0205854 255 140 0
-0.0619557 0.0463199 0.0205452 255 140 0
-0.0596835 0.0463357 0.0205177 255 140 0
-0.0574072 0.0463394 0.0205105 255 140 0
-0.0551350 0.0463424 0.0205054 255 140 0
-0.0528632 0.0463447 0.0205016 255 140 0
-0.0505914 0.0463465 0.0204976 255 140 0
-0.0483196 0.0463476 0.0204961 255 140 0
-0.0460478 0.0463483 0.0204951 255 140 0
-0.0437760 0.0463488 0.0204944 255 140 0
-0.0415044 0.0463492 0.0204938 255 140 0
-0.0392327 0.0463496 0.0204932 255 140 0
-0.0369617 0.0463499 0.0204918 255 140 0
-0.0346943 0.0463500 0.0204910 255 140 0
-0.0324182 0.0463499 0.0204909 255 140 0
-0.0301464 0.0463497 0.0204910 255 140 0
-0.0278746 0.0463494 0.0204910 255 140 0
-0.0256028 0.0463491 0.0204911 255 140 0
-0.0233310 0.0463488 0.0204913 255 140 0
-0.0210591 0.0463483 0.0204916 255 140 0
-0.0187854 0.0463479 0.0204924 255 140 0
-0.0165157 0.0463470 0.0204937 255 140 0
-0.0142431 0.0463460 0.0204946 255 140 0
-0.0119741 0.0463448 0.0204958 255 140 0
-0.0097037 0.0463436 0.0204976 255 140 0
-0.0074300 0.0463425 0.0204995 255 140 0
-0.0051571 0.0463402 0.0205044 255 140 0
-0.0028848 0.0463370 0.0205104 255 140 0
-0.0006124 0.0463287 0.0205234 255 140 0
0.0016602 0.0463188 0.0205434 255 140 0
0.0039334 0.0463035 0.0205762 255 140 0
-0.0687685 0.0485361 0.0206624 255 140 0
-0.0664956 0.0485686 0.0205939 255 140 0
-0.0642224 0.0485912 0.0205469 255 140 0
-0.0619552 0.0486069 0.0205172 255 140 0
-0.0596833 0.0486185 0.0204975 255 140 0
-0.0574069 0.0486215 0.0204925 255 140 0
-0.0551348 0.0486244 0.0204883 255 140 0
-0.0528629 0.0486269 0.0204834 255 140 0
-0.0505911 0.0486287 0.0204809 255 140 0
-0.0483193 0.0486298 0.0204796 255 140 0
-0.0460475 0.0486305 0.0204786 255 140 0
-0.0437757 0.0486309 0.0204781 255 140 0
-0.0415041 0.0486312 0.0204777 255 140 0
-0.0392324 0.0486313 0.0204774 255 140 0
-0.0369615 0.0486314 0.0204768 255 140 0
-0.0346943 0.0486314 0.0204762 255 140 0
-0.0324178 0.0486312 0.0204761 255 140 0
-0.0301459 0.0486310 0.0204761 255 140 0
-0.0278742 0.0486308 0.0204761 255 140 0
-0.0256025 0.0486305 0.0204763 255 140 0
-0.0233307 0.0486301 0.0204766 255 140 0
-0.0210589 0.0486298 0.0204768 255 140 0
-0.0187852 0.0486294 0.0204771 255 140 0
-0.0165155 0.0486287 0.0204777 255 140 0
-0.0142429 0.0486279 0.0204785 255 140 0
-0.0119739 0.0486269 0.0204795 255 140 0
-0.0097036 0.0486255 0.0204811 255 140 0
-0.0074303 0.0486245 0.0204829 255 140 0
-0.0051574 0.0486224 0.0204867 255 140 0
-0.0028852 0.0486190 0.0204932 255 140 0
-0.0006131 0.0486143 0.0205020 255 140 0
0.0016592 0.0486062 0.0205153 255 140 0
0.0039320 0.0485958 0.0205356 255 140 0
0.0062050 0.0485826 0.0205636 255 140 0
0.0084787 0.0485636 0.0206008 255 140 0
-0.0687674 0.0508369 0.0206030 255 140 0
-0.0664947 0.0508580 0.0205585 255 140 0
-0.0642221 0.0508749 0.0205282 255 140 0
-0.0619549 0.0508847 0.0205094 255 140 0
-0.0596832 0.0508915 0.0204966 255 140 0
-0.0574069 0.0508933 0.0204939 255 140 0
-0.0551348 0.0508952 0.0204915 255 140 0
-0.0528629 0.0508970 0.0204893 255 140 0
-0.0505911 0.0508981 0.0204872 255 140 0
-0.0483194 0.0508989 0.0204859 255 140 0
-0.0460476 0.0508995 0.0204853 255 140 0
-0.0437758 0.0508998 0.0204849 255 140 0
-0.0415041 0.0508999 0.0204847 255 140 0
-0.0392325 0.0508999 0.0204846 255 140 0
-0.0369615 0.0508999 0.0204840 255 140 0
-0.0346943 0.0509000 0.0204837 255 140 0
-0.0324180 0.0508998 0.0204837 255 140 0
-0.0301462 0.0508996 0.0204837 255 140 0
-0.0278745 0.0508993 0.0204837 255 140 0
-0.0256026 0.0508990 0.0204838 255 140 0
-0.0233308 0.0508987 0.0204838 255 140 0
-0.0210590 0.0508984 0.0204840 255 140 0
-0.0187854 0.0508980 0.0204842 255 140 0
-0.0165156 0.0508975 0.0204847 255 140 0
-0.0142429 0.0508968 0.0204852 255 140 0
-0.0119740 0.0508961 0.0204860 255 140 0
-0.0097037 0.0508951 0.0204873 255 140 0
-0.0074304 0.0508942 0.0204887 255 140 0
-0.0051574 0.0508929 0.0204914 255 140 0
-0.0028852 0.0508910 0.0204947 255 140 0
-0.0006130 0.0508882 0.0204998 255 140 0
0.0016592 0.0508842 0.0205081 255 140 0
0.0039317 0.0508788 0.0205193 255 140 0
0.0062043 0.0508693 0.0205352 255 140 0
0.0084771 0.0508572 0.0205596 255 140 0
0.0107543 0.0508818 0.0205119 255 140 0
-0.0710392 0.0531116 0.0206038 255 140 0
-0.0687662 0.0531309 0.0205621 255 140 0
-0.0664940 0.0531459 0.0205345 255 140 0
-0.0642221 0.0531547 0.0205163 255 140 0
-0.0619549 0.0531616 0.0205043 255 140 0
-0.0596834 0.0531662 0.0204972 255 140 0
-0.0574070 0.0531674 0.0204960 255 140 0
-0.0551348 0.0531687 0.0204938 255 140 0
-0.0528631 0.0531698 0.0204923 255 140 0
-0.0505913 0.0531709 0.0204914 255 140 0
-0.0483195 0.0531725 0.0204908 255 140 0
-0.0460476 0.0531737 0.0204905 255 140 0
-0.0437759 0.0531739 0.0204904 255 140 0
-0.0415042 0.0531738 0.0204902 255 140 0
-0.0392326 0.0531738 0.0204902 255 140 0
-0.0369617 0.0531738 0.0204898 255 140 0
-0.0346946 0.0531736 0.0204895 255 140 0
-0.0324180 0.0531736 0.0204895 255 140 0
-0.0301461 0.0531734 0.0204895 255 140 0
-0.0278744 0.0531732 0.0204895 255 140 0
-0.0256026 0.0531729 0.0204896 255 140 0
-0.0233309 0.0531727 0.0204896 255 140 0
-0.0210589 0.0531723 0.0204897 255 140 0
-0.0187853 0.0531720 0.0204899 255 140 0
-0.0165155 0.0531716 0.0204902 255 140 0
-0.0142429 0.0531709 0.0204906 255 140 0
-0.0119741 0.0531691 0.0204910 255 140 0
-0.0097037 0.0531680 0.0204916 255 140 0
-0.0074304 0.0531675 0.0204924 255 140 0
-0.0051574 0.0531666 0.0204937 255 140 0
-0.0028851 0.0531654 0.0204958 255 140 0
-0.0006130 0.0531637 0.0204993 255 140 0
0.0016592 0.0531615 0.0205032 255 140 0
0.0039313 0.0531585 0.0205091 255 140 0
0.0062036 0.0531542 0.0205173 255 140 0
0.0084755 0.0531462 0.0205337 255 140 0
0.0107496 0.0531391 0.0205413 255 140 0
0.0130123 0.0530833 0.0206888 255 140 0
-0.0733112 0.0553835 0.0206173 255 140 0
-0.0710386 0.0554045 0.0205702 255 140 0
-0.0687660 0.0554189 0.0205426 255 140 0
-0.0664938 0.0554276 0.0205241 255 140 0
-0.0642219 0.0554339 0.0205112 255 140 0
-0.0619518 0.0554389 0.0205025 255 140 0
-0.0596834 0.0554423 0.0204976 255 140 0
-0.0574066 0.0554433 0.0204968 255 140 0
-0.0551347 0.0554442 0.0204959 255 140 0
-0.0528630 0.0554453 0.0204944 255 140 0
-0.0505912 0.0554460 0.0204935 255 140 0
-0.0483194 0.0554469 0.0204931 255 140 0
-0.0460475 0.0554485 0.0204929 255 140 0
-0.0437757 0.0554485 0.0204927 255 140 0
-0.0415041 0.0554485 0.0204927 255 140 0
-0.0392325 0.0554483 0.0204927 255 140 0
-0.0369615 0.0554482 0.0204924 255 140 0
-0.0346944 0.0554481 0.0204921 255 140 0
-0.0324180 0.0554480 0.0204921 255 140 0
-0.0301461 0.0554479 0.0204921 255 140 0
-0.0278743 0.0554477 0.0204921 255 140 0
-0.0256026 0.0554475 0.0204921 255 140 0
-0.0233307 0.0554473 0.0204922 255 140 0
-0.0210589 0.0554470 0.0204923 255 140 0
-0.0187853 0.0554468 0.0204924 255 140 0
-0.0165155 0.0554464 0.0204926 255 140 0
-0.0142428 0.0554460 0.0204929 255 140 0
-0.0119741 0.0554440 0.0204932 255 140 0
-0.0097037 0.0554434 0.0204937 255 140 0
-0.0074304 0.0554431 0.0204941 255 140 0
-0.0051574 0.0554425 0.0204952 255 140 0
-0.0028853 0.0554418 0.0204968 255 140 0
-0.0006131 0.0554406 0.0204992 255 140 0
0.0016590 0.0554393 0.0205018 255 140 0
0.0039313 0.0554373 0.0205055 255 140 0
0.0062034 0.0554343 0.0205125 255 140 0
0.0084748 0.0554289 0.0205241 255 140 0
0.0107481 0.0554216 0.0205388 255 140 0
0.0130099 0.0553903 0.0206137 255 140 0
0.0152795 0.0553661 0.0206712 255 140 0
-0.0755833 0.0576618 0.0206305 255 140 0
-0.0733104 0.0576820 0.0205805 255 140 0
-0.0710375 0.0576968 0.0205486 255 140 0
-0.0687654 0.0577047 0.0205303 255 140 0
-0.0664937 0.0577105 0.0205173 255 140 0
-0.0642217 0.0577147 0.0205094 255 140 0
-0.0619506 0.0577183 0.0205032 255 140 0
-0.0596831 0.0577210 0.0205000 255 140 0
-0.0574067 0.0577218 0.0204996 255 140 0
-0.0551346 0.0577225 0.0204992 255 140 0
-0.0528626 0.0577233 0.0204983 255 140 0
-0.0505908 0.0577241 0.0204977 255 140 0
-0.0483191 0.0577252 0.0204973 255 140 0
-0.0460474 0.0577262 0.0204971 255 140 0
-0.0437757 0.0577262 0.0204969 255 140 0
-0.0415041 0.0577262 0.0204970 255 140 0
-0.0392324 0.0577261 0.0204971 255 140 0
-0.0369615 0.0577260 0.0204966 255 140 0
-0.0346943 0.0577258 0.0204964 255 140 0
-0.0324179 0.0577258 0.0204964 255 140 0
-0.0301460 0.0577256 0.0204963 255 140 0
-0.0278742 0.0577255 0.0204963 255 140 0
-0.0256024 0.0577254 0.0204963 255 140 0
-0.0233305 0.0577252 0.0204963 255 140 0
-0.0210587 0.0577250 0.0204964 255 140 0
-0.0187851 0.0577248 0.0204965 255 140 0
-0.0165153 0.0577246 0.0204967 255 140 0
-0.0142428 0.0577242 0.0204970 255 140 0
-0.0119741 0.0577225 0.0204972 255 140 0
-0.0097037 0.0577221 0.0204975 255 140 0
-0.0074303 0.0577219 0.0204979 255 140 0
-0.0051572 0.0577214 0.0204986 255 140 0
-0.0028852 0.0577211 0.0204997 255 140 0
-0.0006131 0.0577204 0.0205012 255 140 0
0.0016590 0.0577194 0.0205030 255 140 0
0.0039314 0.0577181 0.0205057 255 140 0
0.0062033 0.0577161 0.0205103 255 140 0
0.0084745 0.0577126 0.0205191 255 140 0
0.0107473 0.0577063 0.0205354 255 140 0
0.0130090 0.0576892 0.0205709 255 140 0
0.0152780 0.0576732 0.0206095 255 140 0
-0.0778650 0.0599427 0.0206564 255 140 0
-0.0755821 0.0599637 0.0205937 255 140 0
-0.0733096 0.0599777 0.0205601 255 140 0
-0.0710370 0.0599858 0.0205376 255 140 0
-0.0687648 0.0599912 0.0205242 255 140 0
-0.0664930 0.0599952 0.0205162 255 140 0
-0.0642214 0.0599981 0.0205096 255 140 0
-0.0619503 0.0600009 0.0205062 255 140 0
-0.0596830 0.0600030 0.0205041 255 140 0
-0.0574065 0.0600036 0.0205039 255 140 0
-0.0551344 0.0600042 0.0205037 255 140 0
-0.0528627 0.0600049 0.0205034 255 140 0
-0.0505909 0.0600053 0.0205029 255 140 0
-0.0483191 0.0600059 0.0205027 255 140 0
-0.0460472 0.0600072 0.0205025 255 140 0
-0.0437755 0.0600075 0.0205024 255 140 0
-0.0415038 0.0600075 0.0205024 255 140 0
-0.0392322 0.0600075 0.0205025 255 140 0
-0.0369614 0.0600074 0.0205021 255 140 0
-0.0346943 0.0600073 0.0205018 255 140 0
-0.0324177 0.0600072 0.0205018 255 140 0
-0.0301460 0.0600072 0.0205018 255 140 0
-0.0278742 0.0600071 0.0205017 255 140 0
-0.0256024 0.0600070 0.0205017 255 140 0
-0.0233306 0.0600070 0.0205017 255 140 0
-0.0210587 0.0600068 0.0205017 255 140 0
-0.0187851 0.0600068 0.0205018 255 140 0
-0.0165152 0.0600066 0.0205021 255 140 0
-0.0142426 0.0600063 0.0205024 255 140 0
-0.0119739 0.0600050 0.0205025 255 140 0
-0.0097036 0.0600047 0.0205028 255 140 0
-0.0074302 0.0600046 0.0205031 255 140 0
-0.0051571 0.0600045 0.0205037 255 140 0
-0.0028851 0.0600042 0.0205044 255 140 0
-0.0006130 0.0600037 0.0205056 255 140 0
0.0016591 0.0600033 0.0205068 255 140 0
0.0039313 0.0600026 0.0205087 255 140 0
0.0062032 0.0600013 0.0205121 255 140 0
0.0084745 0.0599987 0.0205191 255 140 0
0.0107468 0.0599945 0.0205327 255 140 0
0.0130088 0.0599824 0.0205556 255 140 0
0.0152775 0.0599712 0.0205868 255 140 0
0.0175589 0.0599608 0.0206314 255 140 0
-0.0801373 0.0622335 0.0206847 255 140 0
-0.0778551 0.0622520 0.0206158 255 140 0
-0.0755818 0.0622657 0.0205718 255 140 0
-0.0733090 0.0622728 0.0205485 255 140 0
-0.0710369 0.0622775 0.0205328 255 140 0
-0.0687650 0.0622811 0.0205230 255 140 0
-0.0664931 0.0622838 0.0205174 255 140 0
-0.0642213 0.0622861 0.0205126 255 140 0
-0.0619503 0.0622880 0.0205104 255 140 0
-0.0596830 0.0622894 0.0205090 255 140 0
-0.0574065 0.0622899 0.0205089 255 140 0
-0.0551346 0.0622905 0.0205088 255 140 0
-0.0528627 0.0622911 0.0205086 255 140 0
-0.0505909 0.0622916 0.0205086 255 140 0
-0.0483191 0.0622919 0.0205085 255 140 0
-0.0460473 0.0622921 0.0205085 255 140 0
-0.0437754 0.0622923 0.0205086 255 140 0
-0.0415039 0.0622923 0.0205087 255 140 0
-0.0392323 0.0622922 0.0205089 255 140 0
-0.0369615 0.0622923 0.0205085 255 140 0
-0.0346945 0.0622921 0.0205083 255 140 0
-0.0324179 0.0622921 0.0205084 255 140 0
-0.0301457 0.0622921 0.0205084 255 140 0
-0.0278739 0.0622922 0.0205084 255 140 0
-0.0256021 0.0622921 0.0205084 255 140 0
-0.0233303 0.0622921 0.0205084 255 140 0
-0.0210583 0.0622921 0.0205085 255 140 0
-0.0187849 0.0622920 0.0205086 255 140 0
-0.0165149 0.0622920 0.0205088 255 140 0
-0.0142424 0.0622919 0.0205091 255 140 0
-0.0119745 0.0622918 0.0205091 255 140 0
-0.0097036 0.0622917 0.0205092 255 140 0
-0.0074301 0.0622918 0.0205094 255 140 0
-0.0051570 0.0622918 0.0205097 255 140 0
-0.0028849 0.0622919 0.0205100 255 140 0
-0.0006128 0.0622919 0.0205107 255 140 0
0.0016593 0.0622918 0.0205116 255 140 0
0.0039315 0.0622917 0.0205130 255 140 0
0.0062035 0.0622910 0.0205155 255 140 0
0.0084745 0.0622892 0.0205212 255 140 0
0.0107468 0.0622868 0.0205315 255 140 0
0.0130098 0.0622784 0.0205476 255 140 0
0.0152788 0.0622716 0.0205740 255 140 0
0.0175582 0.0622664 0.0206086 255 140 0
0.0198367 0.0622580 0.0206569 255 140 0
-0.0801359 0.0645767 0.0206366 255 140 0
-0.0778538 0.0645890 0.0205841 255 140 0
-0.0755808 0.0645965 0.0205505 255 140 0
-0.0733086 0.0646016 0.0205339 255 140 0
-0.0710365 0.0646052 0.0205227 255 140 0
-0.0687645 0.0646077 0.0205150 255 140 0
-0.0664927 0.0646094 0.0205108 255 140 0
-0.0642208 0.0646112 0.0205082 255 140 0
-0.0619499 0.0646130 0.0205065 255 140 0
-0.0596826 0.0646142 0.0205048 255 140 0
-0.0574060 0.0646144 0.0205047 255 140 0
-0.0551340 0.0646149 0.0205046 255 140 0
-0.0528622 0.0646155 0.0205045 255 140 0
-0.0505904 0.0646159 0.0205045 255 140 0
-0.0483186 0.0646160 0.0205045 255 140 0
-0.0460468 0.0646162 0.0205045 255 140 0
-0.0437751 0.0646164 0.0205046 255 140 0
-0.0415034 0.0646165 0.0205047 255 140 0
-0.0392318 0.0646165 0.0205049 255 140 0
-0.0369610 0.0646163 0.0205046 255 140 0
-0.0346941 0.0646162 0.0205044 255 140 0
-0.0324175 0.0646163 0.0205045 255 140 0
-0.0301455 0.0646163 0.0205045 255 140 0
-0.0278737 0.0646163 0.0205045 255 140 0
-0.0256018 0.0646164 0.0205045 255 140 0
-0.0233299 0.0646164 0.0205045 255 140 0
-0.0210580 0.0646164 0.0205046 255 140 0
-0.0187847 0.0646164 0.0205048 255 140 0
-0.0165146 0.0646164 0.0205051 255 140 0
-0.0142421 0.0646165 0.0205054 255 140 0
-0.0119742 0.0646165 0.0205054 255 140 0
-0.0097033 0.0646165 0.0205055 255 140 0
-0.0074297 0.0646166 0.0205057 255 140 0
-0.0051566 0.0646167 0.0205059 255 140 0
-0.0028845 0.0646165 0.0205063 255 140 0
-0.0006125 0.0646166 0.0205067 255 140 0
0.0016597 0.0646167 0.0205074 255 140 0
0.0039318 0.0646161 0.0205084 255 140 0
0.0062038 0.0646157 0.0205103 255 140 0
0.0084748 0.0646152 0.0205149 255 140 0
0.0107469 0.0646138 0.0205232 255 140 0
0.0130110 0.0646075 0.0205358 255 140 0
0.0152804 0.0645999 0.0205585 255 140 0
0.0175582 0.0645975 0.0205848 255 140 0
0.0198360 0.0645928 0.0206319 255 140 0
-0.0824109 0.0668414 0.0207504 255 140 0
-0.0801365 0.0668623 0.0206523 255 140 0
-0.0778539 0.0668686 0.0206179 255 140 0
-0.0755814 0.0668738 0.0205952 255 140 0
-0.0733091 0.0668765 0.0205830 255 140 0
-0.0710371 0.0668790 0.0205756 255 140 0
-0.0687653 0.0668807 0.0205709 255 140 0
-0.0664935 0.0668822 0.0205684 255 140 0
-0.0642218 0.0668833 0.0205669 255 140 0
-0.0619531 0.0668850 0.0205660 255 140 0
-0.0596837 0.0668861 0.0205654 255 140 0
-0.0574069 0.0668862 0.0205656 255 140 0
-0.0551346 0.0668866 0.0205656 255 140 0
-0.0528628 0.0668874 0.0205656 255 140 0
-0.0505910 0.0668878 0.0205656 255 140 0
-0.0483192 0.0668881 0.0205656 255 140 0
-0.0460474 0.0668884 0.0205657 255 140 0
-0.0437756 0.0668887 0.0205658 255 140 0
-0.0415040 0.0668888 0.0205660 255 140 0
-0.0392324 0.0668887 0.0205661 255 140 0
-0.0369617 0.0668884 0.0205657 255 140 0
-0.0346949 0.0668882 0.0205655 255 140 0
-0.0324180 0.0668883 0.0205655 255 140 0
-0.0301459 0.0668883 0.0205655 255 140 0
-0.0278741 0.0668883 0.0205655 255 140 0
-0.0256023 0.0668883 0.0205655 255 140 0
-0.0233303 0.0668884 0.0205655 255 140 0
-0.0210569 0.0668883 0.0205655 255 140 0
-0.0187847 0.0668884 0.0205655 255 140 0
-0.0165134 0.0668885 0.0205657 255 140 0
-0.0142423 0.0668886 0.0205661 255 140 0
-0.0119747 0.0668886 0.0205660 255 140 0
-0.0097045 0.0668887 0.0205660 255 140 0
-0.0074304 0.0668888 0.0205660 255 140 0
-0.0051568 0.0668891 0.0205661 255 140 0
-0.0028847 0.0668893 0.0205663 255 140 0
-0.0006126 0.0668896 0.0205666 255 140 0
0.0016596 0.0668899 0.0205670 255 140 0
0.0039320 0.0668901 0.0205678 255 140 0
0.0062040 0.0668901 0.0205691 255 140 0
0.0084753 0.0668900 0.0205725 255 140 0
0.0107472 0.0668892 0.0205781 255 140 0
0.0130134 0.0668875 0.0205865 255 140 0
0.0152834 0.0668846 0.0206032 255 140 0
0.0175602 0.0668832 0.0206212 255 140 0
0.0198367 0.0668800 0.0206591 255 140 0
0.0221132 0.0668740 0.0207188 255 140 0
-0.0824104 0.0691405 0.0207265 255 140 0
-0.0801344 0.0691507 0.0206614 255 140 0
-0.0778541 0.0691537 0.0206394 255 140 0
-0.0755818 0.0691566 0.0206244 255 140 0
-0.0733095 0.0691585 0.0206167 255 140 0
-0.0710374 0.0691599 0.0206121 255 140 0
-0.0687653 0.0691613 0.0206092 255 140 0
-0.0664935 0.0691624 0.0206078 255 140 0
-0.0642217 0.0691634 0.0206072 255 140 0
-0.0619542 0.0691647 0.0206067 255 140 0
-0.0596842 0.0691653 0.0206065 255 140 0
-0.0574074 0.0691656 0.0206067 255 140 0
-0.0551353 0.0691661 0.0206069 255 140 0
-0.0528633 0.0691666 0.0206069 255 140 0
-0.0505914 0.0691670 0.0206070 255 140 0
-0.0483194 0.0691674 0.0206070 255 140 0
-0.0460475 0.0691676 0.0206071 255 140 0
-0.0437756 0.0691677 0.0206072 255 140 0
-0.0415041 0.0691677 0.0206074 255 140 0
-0.0392325 0.0691677 0.0206080 255 140 0
-0.0369649 0.0691674 0.0206073 255 140 0
-0.0346954 0.0691672 0.0206070 255 140 0
-0.0324183 0.0691673 0.0206072 255 140 0
-0.0301462 0.0691674 0.0206073 255 140 0
-0.0278743 0.0691675 0.0206073 255 140 0
-0.0256024 0.0691677 0.0206072 255 140 0
-0.0233304 0.0691679 0.0206071 255 140 0
-0.0210570 0.0691679 0.0206071 255 140 0
-0.0187846 0.0691680 0.0206071 255 140 0
-0.0165135 0.0691682 0.0206074 255 140 0
-0.0142423 0.0691685 0.0206076 255 140 0
-0.0119751 0.0691683 0.0206075 255 140 0
-0.0097049 0.0691685 0.0206074 255 140 0
-0.0074306 0.0691689 0.0206073 255 140 0
-0.0051569 0.0691691 0.0206075 255 140 0
-0.0028847 0.0691694 0.0206076 255 140 0
-0.0006125 0.0691698 0.0206077 255 140 0
0.0016598 0.0691703 0.0206079 255 140 0
0.0039323 0.0691710 0.0206084 255 140 0
0.0062043 0.0691715 0.0206091 255 140 0
0.0084757 0.0691715 0.0206109 255 140 0
0.0107477 0.0691714 0.0206148 255 140 0
0.0130151 0.0691710 0.0206209 255 140 0
0.0152856 0.0691698 0.0206325 255 140 0
0.0175606 0.0691689 0.0206441 255 140 0
0.0198372 0.0691676 0.0206741 255 140 0
0.0221127 0.0691646 0.0207219 255 140 0
-0.0824091 0.0714540 0.0206910 255 140 0
-0.0801323 0.0714589 0.0206346 255 140 0
-0.0778533 0.0714606 0.0206158 255 140 0
-0.0755806 0.0714623 0.0206028 255 140 0
-0.0733084 0.0714629 0.0205956 255 140 0
-0.0710365 0.0714632 0.0205906 255 140 0
-0.0687647 0.0714639 0.0205882 255 140 0
-0.0664930 0.0714645 0.0205871 255 140 0
-0.0642213 0.0714655 0.0205866 255 140 0
-0.0619535 0.0714665 0.0205860 255 140 0
-0.0596836 0.0714670 0.0205858 255 140 0
-0.0574067 0.0714672 0.0205860 255 140 0
-0.0551344 0.0714675 0.0205863 255 140 0
-0.0528625 0.0714681 0.0205865 255 140 0
-0.0505907 0.0714685 0.0205866 255 140 0
-0.0483189 0.0714687 0.0205867 255 140 0
-0.0460470 0.0714690 0.0205868 255 140 0
-0.0437751 0.0714691 0.0205869 255 140 0
-0.0415036 0.0714692 0.0205872 255 140 0
-0.0392320 0.0714692 0.0205874 255 140 0
-0.0369644 0.0714688 0.0205868 255 140 0
-0.0346948 0.0714685 0.0205866 255 140 0
-0.0324178 0.0714686 0.0205866 255 140 0
-0.0301457 0.0714685 0.0205867 255 140 0
-0.0278738 0.0714687 0.0205867 255 140 0
-0.0256018 0.0714688 0.0205866 255 140 0
-0.0233299 0.0714688 0.0205866 255 140 0
-0.0210566 0.0714690 0.0205866 255 140 0
-0.0187842 0.0714689 0.0205866 255 140 0
-0.0165131 0.0714691 0.0205867 255 140 0
-0.0142417 0.0714693 0.0205869 255 140 0
-0.0119746 0.0714694 0.0205866 255 140 0
-0.0097047 0.0714695 0.0205865 255 140 0
-0.0074301 0.0714698 0.0205864 255 140 0
-0.0051564 0.0714700 0.0205864 255 140 0
-0.0028842 0.0714703 0.0205864 255 140 0
-0.0006120 0.0714707 0.0205863 255 140 0
0.0016603 0.0714711 0.0205864 255 140 0
0.0039328 0.0714713 0.0205866 255 140 0
0.0062049 0.0714717 0.0205872 255 140 0
0.0084763 0.0714720 0.0205886 255 140 0
0.0107482 0.0714724 0.0205920 255 140 0
0.0130153 0.0714730 0.0205971 255 140 0
0.0152857 0.0714722 0.0206071 255 140 0
0.0175609 0.0714719 0.0206174 255 140 0
0.0198366 0.0714700 0.0206435 255 140 0
0.0221124 0.0714671 0.0206846 255 140 0
0.0243898 0.0714635 0.0207504 255 140 0
-0.0846823 0.0737491 0.0207411 255 140 0
-0.0824086 0.0737527 0.0206657 255 140 0
-0.0801248 0.0737547 0.0206188 255 140 0
-0.0778525 0.0737554 0.0206025 255 140 0
-0.0755804 0.0737556 0.0205919 255 140 0
-0.0733085 0.0737557 0.0205850 255 140 0
-0.0710364 0.0737557 0.0205807 255 140 0
-0.0687646 0.0737558 0.0205788 255 140 0
-0.0664928 0.0737560 0.0205778 255 140 0
-0.0642209 0.0737566 0.0205774 255 140 0
-0.0619533 0.0737572 0.0205768 255 140 0
-0.0596836 0.0737576 0.0205766 255 140 0
-0.0574064 0.0737578 0.0205769 255 140 0
-0.0551342 0.0737581 0.0205771 255 140 0
-0.0528623 0.0737586 0.0205773 255 140 0
-0.0505905 0.0737589 0.0205775 255 140 0
-0.0483187 0.0737592 0.0205777 255 140 0
-0.0460466 0.0737596 0.0205778 255 140 0
-0.0437747 0.0737596 0.0205779 255 140 0
-0.0415032 0.0737597 0.0205782 255 140 0
-0.0392316 0.0737598 0.0205784 255 140 0
-0.0369641 0.0737593 0.0205778 255 140 0
-0.0346947 0.0737591 0.0205775 255 140 0
-0.0324174 0.0737590 0.0205776 255 140 0
-0.0301453 0.0737591 0.0205777 255 140 0
-0.0278735 0.0737592 0.0205777 255 140 0
-0.0256014 0.0737593 0.0205777 255 140 0
-0.0233295 0.0737593 0.0205776 255 140 0
-0.0210561 0.0737595 0.0205775 255 140 0
-0.0187838 0.0737595 0.0205775 255 140 0
-0.0165127 0.0737597 0.0205776 255 140 0
-0.0142415 0.0737598 0.0205777 255 140 0
-0.0119743 0.0737599 0.0205774 255 140 0
-0.0097047 0.0737600 0.0205772 255 140 0
-0.0074298 0.0737601 0.0205771 255 140 0
-0.0051561 0.0737603 0.0205770 255 140 0
-0.0028839 0.0737606 0.0205769 255 140 0
-0.0006116 0.0737608 0.0205768 255 140 0
0.0016607 0.0737612 0.0205767 255 140 0
0.0039332 0.0737615 0.0205768 255 140 0
0.0062053 0.0737621 0.0205772 255 140 0
