ply
format ascii 1.0
element vertex 1142
property float x
property float y
property float z
property uchar red
property uchar green
property uchar blue
end_header
0.0152820 0.1191656 -0.0255113 255 140 0
0.0175456 0.1191566 -0.0254741 255 140 0
0.0198123 0.1191437 -0.0254498 255 140 0
-0.0778334 0.1213978 -0.0254434 255 140 0
-0.0755623 0.1214112 -0.0254713 255 140 0
-0.0732925 0.1214225 -0.0255051 255 140 0
-0.0710343 0.1214332 -0.0255328 255 140 0
-0.0687633 0.1214428 -0.0255532 255 140 0
-0.0664920 0.1214525 -0.0255676 255 140 0
-0.0642206 0.1214646 -0.0255751 255 140 0
-0.0619478 0.1214714 -0.0255722 255 140 0
-0.0596695 0.1214765 -0.0255713 255 140 0
-0.0574048 0.1214782 -0.0255703 255 140 0
-0.0551337 0.1214804 -0.0255691 255 140 0
-0.0528621 0.1214827 -0.0255676 255 140 0
-0.0505904 0.1214847 -0.0255661 255 140 0
-0.0483188 0.1214865 -0.0255645 255 140 0
-0.0460472 0.1214881 -0.0255628 255 140 0
-0.0437757 0.1214897 -0.0255612 255 140 0
-0.0415037 0.1214912 -0.0255596 255 140 0
-0.0392319 0.1214927 -0.0255580 255 140 0
-0.0369588 0.1214946 -0.0255557 255 140 0
-0.0346803 0.1214957 -0.0255543 255 140 0
-0.0324155 0.1214966 -0.0255545 255 140 0
-0.0301443 0.1214971 -0.0255547 255 140 0
-0.0278727 0.1214989 -0.0255551 255 140 0
-0.0256011 0.1215001 -0.0255550 255 140 0
-0.0233295 0.1215019 -0.0255545 255 140 0
-0.0210582 0.1215033 -0.0255538 255 140 0
-0.0187894 0.1215049 -0.0255528 255 140 0
-0.0165146 0.1215063 -0.0255517 255 140 0
-0.0142454 0.1215077 -0.0255505 255 140 0
-0.0119663 0.1215099 -0.0255484 255 140 0
-0.0096923 0.1215115 -0.0255468 255 140 0
-0.0074239 0.1215129 -0.0255460 255 140 0
-0.0051549 0.1215138 -0.0255449 255 140 0
-0.0028842 0.1215148 -0.0255437 255 140 0
-0.0006133 0.1215154 -0.0255425 255 140 0
0.0016573 0.1215151 -0.0255411 255 140 0
0.0039276 0.1215137 -0.0255395 255 140 0
0.0061975 0.1215106 -0.0255365 255 140 0
0.0084667 0.1215034 -0.0255307 255 140 0
0.0107364 0.1214922 -0.0255232 255 140 0
0.0130113 0.1214575 -0.0254816 255 140 0
0.0152825 0.1214331 -0.0254524 255 140 0
0.0175450 0.1214261 -0.0254390 255 140 0
-0.0755622 0.1236898 -0.0254374 255 140 0
-0.0732916 0.1237085 -0.0254628 255 140 0
-0.0710331 0.1237253 -0.0254873 255 140 0
-0.0687623 0.1237396 -0.0255087 255 140 0
-0.0664910 0.1237529 -0.0255237 255 140 0
-0.0642195 0.1237636 -0.0255337 255 140 0
-0.0619464 0.1237775 -0.0255334 255 140 0
-0.0596687 0.1237848 -0.0255332 255 140 0
-0.0574039 0.1237871 -0.0255325 255 140 0
-0.0551324 0.1237894 -0.0255315 255 140 0
-0.0528609 0.1237915 -0.0255301 255 140 0
-0.0505893 0.1237934 -0.0255287 255 140 0
-0.0483177 0.1237952 -0.0255273 255 140 0
-0.0460461 0.1237966 -0.0255258 255 140 0
-0.0437745 0.1237977 -0.0255241 255 140 0
-0.0415027 0.1237990 -0.0255225 255 140 0
-0.0392309 0.1238002 -0.0255211 255 140 0
-0.0369581 0.1238017 -0.0255185 255 140 0
-0.0346800 0.1238024 -0.0255168 255 140 0
-0.0324149 0.1238030 -0.0255162 255 140 0
-0.0301435 0.1238038 -0.0255156 255 140 0
-0.0278719 0.1238044 -0.0255148 255 140 0
-0.0256002 0.1238054 -0.0255141 255 140 0
-0.0233286 0.1238059 -0.0255133 255 140 0
-0.0210572 0.1238066 -0.0255124 255 140 0
-0.0187883 0.1238072 -0.0255109 255 140 0
-0.0165137 0.1238080 -0.0255094 255 140 0
-0.0142446 0.1238084 -0.0255080 255 140 0
-0.0119658 0.1238104 -0.0255059 255 140 0
-0.0096919 0.1238115 -0.0255043 255 140 0
-0.0074240 0.1238122 -0.0255033 255 140 0
-0.0051543 0.1238125 -0.0255023 255 140 0
-0.0028838 0.1238122 -0.0255012 255 140 0
-0.0006129 0.1238109 -0.0255000 255 140 0
0.0016578 0.1238055 -0.0254987 255 140 0
0.0039275 0.1238030 -0.0254970 255 140 0
0.0061979 0.1237972 -0.0254939 255 140 0
0.0084671 0.1237881 -0.0254876 255 140 0
0.0107364 0.1237796 -0.0254813 255 140 0
0.0130120 0.1237296 -0.0254387 255 140 0
0.0152836 0.1236990 -0.0254128 255 140 0
-0.0732913 0.1259841 -0.0254431 255 140 0
-0.0710326 0.1260081 -0.0254619 255 140 0
-0.0687617 0.1260271 -0.0254833 255 140 0
-0.0664903 0.1260458 -0.0254989 255 140 0
-0.0642188 0.1260611 -0.0255089 255 140 0
-0.0619449 0.1260821 -0.0255103 255 140 0
-0.0596684 0.1260937 -0.0255108 255 140 0
-0.0574032 0.1260957 -0.0255097 255 140 0
-0.0551318 0.1260991 -0.0255085 255 140 0
-0.0528603 0.1261011 -0.0255066 255 140 0
-0.0505887 0.1261030 -0.0255046 255 140 0
-0.0483171 0.1261045 -0.0255028 255 140 0
-0.0460455 0.1261058 -0.0255011 255 140 0
-0.0437739 0.1261071 -0.0254993 255 140 0
-0.0415021 0.1261086 -0.0254975 255 140 0
-0.0392303 0.1261098 -0.0254958 255 140 0
-0.0369575 0.1261119 -0.0254935 255 140 0
-0.0346813 0.1261132 -0.0254917 255 140 0
-0.0324142 0.1261133 -0.0254911 255 140 0
-0.0301429 0.1261140 -0.0254903 255 140 0
-0.0278713 0.1261148 -0.0254894 255 140 0
-0.0255997 0.1261155 -0.0254885 255 140 0
-0.0233280 0.1261164 -0.0254875 255 140 0
-0.0210566 0.1261177 -0.0254865 255 140 0
-0.0187878 0.1261183 -0.0254853 255 140 0
-0.0165130 0.1261196 -0.0254840 255 140 0
-0.0142427 0.1261205 -0.0254825 255 140 0
-0.0119667 0.1261217 -0.0254796 255 140 0
-0.0096917 0.1261228 -0.0254779 255 140 0
-0.0074237 0.1261232 -0.0254770 255 140 0
-0.0051540 0.1261232 -0.0254760 255 140 0
-0.0028833 0.1261232 -0.0254748 255 140 0
-0.0006126 0.1261216 -0.0254735 255 140 0
0.0016580 0.1261189 -0.0254720 255 140 0
0.0039281 0.1261131 -0.0254697 255 140 0
0.0061982 0.1261027 -0.0254663 255 140 0
0.0084686 0.1260800 -0.0254584 255 140 0
0.0107364 0.1260691 -0.0254551 255 140 0
0.0130141 0.1260010 -0.0254167 255 140 0
0.0152855 0.1259548 -0.0253955 255 140 0
-0.0733024 0.1282511 -0.0254216 255 140 0
-0.0710322 0.1282855 -0.0254351 255 140 0
-0.0687610 0.1283116 -0.0254529 255 140 0
-0.0664896 0.1283337 -0.0254684 255 140 0
-0.0642181 0.1283535 -0.0254787 255 140 0
-0.0619421 0.1283706 -0.0254815 255 140 0
-0.0596686 0.1283813 -0.0254828 255 140 0
-0.0574027 0.1283847 -0.0254819 255 140 0
-0.0551312 0.1283893 -0.0254808 255 140 0
-0.0528595 0.1284010 -0.0254793 255 140 0
-0.0505879 0.1284043 -0.0254780 255 140 0
-0.0483163 0.1284062 -0.0254766 255 140 0
-0.0460448 0.1284078 -0.0254753 255 140 0
-0.0437732 0.1284101 -0.0254740 255 140 0
-0.0415013 0.1284118 -0.0254727 255 140 0
-0.0392295 0.1284136 -0.0254713 255 140 0
-0.0369571 0.1284155 -0.0254693 255 140 0
-0.0346851 0.1284168 -0.0254678 255 140 0
-0.0324138 0.1284175 -0.0254672 255 140 0
-0.0301424 0.1284183 -0.0254664 255 140 0
-0.0278708 0.1284188 -0.0254654 255 140 0
-0.0255991 0.1284199 -0.0254644 255 140 0
-0.0233275 0.1284211 -0.0254635 255 140 0
-0.0210559 0.1284220 -0.0254625 255 140 0
-0.0187868 0.1284230 -0.0254616 255 140 0
-0.0165124 0.1284239 -0.0254604 255 140 0
-0.0142421 0.1284246 -0.0254593 255 140 0
-0.0119664 0.1284259 -0.0254568 255 140 0
-0.0096914 0.1284268 -0.0254550 255 140 0
-0.0074239 0.1284270 -0.0254540 255 140 0
-0.0051541 0.1284262 -0.0254527 255 140 0
-0.0028833 0.1284243 -0.0254502 255 140 0
-0.0006123 0.1284208 -0.0254477 255 140 0
0.0016584 0.1284159 -0.0254455 255 140 0
0.0039288 0.1284060 -0.0254426 255 140 0
0.0061985 0.1283911 -0.0254388 255 140 0
0.0084688 0.1283628 -0.0254311 255 140 0
0.0107352 0.1283453 -0.0254279 255 140 0
0.0130166 0.1282690 -0.0253954 255 140 0
-0.0710320 0.1305562 -0.0254066 255 140 0
-0.0687605 0.1305925 -0.0254212 255 140 0
-0.0664890 0.1306199 -0.0254339 255 140 0
-0.0642174 0.1306423 -0.0254463 255 140 0
-0.0619402 0.1306779 -0.0254518 255 140 0
-0.0596686 0.1306952 -0.0254556 255 140 0
-0.0574021 0.1306983 -0.0254547 255 140 0
-0.0551306 0.1307022 -0.0254532 255 140 0
-0.0528590 0.1307054 -0.0254523 255 140 0
-0.0505873 0.1307092 -0.0254515 255 140 0
-0.0483157 0.1307114 -0.0254505 255 140 0
-0.0460441 0.1307132 -0.0254496 255 140 0
-0.0437725 0.1307149 -0.0254486 255 140 0
-0.0415006 0.1307167 -0.0254477 255 140 0
-0.0392288 0.1307185 -0.0254467 255 140 0
-0.0369569 0.1307207 -0.0254447 255 140 0
-0.0346849 0.1307221 -0.0254430 255 140 0
-0.0324135 0.1307228 -0.0254425 255 140 0
-0.0301418 0.1307239 -0.0254417 255 140 0
-0.0278702 0.1307250 -0.0254408 255 140 0
-0.0255985 0.1307261 -0.0254398 255 140 0
-0.0233269 0.1307271 -0.0254390 255 140 0
-0.0210553 0.1307280 -0.0254381 255 140 0
-0.0187837 0.1307286 -0.0254371 255 140 0
-0.0165118 0.1307293 -0.0254360 255 140 0
-0.0142415 0.1307299 -0.0254350 255 140 0
-0.0119661 0.1307310 -0.0254334 255 140 0
-0.0096941 0.1307311 -0.0254320 255 140 0
-0.0074237 0.1307302 -0.0254312 255 140 0
-0.0051537 0.1307266 -0.0254299 255 140 0
-0.0028829 0.1307228 -0.0254282 255 140 0
-0.0006121 0.1307165 -0.0254253 255 140 0
0.0016586 0.1307078 -0.0254209 255 140 0
0.0039291 0.1306934 -0.0254164 255 140 0
0.0061988 0.1306758 -0.0254087 255 140 0
0.0084690 0.1306511 -0.0254010 255 140 0
0.0107351 0.1306298 -0.0253946 255 140 0
-0.0687603 0.1328661 -0.0253929 255 140 0
-0.0664886 0.1329079 -0.0254041 255 140 0
-0.0642170 0.1329385 -0.0254162 255 140 0
-0.0619393 0.1329698 -0.0254247 255 140 0
-0.0596697 0.1329910 -0.0254319 255 140 0
-0.0574018 0.1329958 -0.0254319 255 140 0
-0.0551302 0.1330005 -0.0254319 255 140 0
-0.0528585 0.1330060 -0.0254316 255 140 0
-0.0505869 0.1330093 -0.0254313 255 140 0
-0.0483152 0.1330122 -0.0254308 255 140 0
-0.0460435 0.1330142 -0.0254302 255 140 0
-0.0437719 0.1330159 -0.0254297 255 140 0
-0.0415001 0.1330178 -0.0254292 255 140 0
-0.0392285 0.1330195 -0.0254286 255 140 0
-0.0369565 0.1330219 -0.0254276 255 140 0
-0.0346846 0.1330236 -0.0254267 255 140 0
-0.0324131 0.1330242 -0.0254262 255 140 0
-0.0301415 0.1330248 -0.0254257 255 140 0
-0.0278698 0.1330257 -0.0254249 255 140 0
-0.0255981 0.1330265 -0.0254242 255 140 0
-0.0233264 0.1330270 -0.0254234 255 140 0
-0.0210548 0.1330278 -0.0254227 255 140 0
-0.0187832 0.1330282 -0.0254219 255 140 0
-0.0165113 0.1330288 -0.0254207 255 140 0
-0.0142411 0.1330286 -0.0254192 255 140 0
-0.0119659 0.1330281 -0.0254172 255 140 0
-0.0096940 0.1330264 -0.0254150 255 140 0
-0.0074241 0.1330244 -0.0254127 255 140 0
-0.0051534 0.1330194 -0.0254111 255 140 0
-0.0028830 0.1330123 -0.0254093 255 140 0
-0.0006117 0.1330014 -0.0254055 255 140 0
0.0016593 0.1329877 -0.0253987 255 140 0
0.0039296 0.1329698 -0.0253926 255 140 0
0.0062000 0.1329480 -0.0253838 255 140 0
0.0084694 0.1329224 -0.0253756 255 140 0
-0.0664885 0.1351843 -0.0253803 255 140 0
-0.0642167 0.1352128 -0.0253893 255 140 0
-0.0619421 0.1352496 -0.0254024 255 140 0
-0.0596677 0.1352762 -0.0254117 255 140 0
-0.0574015 0.1352849 -0.0254131 255 140 0
-0.0551299 0.1352922 -0.0254141 255 140 0
-0.0528582 0.1352987 -0.0254130 255 140 0
-0.0505866 0.1353033 -0.0254133 255 140 0
-0.0483149 0.1353068 -0.0254136 255 140 0
-0.0460433 0.1353095 -0.0254152 255 140 0
-0.0437716 0.1353121 -0.0254151 255 140 0
-0.0414999 0.1353143 -0.0254149 255 140 0
-0.0392282 0.1353163 -0.0254145 255 140 0
-0.0369562 0.1353187 -0.0254139 255 140 0
-0.0346845 0.1353203 -0.0254133 255 140 0
-0.0324129 0.1353207 -0.0254129 255 140 0
-0.0301412 0.1353211 -0.0254123 255 140 0
-0.0278694 0.1353214 -0.0254116 255 140 0
-0.0255978 0.1353219 -0.0254099 255 140 0
-0.0233261 0.1353222 -0.0254088 255 140 0
-0.0210544 0.1353224 -0.0254078 255 140 0
-0.0187828 0.1353227 -0.0254068 255 140 0
-0.0165110 0.1353225 -0.0254058 255 140 0
-0.0142408 0.1353214 -0.0254046 255 140 0
-0.0119672 0.1353200 -0.0254030 255 140 0
-0.0096939 0.1353166 -0.0254011 255 140 0
-0.0074240 0.1353122 -0.0253993 255 140 0
-0.0051540 0.1353031 -0.0253948 255 140 0
-0.0028827 0.1352922 -0.0253903 255 140 0
-0.0006114 0.1352762 -0.0253849 255 140 0
0.0016601 0.1352553 -0.0253762 255 140 0
0.0039319 0.1352333 -0.0253693 255 140 0
0.0062020 0.1352103 -0.0253613 255 140 0
-0.0642160 0.1374745 -0.0253641 255 140 0
-0.0619423 0.1375127 -0.0253748 255 140 0
-0.0596693 0.1375410 -0.0253838 255 140 0
-0.0574012 0.1375554 -0.0253892 255 140 0
-0.0551297 0.1375674 -0.0253925 255 140 0
-0.0528581 0.1375757 -0.0253945 255 140 0
-0.0505864 0.1375823 -0.0253979 255 140 0
-0.0483147 0.1375883 -0.0253990 255 140 0
-0.0460430 0.1375938 -0.0253998 255 140 0
-0.0437713 0.1375983 -0.0254003 255 140 0
-0.0414996 0.1376013 -0.0254006 255 140 0
-0.0392280 0.1376035 -0.0254009 255 140 0
-0.0369562 0.1376061 -0.0254009 255 140 0
-0.0346843 0.1376076 -0.0254007 255 140 0
-0.0324127 0.1376080 -0.0254003 255 140 0
-0.0301411 0.1376081 -0.0253996 255 140 0
-0.0278693 0.1376076 -0.0253987 255 140 0
-0.0255976 0.1376075 -0.0253979 255 140 0
-0.0233259 0.1376070 -0.0253970 255 140 0
-0.0210542 0.1376071 -0.0253962 255 140 0
-0.0187825 0.1376065 -0.0253955 255 140 0
-0.0165108 0.1376051 -0.0253946 255 140 0
-0.0142406 0.1376028 -0.0253934 255 140 0
-0.0119672 0.1375999 -0.0253910 255 140 0
-0.0096954 0.1375927 -0.0253870 255 140 0
-0.0074247 0.1375851 -0.0253839 255 140 0
-0.0051539 0.1375727 -0.0253784 255 140 0
-0.0028823 0.1375555 -0.0253731 255 140 0
-0.0006107 0.1375345 -0.0253653 255 140 0
0.0016613 0.1375115 -0.0253575 255 140 0
0.0039338 0.1374868 -0.0253495 255 140 0
-0.0619413 0.1397624 -0.0253606 255 140 0
-0.0596686 0.1397957 -0.0253706 255 140 0
-0.0573975 0.1398286 -0.0253824 255 140 0
-0.0551295 0.1398596 -0.0253873 255 140 0
-0.0528579 0.1398631 -0.0253869 255 140 0
-0.0505862 0.1398650 -0.0253876 255 140 0
-0.0483146 0.1398694 -0.0253877 255 140 0
-0.0460429 0.1398735 -0.0253880 255 140 0
-0.0437712 0.1398780 -0.0253893 255 140 0
-0.0414995 0.1398815 -0.0253908 255 140 0
-0.0392278 0.1398845 -0.0253909 255 140 0
-0.0369561 0.1398877 -0.0253910 255 140 0
-0.0346843 0.1398887 -0.0253902 255 140 0
-0.0324127 0.1398886 -0.0253892 255 140 0
-0.0301409 0.1398877 -0.0253877 255 140 0
-0.0278692 0.1398869 -0.0253866 255 140 0
-0.0255975 0.1398860 -0.0253856 255 140 0
-0.0233258 0.1398847 -0.0253846 255 140 0
-0.0210541 0.1398837 -0.0253837 255 140 0
-0.0187824 0.1398820 -0.0253824 255 140 0
-0.0165107 0.1398804 -0.0253808 255 140 0
-0.0142402 0.1398787 -0.0253805 255 140 0
-0.0119670 0.1398765 -0.0253824 255 140 0
-0.0096951 0.1398694 -0.0253805 255 140 0
-0.0074221 0.1398626 -0.0253812 255 140 0
-0.0051496 0.1398465 -0.0253838 255 140 0
-0.0028757 0.1398235 -0.0253892 255 140 0
-0.0006050 0.1397994 -0.0254142 255 140 0
0.0016654 0.1397105 -0.0254082 255 140 0
-0.0574018 0.1420243 -0.0253168 255 140 0
-0.0551295 0.1420370 -0.0253216 255 140 0
-0.0528576 0.1420604 -0.0253311 255 140 0
-0.0505860 0.1420804 -0.0253405 255 140 0
-0.0483143 0.1420962 -0.0253480 255 140 0
-0.0460427 0.1421095 -0.0253542 255 140 0
-0.0437711 0.1421185 -0.0253609 255 140 0
-0.0414995 0.1421266 -0.0253649 255 140 0
-0.0392278 0.1421325 -0.0253679 255 140 0
-0.0369560 0.1421366 -0.0253698 255 140 0
-0.0346843 0.1421399 -0.0253710 255 140 0
-0.0324126 0.1421400 -0.0253706 255 140 0
-0.0301410 0.1421390 -0.0253695 255 140 0
-0.0278693 0.1421364 -0.0253679 255 140 0
-0.0255976 0.1421340 -0.0253663 255 140 0
-0.0233259 0.1421320 -0.0253646 255 140 0
-0.0210543 0.1421307 -0.0253632 255 140 0
-0.0187826 0.1421286 -0.0253612 255 140 0
-0.0165110 0.1421239 -0.0253576 255 140 0
-0.0142412 0.1421182 -0.0253505 255 140 0
-0.0119680 0.1421010 -0.0253416 255 140 0
-0.0096968 0.1420855 -0.0253309 255 140 0
-0.0074287 0.1420717 -0.0253177 255 140 0
-0.0051602 0.1420615 -0.0252947 255 140 0
-0.0028919 0.1420386 -0.0252646 255 140 0
-0.0006274 0.1420279 -0.0252015 255 140 0
-0.0551296 0.1441796 -0.0252736 255 140 0
-0.0528577 0.1442435 -0.0252945 255 140 0
-0.0505859 0.1443125 -0.0253095 255 140 0
-0.0483144 0.1443368 -0.0253212 255 140 0
-0.0460428 0.1443534 -0.0253308 255 140 0
-0.0437711 0.1443669 -0.0253401 255 140 0
-0.0414994 0.1443768 -0.0253459 255 140 0
-0.0392278 0.1443842 -0.0253503 255 140 0
-0.0369561 0.1443891 -0.0253541 255 140 0
-0.0346844 0.1443914 -0.0253566 255 140 0
-0.0324128 0.1443915 -0.0253563 255 140 0
-0.0301411 0.1443898 -0.0253546 255 140 0
-0.0278694 0.1443876 -0.0253515 255 140 0
-0.0255977 0.1443850 -0.0253492 255 140 0
-0.0233261 0.1443823 -0.0253471 255 140 0
-0.0210544 0.1443796 -0.0253452 255 140 0
-0.0187828 0.1443768 -0.0253424 255 140 0
-0.0165114 0.1443701 -0.0253376 255 140 0
-0.0142458 0.1443598 -0.0253276 255 140 0
-0.0119700 0.1443378 -0.0253140 255 140 0
-0.0097010 0.1443145 -0.0252975 255 140 0
-0.0074328 0.1442373 -0.0252735 255 140 0
-0.0051675 0.1442275 -0.0252363 255 140 0
-0.0505860 0.1465965 -0.0253145 255 140 0
-0.0483145 0.1466025 -0.0253190 255 140 0
-0.0460429 0.1466132 -0.0253231 255 140 0
-0.0437713 0.1466236 -0.0253285 255 140 0
-0.0414996 0.1466317 -0.0253332 255 140 0
-0.0392279 0.1466388 -0.0253388 255 140 0
-0.0369562 0.1466414 -0.0253406 255 140 0
-0.0346845 0.1466440 -0.0253415 255 140 0
-0.0324129 0.1466446 -0.0253415 255 140 0
-0.0301412 0.1466429 -0.0253403 255 140 0
-0.0278696 0.1466387 -0.0253376 255 140 0
-0.0255979 0.1466358 -0.0253352 255 140 0
-0.0233262 0.1466318 -0.0253329 255 140 0
-0.0210546 0.1466283 -0.0253291 255 140 0
-0.0187830 0.1466250 -0.0253255 255 140 0
-0.0165114 0.1466204 -0.0253218 255 140 0
-0.0142414 0.1466159 -0.0253193 255 140 0
-0.0119683 0.1465993 -0.0253091 255 140 0
-0.0096967 0.1465917 -0.0253050 255 140 0
-0.0392281 0.1488955 -0.0253254 255 140 0
-0.0369563 0.1488982 -0.0253289 255 140 0
-0.0346846 0.1488989 -0.0253294 255 140 0
-0.0324130 0.1488992 -0.0253294 255 140 0
-0.0301413 0.1488972 -0.0253282 255 140 0
-0.0278696 0.1488926 -0.0253255 255 140 0
-0.0255980 0.1488883 -0.0253229 255 140 0
-0.0233264 0.1488844 -0.0253182 255 140 0
-0.0210547 0.1488809 -0.0253158 255 140 0
-0.0187831 0.1488775 -0.0253135 255 140 0
-0.0165115 0.1488747 -0.0253112 255 140 0
-0.0346878 0.0350253 -0.0231671 255 140 0
-0.0324163 0.0350257 -0.0231651 255 140 0
-0.0301448 0.0350264 -0.0231634 255 140 0
-0.0278732 0.0350271 -0.0231620 255 140 0
-0.0256019 0.0350274 -0.0231603 255 140 0
-0.0233330 0.0350278 -0.0231575 255 140 0
-0.0460455 0.0373069 -0.0231435 255 140 0
-0.0437743 0.0373057 -0.0231487 255 140 0
-0.0415028 0.0373023 -0.0231556 255 140 0
-0.0392312 0.0372987 -0.0231607 255 140 0
-0.0369594 0.0372931 -0.0231739 255 140 0
-0.0346878 0.0372896 -0.0231799 255 140 0
-0.0324163 0.0372891 -0.0231799 255 140 0
-0.0301451 0.0372894 -0.0231788 255 140 0
-0.0278736 0.0372904 -0.0231767 255 140 0
-0.0256022 0.0372916 -0.0231741 255 140 0
-0.0233352 0.0372932 -0.0231693 255 140 0
-0.0210636 0.0372957 -0.0231649 255 140 0
-0.0187919 0.0372981 -0.0231596 255 140 0
-0.0165201 0.0373000 -0.0231571 255 140 0
-0.0142486 0.0372998 -0.0231583 255 140 0
-0.0119717 0.0373076 -0.0231390 255 140 0
-0.0551319 0.0395909 -0.0231231 255 140 0
-0.0528602 0.0395922 -0.0231249 255 140 0
-0.0505885 0.0395913 -0.0231293 255 140 0
-0.0483172 0.0395883 -0.0231377 255 140 0
-0.0460458 0.0395853 -0.0231452 255 140 0
-0.0437744 0.0395818 -0.0231522 255 140 0
-0.0415029 0.0395782 -0.0231603 255 140 0
-0.0392313 0.0395748 -0.0231660 255 140 0
-0.0369596 0.0395686 -0.0231776 255 140 0
-0.0346879 0.0395645 -0.0231851 255 140 0
-0.0324165 0.0395640 -0.0231856 255 140 0
-0.0301452 0.0395640 -0.0231849 255 140 0
-0.0278738 0.0395647 -0.0231831 255 140 0
-0.0256024 0.0395662 -0.0231801 255 140 0
-0.0233353 0.0395687 -0.0231743 255 140 0
-0.0210636 0.0395717 -0.0231678 255 140 0
-0.0187920 0.0395743 -0.0231629 255 140 0
-0.0165201 0.0395763 -0.0231594 255 140 0
-0.0142485 0.0395765 -0.0231566 255 140 0
-0.0119718 0.0395828 -0.0231429 255 140 0
-0.0096994 0.0395844 -0.0231347 255 140 0
-0.0074309 0.0395776 -0.0231426 255 140 0
-0.0574039 0.0418456 -0.0231491 255 140 0
-0.0551325 0.0418462 -0.0231570 255 140 0
-0.0528610 0.0418415 -0.0231679 255 140 0
-0.0505895 0.0418365 -0.0231808 255 140 0
-0.0483183 0.0418314 -0.0231912 255 140 0
-0.0460470 0.0418269 -0.0231991 255 140 0
-0.0437755 0.0418228 -0.0232067 255 140 0
-0.0415039 0.0418192 -0.0232136 255 140 0
-0.0392324 0.0418161 -0.0232186 255 140 0
-0.0369605 0.0418119 -0.0232248 255 140 0
-0.0346887 0.0418090 -0.0232293 255 140 0
-0.0324173 0.0418085 -0.0232297 255 140 0
-0.0301461 0.0418084 -0.0232289 255 140 0
-0.0278746 0.0418087 -0.0232275 255 140 0
-0.0256031 0.0418095 -0.0232255 255 140 0
-0.0233318 0.0418109 -0.0232230 255 140 0
-0.0210645 0.0418124 -0.0232198 255 140 0
-0.0187928 0.0418144 -0.0232162 255 140 0
-0.0165211 0.0418165 -0.0232122 255 140 0
-0.0142474 0.0418186 -0.0232070 255 140 0
-0.0119722 0.0418262 -0.0231921 255 140 0
-0.0097001 0.0418316 -0.0231823 255 140 0
-0.0074313 0.0418325 -0.0231776 255 140 0
-0.0051622 0.0418338 -0.0231713 255 140 0
-0.0028905 0.0418363 -0.0231643 255 140 0
-0.0596756 0.0441106 -0.0231570 255 140 0
-0.0574040 0.0441092 -0.0231692 255 140 0
-0.0551326 0.0441049 -0.0231834 255 140 0
-0.0528615 0.0440972 -0.0232010 255 140 0
-0.0505902 0.0440903 -0.0232173 255 140 0
-0.0483189 0.0440839 -0.0232281 255 140 0
-0.0460477 0.0440789 -0.0232364 255 140 0
-0.0437763 0.0440748 -0.0232434 255 140 0
-0.0415048 0.0440714 -0.0232482 255 140 0
-0.0392332 0.0440689 -0.0232517 255 140 0
-0.0369610 0.0440660 -0.0232551 255 140 0
-0.0346891 0.0440642 -0.0232572 255 140 0
-0.0324177 0.0440640 -0.0232572 255 140 0
-0.0301466 0.0440637 -0.0232570 255 140 0
-0.0278751 0.0440635 -0.0232566 255 140 0
-0.0256035 0.0440635 -0.0232557 255 140 0
-0.0233320 0.0440642 -0.0232543 255 140 0
-0.0210612 0.0440648 -0.0232525 255 140 0
-0.0187934 0.0440659 -0.0232499 255 140 0
-0.0165216 0.0440680 -0.0232462 255 140 0
-0.0142476 0.0440709 -0.0232409 255 140 0
-0.0119726 0.0440785 -0.0232273 255 140 0
-0.0097004 0.0440854 -0.0232155 255 140 0
-0.0074317 0.0440907 -0.0232039 255 140 0
-0.0051626 0.0440959 -0.0231914 255 140 0
-0.0028914 0.0441010 -0.0231762 255 140 0
-0.0006201 0.0441028 -0.0231683 255 140 0
-0.0619475 0.0463751 -0.0231689 255 140 0
-0.0596687 0.0463767 -0.0231800 255 140 0
-0.0574048 0.0463732 -0.0231921 255 140 0
-0.0551333 0.0463698 -0.0232032 255 140 0
-0.0528619 0.0463663 -0.0232133 255 140 0
-0.0505904 0.0463631 -0.0232206 255 140 0
-0.0483190 0.0463603 -0.0232275 255 140 0
-0.0460476 0.0463581 -0.0232317 255 140 0
-0.0437762 0.0463563 -0.0232347 255 140 0
-0.0415046 0.0463545 -0.0232371 255 140 0
-0.0392330 0.0463531 -0.0232390 255 140 0
-0.0369608 0.0463513 -0.0232409 255 140 0
-0.0346889 0.0463501 -0.0232421 255 140 0
-0.0324176 0.0463498 -0.0232421 255 140 0
-0.0301463 0.0463494 -0.0232420 255 140 0
-0.0278748 0.0463489 -0.0232419 255 140 0
-0.0256032 0.0463486 -0.0232414 255 140 0
-0.0233317 0.0463485 -0.0232407 255 140 0
-0.0210603 0.0463485 -0.0232396 255 140 0
-0.0187923 0.0463486 -0.0232382 255 140 0
-0.0165170 0.0463492 -0.0232363 255 140 0
-0.0142472 0.0463500 -0.0232338 255 140 0
-0.0119723 0.0463530 -0.0232279 255 140 0
-0.0096983 0.0463556 -0.0232210 255 140 0
-0.0074304 0.0463578 -0.0232167 255 140 0
-0.0051613 0.0463604 -0.0232099 255 140 0
-0.0028904 0.0463641 -0.0231985 255 140 0
-0.0006198 0.0463669 -0.0231891 255 140 0
0.0016513 0.0463687 -0.0231783 255 140 0
0.0039230 0.0463691 -0.0231714 255 140 0
-0.0664910 0.0486374 -0.0231619 255 140 0
-0.0642194 0.0486416 -0.0231692 255 140 0
-0.0619399 0.0486423 -0.0231863 255 140 0
-0.0596685 0.0486412 -0.0231990 255 140 0
-0.0574051 0.0486374 -0.0232110 255 140 0
-0.0551338 0.0486350 -0.0232181 255 140 0
-0.0528625 0.0486344 -0.0232222 255 140 0
-0.0505910 0.0486336 -0.0232262 255 140 0
-0.0483194 0.0486329 -0.0232285 255 140 0
-0.0460479 0.0486321 -0.0232304 255 140 0
-0.0437763 0.0486315 -0.0232316 255 140 0
-0.0415046 0.0486307 -0.0232328 255 140 0
-0.0392329 0.0486300 -0.0232338 255 140 0
-0.0369605 0.0486290 -0.0232342 255 140 0
-0.0346887 0.0486280 -0.0232346 255 140 0
-0.0324173 0.0486276 -0.0232347 255 140 0
-0.0301461 0.0486270 -0.0232347 255 140 0
-0.0278745 0.0486264 -0.0232347 255 140 0
-0.0256029 0.0486258 -0.0232345 255 140 0
-0.0233313 0.0486254 -0.0232342 255 140 0
-0.0210598 0.0486251 -0.0232339 255 140 0
-0.0187882 0.0486247 -0.0232334 255 140 0
-0.0165164 0.0486243 -0.0232328 255 140 0
-0.0142470 0.0486240 -0.0232319 255 140 0
-0.0119720 0.0486244 -0.0232298 255 140 0
-0.0096979 0.0486246 -0.0232276 255 140 0
-0.0074291 0.0486244 -0.0232267 255 140 0
-0.0051601 0.0486256 -0.0232223 255 140 0
-0.0028897 0.0486280 -0.0232159 255 140 0
-0.0006191 0.0486308 -0.0232068 255 140 0
0.0016517 0.0486343 -0.0231943 255 140 0
0.0039227 0.0486369 -0.0231844 255 140 0
0.0061934 0.0486407 -0.0231767 255 140 0
-0.0687627 0.0509040 -0.0231696 255 140 0
-0.0664911 0.0509047 -0.0231783 255 140 0
-0.0642196 0.0509052 -0.0231896 255 140 0
-0.0619478 0.0509039 -0.0232046 255 140 0
-0.0596712 0.0509025 -0.0232168 255 140 0
-0.0574052 0.0509011 -0.0232217 255 140 0
-0.0551337 0.0509001 -0.0232261 255 140 0
-0.0528624 0.0508996 -0.0232299 255 140 0
-0.0505909 0.0508988 -0.0232322 255 140 0
-0.0483194 0.0508982 -0.0232338 255 140 0
-0.0460480 0.0508977 -0.0232351 255 140 0
-0.0437764 0.0508972 -0.0232359 255 140 0
-0.0415047 0.0508965 -0.0232365 255 140 0
-0.0392329 0.0508957 -0.0232370 255 140 0
-0.0369607 0.0508946 -0.0232372 255 140 0
-0.0346887 0.0508938 -0.0232373 255 140 0
-0.0324175 0.0508933 -0.0232374 255 140 0
-0.0301462 0.0508928 -0.0232374 255 140 0
-0.0278747 0.0508922 -0.0232374 255 140 0
-0.0256031 0.0508916 -0.0232373 255 140 0
-0.0233315 0.0508910 -0.0232372 255 140 0
-0.0210600 0.0508905 -0.0232370 255 140 0
-0.0187884 0.0508901 -0.0232368 255 140 0
-0.0165166 0.0508896 -0.0232365 255 140 0
-0.0142469 0.0508892 -0.0232361 255 140 0
-0.0119700 0.0508888 -0.0232347 255 140 0
-0.0096977 0.0508888 -0.0232332 255 140 0
-0.0074290 0.0508888 -0.0232323 255 140 0
-0.0051589 0.0508896 -0.0232296 255 140 0
-0.0028885 0.0508912 -0.0232248 255 140 0
-0.0006181 0.0508934 -0.0232188 255 140 0
0.0016523 0.0508961 -0.0232114 255 140 0
0.0039227 0.0508987 -0.0232017 255 140 0
0.0061930 0.0509031 -0.0231940 255 140 0
0.0084644 0.0509059 -0.0231867 255 140 0
-0.0710344 0.0531719 -0.0231781 255 140 0
-0.0687629 0.0531756 -0.0231843 255 140 0
-0.0664913 0.0531720 -0.0231961 255 140 0
-0.0642200 0.0531704 -0.0232072 255 140 0
-0.0619486 0.0531684 -0.0232210 255 140 0
-0.0596770 0.0531672 -0.0232296 255 140 0
-0.0574057 0.0531671 -0.0232320 255 140 0
-0.0551343 0.0531668 -0.0232342 255 140 0
-0.0528628 0.0531662 -0.0232367 255 140 0
-0.0505913 0.0531660 -0.0232384 255 140 0
-0.0483197 0.0531655 -0.0232395 255 140 0
-0.0460481 0.0531649 -0.0232402 255 140 0
-0.0437765 0.0531643 -0.0232407 255 140 0
-0.0415047 0.0531637 -0.0232411 255 140 0
-0.0392330 0.0531631 -0.0232415 255 140 0
-0.0369607 0.0531621 -0.0232414 255 140 0
-0.0346888 0.0531613 -0.0232414 255 140 0
-0.0324175 0.0531610 -0.0232415 255 140 0
-0.0301462 0.0531604 -0.0232416 255 140 0
-0.0278747 0.0531598 -0.0232415 255 140 0
-0.0256031 0.0531592 -0.0232415 255 140 0
-0.0233314 0.0531586 -0.0232415 255 140 0
-0.0210599 0.0531580 -0.0232414 255 140 0
-0.0187883 0.0531574 -0.0232414 255 140 0
-0.0165165 0.0531567 -0.0232413 255 140 0
-0.0142469 0.0531562 -0.0232411 255 140 0
-0.0119698 0.0531558 -0.0232404 255 140 0
-0.0096976 0.0531559 -0.0232395 255 140 0
-0.0074287 0.0531560 -0.0232388 255 140 0
-0.0051587 0.0531565 -0.0232371 255 140 0
-0.0028878 0.0531572 -0.0232341 255 140 0
-0.0006172 0.0531591 -0.0232298 255 140 0
0.0016532 0.0531615 -0.0232246 255 140 0
0.0039237 0.0531641 -0.0232180 255 140 0
0.0061932 0.0531673 -0.0232093 255 140 0
0.0084643 0.0531737 -0.0232009 255 140 0
0.0107308 0.0531792 -0.0232012 255 140 0
-0.0733060 0.0554444 -0.0231841 255 140 0
-0.0710343 0.0554454 -0.0231922 255 140 0
-0.0687630 0.0554433 -0.0232031 255 140 0
-0.0664918 0.0554388 -0.0232139 255 140 0
-0.0642206 0.0554365 -0.0232245 255 140 0
-0.0619488 0.0554354 -0.0232331 255 140 0
-0.0596770 0.0554346 -0.0232391 255 140 0
-0.0574058 0.0554346 -0.0232407 255 140 0
-0.0551343 0.0554348 -0.0232422 255 140 0
-0.0528627 0.0554346 -0.0232436 255 140 0
-0.0505912 0.0554345 -0.0232445 255 140 0
-0.0483196 0.0554345 -0.0232452 255 140 0
-0.0460481 0.0554342 -0.0232456 255 140 0
-0.0437765 0.0554338 -0.0232458 255 140 0
-0.0415048 0.0554332 -0.0232461 255 140 0
-0.0392331 0.0554326 -0.0232463 255 140 0
-0.0369606 0.0554318 -0.0232460 255 140 0
-0.0346886 0.0554311 -0.0232458 255 140 0
-0.0324174 0.0554307 -0.0232460 255 140 0
-0.0301461 0.0554303 -0.0232461 255 140 0
-0.0278746 0.0554296 -0.0232461 255 140 0
-0.0256030 0.0554291 -0.0232461 255 140 0
-0.0233314 0.0554285 -0.0232462 255 140 0
-0.0210599 0.0554279 -0.0232462 255 140 0
-0.0187883 0.0554274 -0.0232463 255 140 0
-0.0165165 0.0554267 -0.0232464 255 140 0
-0.0142467 0.0554262 -0.0232465 255 140 0
-0.0119697 0.0554256 -0.0232463 255 140 0
-0.0096974 0.0554253 -0.0232460 255 140 0
-0.0074276 0.0554254 -0.0232460 255 140 0
-0.0051579 0.0554259 -0.0232453 255 140 0
-0.0028871 0.0554264 -0.0232438 255 140 0
-0.0006164 0.0554275 -0.0232407 255 140 0
0.0016540 0.0554291 -0.0232363 255 140 0
0.0039241 0.0554316 -0.0232313 255 140 0
0.0061943 0.0554352 -0.0232243 255 140 0
0.0084646 0.0554387 -0.0232144 255 140 0
0.0107335 0.0554448 -0.0232123 255 140 0
0.0130150 0.0554482 -0.0231527 255 140 0
-0.0755772 0.0577258 -0.0231848 255 140 0
-0.0733058 0.0577241 -0.0231963 255 140 0
-0.0710347 0.0577198 -0.0232090 255 140 0
-0.0687638 0.0577144 -0.0232207 255 140 0
-0.0664924 0.0577111 -0.0232306 255 140 0
-0.0642211 0.0577084 -0.0232390 255 140 0
-0.0619489 0.0577077 -0.0232446 255 140 0
-0.0596771 0.0577074 -0.0232486 255 140 0
-0.0574059 0.0577075 -0.0232495 255 140 0
-0.0551345 0.0577077 -0.0232503 255 140 0
-0.0528629 0.0577080 -0.0232510 255 140 0
-0.0505913 0.0577082 -0.0232513 255 140 0
-0.0483197 0.0577082 -0.0232516 255 140 0
-0.0460481 0.0577081 -0.0232517 255 140 0
-0.0437764 0.0577077 -0.0232518 255 140 0
-0.0415046 0.0577072 -0.0232520 255 140 0
-0.0392329 0.0577067 -0.0232522 255 140 0
-0.0369605 0.0577059 -0.0232518 255 140 0
-0.0346885 0.0577053 -0.0232516 255 140 0
-0.0324172 0.0577049 -0.0232518 255 140 0
-0.0301461 0.0577045 -0.0232520 255 140 0
-0.0278745 0.0577039 -0.0232520 255 140 0
-0.0256030 0.0577034 -0.0232521 255 140 0
-0.0233314 0.0577030 -0.0232522 255 140 0
-0.0210598 0.0577024 -0.0232523 255 140 0
-0.0187882 0.0577019 -0.0232524 255 140 0
-0.0165164 0.0577013 -0.0232526 255 140 0
-0.0142465 0.0577008 -0.0232528 255 140 0
-0.0119695 0.0577001 -0.0232527 255 140 0
-0.0096972 0.0576996 -0.0232526 255 140 0
-0.0074274 0.0576997 -0.0232529 255 140 0
-0.0051573 0.0576998 -0.0232527 255 140 0
-0.0028865 0.0577001 -0.0232520 255 140 0
-0.0006157 0.0577011 -0.0232505 255 140 0
0.0016549 0.0577025 -0.0232479 255 140 0
0.0039253 0.0577045 -0.0232442 255 140 0
0.0061955 0.0577076 -0.0232378 255 140 0
0.0084655 0.0577119 -0.0232281 255 140 0
0.0107359 0.0577143 -0.0232243 255 140 0
0.0130145 0.0577356 -0.0231652 255 140 0
0.0152873 0.0577455 -0.0231365 255 140 0
-0.0755770 0.0600075 -0.0231989 255 140 0
-0.0733060 0.0600001 -0.0232135 255 140 0
-0.0710353 0.0599954 -0.0232265 255 140 0
-0.0687639 0.0599913 -0.0232367 255 140 0
-0.0664925 0.0599882 -0.0232452 255 140 0
-0.0642210 0.0599861 -0.0232516 255 140 0
-0.0619489 0.0599857 -0.0232548 255 140 0
-0.0596769 0.0599856 -0.0232570 255 140 0
-0.0574059 0.0599860 -0.0232573 255 140 0
-0.0551345 0.0599864 -0.0232576 255 140 0
-0.0528628 0.0599866 -0.0232579 255 140 0
-0.0505911 0.0599868 -0.0232582 255 140 0
-0.0483195 0.0599868 -0.0232583 255 140 0
-0.0460480 0.0599866 -0.0232582 255 140 0
-0.0437765 0.0599863 -0.0232583 255 140 0
-0.0415047 0.0599859 -0.0232584 255 140 0
-0.0392330 0.0599854 -0.0232586 255 140 0
-0.0369605 0.0599847 -0.0232581 255 140 0
-0.0346882 0.0599841 -0.0232579 255 140 0
-0.0324173 0.0599839 -0.0232581 255 140 0
-0.0301460 0.0599834 -0.0232583 255 140 0
-0.0278744 0.0599830 -0.0232584 255 140 0
-0.0256029 0.0599824 -0.0232585 255 140 0
-0.0233313 0.0599820 -0.0232586 255 140 0
-0.0210598 0.0599816 -0.0232587 255 140 0
-0.0187883 0.0599811 -0.0232589 255 140 0
-0.0165162 0.0599807 -0.0232592 255 140 0
-0.0142463 0.0599803 -0.0232596 255 140 0
-0.0119693 0.0599797 -0.0232597 255 140 0
-0.0096954 0.0599793 -0.0232598 255 140 0
-0.0074271 0.0599794 -0.0232600 255 140 0
-0.0051570 0.0599795 -0.0232601 255 140 0
-0.0028860 0.0599797 -0.0232599 255 140 0
-0.0006151 0.0599803 -0.0232593 255 140 0
0.0016557 0.0599811 -0.0232580 255 140 0
0.0039258 0.0599828 -0.0232557 255 140 0
0.0061960 0.0599858 -0.0232509 255 140 0
0.0084673 0.0599908 -0.0232414 255 140 0
0.0107364 0.0599939 -0.0232357 255 140 0
0.0130123 0.0600206 -0.0231829 255 140 0
0.0152868 0.0600323 -0.0231554 255 140 0
0.0175515 0.0600211 -0.0231755 255 140 0
-0.0778481 0.0622921 -0.0232028 255 140 0
-0.0755766 0.0622884 -0.0232136 255 140 0
-0.0733059 0.0622832 -0.0232290 255 140 0
-0.0710354 0.0622782 -0.0232407 255 140 0
-0.0687643 0.0622739 -0.0232498 255 140 0
-0.0664929 0.0622713 -0.0232561 255 140 0
-0.0642214 0.0622694 -0.0232606 255 140 0
-0.0619489 0.0622692 -0.0232625 255 140 0
-0.0596769 0.0622694 -0.0232636 255 140 0
-0.0574058 0.0622697 -0.0232640 255 140 0
-0.0551344 0.0622698 -0.0232642 255 140 0
-0.0528629 0.0622701 -0.0232642 255 140 0
-0.0505913 0.0622703 -0.0232641 255 140 0
-0.0483197 0.0622703 -0.0232640 255 140 0
-0.0460481 0.0622703 -0.0232640 255 140 0
-0.0437764 0.0622701 -0.0232639 255 140 0
-0.0415046 0.0622698 -0.0232639 255 140 0
-0.0392329 0.0622694 -0.0232640 255 140 0
-0.0369604 0.0622688 -0.0232637 255 140 0
-0.0346881 0.0622683 -0.0232635 255 140 0
-0.0324172 0.0622680 -0.0232637 255 140 0
-0.0301456 0.0622677 -0.0232639 255 140 0
-0.0278741 0.0622671 -0.0232640 255 140 0
-0.0256025 0.0622667 -0.0232641 255 140 0
-0.0233310 0.0622663 -0.0232643 255 140 0
-0.0210596 0.0622658 -0.0232646 255 140 0
-0.0187880 0.0622655 -0.0232648 255 140 0
-0.0165161 0.0622650 -0.0232651 255 140 0
-0.0142461 0.0622647 -0.0232655 255 140 0
-0.0119691 0.0622644 -0.0232659 255 140 0
-0.0096951 0.0622643 -0.0232662 255 140 0
-0.0074269 0.0622642 -0.0232667 255 140 0
-0.0051568 0.0622643 -0.0232670 255 140 0
-0.0028856 0.0622647 -0.0232672 255 140 0
-0.0006145 0.0622654 -0.0232672 255 140 0
0.0016564 0.0622661 -0.0232667 255 140 0
0.0039271 0.0622676 -0.0232652 255 140 0
0.0061974 0.0622701 -0.0232617 255 140 0
0.0084679 0.0622749 -0.0232540 255 140 0
0.0107376 0.0622783 -0.0232475 255 140 0
0.0130123 0.0623033 -0.0232061 255 140 0
0.0152849 0.0623151 -0.0231822 255 140 0
0.0175550 0.0623094 -0.0231868 255 140 0
0.0198229 0.0623078 -0.0231895 255 140 0
-0.0801197 0.0645992 -0.0232006 255 140 0
-0.0778481 0.0645960 -0.0232089 255 140 0
-0.0755770 0.0645912 -0.0232209 255 140 0
-0.0733063 0.0645861 -0.0232356 255 140 0
-0.0710352 0.0645813 -0.0232456 255 140 0
-0.0687642 0.0645726 -0.0232524 255 140 0
-0.0664928 0.0645698 -0.0232568 255 140 0
-0.0642212 0.0645687 -0.0232598 255 140 0
-0.0619486 0.0645687 -0.0232603 255 140 0
-0.0596764 0.0645686 -0.0232607 255 140 0
-0.0574054 0.0645689 -0.0232607 255 140 0
-0.0551340 0.0645691 -0.0232607 255 140 0
-0.0528624 0.0645695 -0.0232605 255 140 0
-0.0505908 0.0645697 -0.0232602 255 140 0
-0.0483191 0.0645711 -0.0232599 255 140 0
-0.0460476 0.0645729 -0.0232598 255 140 0
-0.0437760 0.0645735 -0.0232598 255 140 0
-0.0415042 0.0645741 -0.0232598 255 140 0
-0.0392325 0.0645737 -0.0232599 255 140 0
-0.0369599 0.0645730 -0.0232596 255 140 0
-0.0346876 0.0645725 -0.0232594 255 140 0
-0.0324167 0.0645722 -0.0232596 255 140 0
-0.0301454 0.0645717 -0.0232598 255 140 0
-0.0278739 0.0645711 -0.0232599 255 140 0
-0.0256024 0.0645705 -0.0232601 255 140 0
-0.0233308 0.0645699 -0.0232604 255 140 0
-0.0210593 0.0645693 -0.0232606 255 140 0
-0.0187878 0.0645685 -0.0232610 255 140 0
-0.0165158 0.0645659 -0.0232613 255 140 0
-0.0142452 0.0645649 -0.0232619 255 140 0
-0.0119687 0.0645646 -0.0232627 255 140 0
-0.0096947 0.0645645 -0.0232634 255 140 0
-0.0074264 0.0645648 -0.0232638 255 140 0
-0.0051563 0.0645648 -0.0232642 255 140 0
-0.0028849 0.0645649 -0.0232647 255 140 0
-0.0006139 0.0645655 -0.0232649 255 140 0
0.0016572 0.0645663 -0.0232649 255 140 0
0.0039277 0.0645677 -0.0232643 255 140 0
0.0061981 0.0645702 -0.0232620 255 140 0
0.0084685 0.0645755 -0.0232569 255 140 0
0.0107398 0.0645838 -0.0232509 255 140 0
0.0130130 0.0646014 -0.0232219 255 140 0
0.0152853 0.0646122 -0.0232025 255 140 0
0.0175553 0.0646117 -0.0231949 255 140 0
0.0198230 0.0646117 -0.0231923 255 140 0
-0.0823916 0.0668858 -0.0232152 255 140 0
-0.0801196 0.0668818 -0.0232232 255 140 0
-0.0778478 0.0668762 -0.0232448 255 140 0
-0.0755777 0.0668693 -0.0232647 255 140 0
-0.0733074 0.0668627 -0.0232813 255 140 0
-0.0710362 0.0668570 -0.0232924 255 140 0
-0.0687649 0.0668538 -0.0232988 255 140 0
-0.0664935 0.0668517 -0.0233026 255 140 0
-0.0642219 0.0668497 -0.0233048 255 140 0
-0.0619491 0.0668497 -0.0233048 255 140 0
-0.0596768 0.0668492 -0.0233049 255 140 0
-0.0574059 0.0668494 -0.0233052 255 140 0
-0.0551346 0.0668496 -0.0233051 255 140 0
-0.0528630 0.0668497 -0.0233050 255 140 0
-0.0505915 0.0668500 -0.0233047 255 140 0
-0.0483198 0.0668499 -0.0233044 255 140 0
-0.0460483 0.0668500 -0.0233042 255 140 0
-0.0437767 0.0668499 -0.0233040 255 140 0
-0.0415048 0.0668499 -0.0233041 255 140 0
-0.0392332 0.0668498 -0.0233042 255 140 0
-0.0369603 0.0668493 -0.0233038 255 140 0
-0.0346878 0.0668487 -0.0233036 255 140 0
-0.0324171 0.0668485 -0.0233038 255 140 0
-0.0301458 0.0668484 -0.0233039 255 140 0
-0.0278743 0.0668481 -0.0233040 255 140 0
-0.0256027 0.0668478 -0.0233041 255 140 0
-0.0233312 0.0668476 -0.0233042 255 140 0
-0.0210597 0.0668474 -0.0233043 255 140 0
-0.0187882 0.0668473 -0.0233045 255 140 0
-0.0165162 0.0668470 -0.0233049 255 140 0
-0.0142461 0.0668470 -0.0233054 255 140 0
-0.0119688 0.0668466 -0.0233058 255 140 0
-0.0096947 0.0668465 -0.0233061 255 140 0
-0.0074264 0.0668465 -0.0233065 255 140 0
-0.0051564 0.0668469 -0.0233070 255 140 0
-0.0028849 0.0668471 -0.0233075 255 140 0
-0.0006139 0.0668477 -0.0233078 255 140 0
0.0016572 0.0668485 -0.0233080 255 140 0
0.0039277 0.0668496 -0.0233079 255 140 0
0.0061986 0.0668520 -0.0233069 255 140 0
0.0084696 0.0668548 -0.0233040 255 140 0
0.0107400 0.0668577 -0.0232983 255 140 0
0.0130148 0.0668719 -0.0232807 255 140 0
0.0152868 0.0668815 -0.0232649 255 140 0
0.0175551 0.0668834 -0.0232480 255 140 0
0.0198218 0.0668848 -0.0232366 255 140 0
0.0220937 0.0668860 -0.0232317 255 140 0
-0.0823917 0.0691678 -0.0232247 255 140 0
-0.0801195 0.0691632 -0.0232408 255 140 0
-0.0778487 0.0691561 -0.0232703 255 140 0
-0.0755781 0.0691487 -0.0232940 255 140 0
-0.0733074 0.0691411 -0.0233112 255 140 0
-0.0710367 0.0691352 -0.0233220 255 140 0
-0.0687655 0.0691315 -0.0233279 255 140 0
-0.0664939 0.0691295 -0.0233309 255 140 0
-0.0642222 0.0691283 -0.0233324 255 140 0
-0.0619495 0.0691284 -0.0233319 255 140 0
-0.0596770 0.0691283 -0.0233317 255 140 0
-0.0574064 0.0691282 -0.0233319 255 140 0
-0.0551352 0.0691285 -0.0233321 255 140 0
-0.0528635 0.0691284 -0.0233319 255 140 0
-0.0505919 0.0691285 -0.0233317 255 140 0
-0.0483203 0.0691287 -0.0233314 255 140 0
-0.0460487 0.0691285 -0.0233312 255 140 0
-0.0437770 0.0691282 -0.0233311 255 140 0
-0.0415051 0.0691279 -0.0233310 255 140 0
-0.0392333 0.0691274 -0.0233310 255 140 0
-0.0369603 0.0691266 -0.0233304 255 140 0
-0.0346878 0.0691260 -0.0233301 255 140 0
-0.0324171 0.0691259 -0.0233303 255 140 0
-0.0301459 0.0691256 -0.0233304 255 140 0
-0.0278744 0.0691252 -0.0233304 255 140 0
-0.0256028 0.0691251 -0.0233304 255 140 0
-0.0233313 0.0691250 -0.0233306 255 140 0
-0.0210598 0.0691249 -0.0233306 255 140 0
-0.0187883 0.0691247 -0.0233308 255 140 0
-0.0165162 0.0691248 -0.0233311 255 140 0
-0.0142462 0.0691253 -0.0233316 255 140 0
-0.0119687 0.0691254 -0.0233315 255 140 0
-0.0096944 0.0691255 -0.0233316 255 140 0
-0.0074259 0.0691257 -0.0233322 255 140 0
-0.0051564 0.0691260 -0.0233326 255 140 0
-0.0028849 0.0691264 -0.0233329 255 140 0
-0.0006138 0.0691267 -0.0233334 255 140 0
0.0016574 0.0691275 -0.0233339 255 140 0
0.0039281 0.0691284 -0.0233342 255 140 0
0.0061993 0.0691298 -0.0233340 255 140 0
0.0084708 0.0691325 -0.0233326 255 140 0
0.0107403 0.0691349 -0.0233278 255 140 0
0.0130152 0.0691464 -0.0233191 255 140 0
0.0152871 0.0691540 -0.0233063 255 140 0
0.0175550 0.0691577 -0.0232843 255 140 0
0.0198218 0.0691609 -0.0232672 255 140 0
0.0220934 0.0691625 -0.0232541 255 140 0
-0.0823916 0.0714584 -0.0232414 255 140 0
-0.0801196 0.0714560 -0.0232560 255 140 0
-0.0778490 0.0714510 -0.0232811 255 140 0
-0.0755783 0.0714456 -0.0233007 255 140 0
-0.0733077 0.0714412 -0.0233141 255 140 0
-0.0710365 0.0714364 -0.0233226 255 140 0
-0.0687652 0.0714340 -0.0233267 255 140 0
-0.0664937 0.0714326 -0.0233287 255 140 0
-0.0642220 0.0714319 -0.0233298 255 140 0
-0.0619487 0.0714320 -0.0233290 255 140 0
-0.0596764 0.0714320 -0.0233285 255 140 0
-0.0574056 0.0714320 -0.0233287 255 140 0
-0.0551344 0.0714319 -0.0233289 255 140 0
-0.0528629 0.0714318 -0.0233286 255 140 0
-0.0505913 0.0714316 -0.0233285 255 140 0
-0.0483198 0.0714315 -0.0233282 255 140 0
-0.0460482 0.0714313 -0.0233281 255 140 0
-0.0437766 0.0714311 -0.0233281 255 140 0
-0.0415048 0.0714306 -0.0233281 255 140 0
-0.0392331 0.0714299 -0.0233282 255 140 0
-0.0369599 0.0714292 -0.0233276 255 140 0
-0.0346873 0.0714289 -0.0233273 255 140 0
-0.0324166 0.0714288 -0.0233274 255 140 0
-0.0301456 0.0714284 -0.0233275 255 140 0
-0.0278740 0.0714281 -0.0233275 255 140 0
-0.0256024 0.0714279 -0.0233274 255 140 0
-0.0233308 0.0714276 -0.0233274 255 140 0
-0.0210593 0.0714274 -0.0233273 255 140 0
-0.0187877 0.0714277 -0.0233274 255 140 0
-0.0165157 0.0714279 -0.0233276 255 140 0
-0.0142457 0.0714281 -0.0233278 255 140 0
-0.0119681 0.0714284 -0.0233277 255 140 0
-0.0096941 0.0714286 -0.0233279 255 140 0
-0.0074258 0.0714289 -0.0233285 255 140 0
-0.0051558 0.0714292 -0.0233287 255 140 0
-0.0028843 0.0714295 -0.0233291 255 140 0
-0.0006132 0.0714298 -0.0233294 255 140 0
0.0016580 0.0714303 -0.0233298 255 140 0
0.0039288 0.0714308 -0.0233301 255 140 0
0.0062000 0.0714316 -0.0233301 255 140 0
0.0084716 0.0714330 -0.0233290 255 140 0
0.0107418 0.0714350 -0.0233251 255 140 0
0.0130159 0.0714408 -0.0233180 255 140 0
0.0152877 0.0714442 -0.0233075 255 140 0
0.0175557 0.0714478 -0.0232895 255 140 0
0.0198220 0.0714490 -0.0232748 255 140 0
0.0220936 0.0714471 -0.0232625 255 140 0
-0.0846637 0.0737381 -0.0232457 255 140 0
-0.0823917 0.0737387 -0.0232540 255 140 0
-0.0801195 0.0737370 -0.0232685 255 140 0
-0.0778489 0.0737332 -0.0232901 255 140 0
-0.0755783 0.0737301 -0.0233062 255 140 0
-0.0733073 0.0737266 -0.0233168 255 140 0
-0.0710361 0.0737239 -0.0233229 255 140 0
-0.0687648 0.0737226 -0.0233258 255 140 0
-0.0664932 0.0737218 -0.0233271 255 140 0
-0.0642215 0.0737218 -0.0233276 255 140 0
-0.0619487 0.0737218 -0.0233268 255 140 0
-0.0596763 0.0737217 -0.0233263 255 140 0
-0.0574053 0.0737218 -0.0233265 255 140 0
-0.0551341 0.0737217 -0.0233266 255 140 0
-0.0528625 0.0737216 -0.0233264 255 140 0
-0.0505909 0.0737214 -0.0233262 255 140 0
-0.0483193 0.0737210 -0.0233260 255 140 0
-0.0460477 0.0737208 -0.0233259 255 140 0
-0.0437761 0.0737203 -0.0233259 255 140 0
-0.0415043 0.0737196 -0.0233259 255 140 0
-0.0392325 0.0737189 -0.0233260 255 140 0
-0.0369596 0.0737182 -0.0233254 255 140 0
-0.0346872 0.0737178 -0.0233253 255 140 0
-0.0324164 0.0737176 -0.0233254 255 140 0
-0.0301451 0.0737174 -0.0233254 255 140 0
-0.0278735 0.0737171 -0.0233253 255 140 0
-0.0256019 0.0737168 -0.0233252 255 140 0
-0.0233304 0.0737164 -0.0233250 255 140 0
-0.0210589 0.0737162 -0.0233250 255 140 0
-0.0187873 0.0737161 -0.0233251 255 140 0
-0.0165153 0.0737166 -0.0233251 255 140 0
-0.0142454 0.0737169 -0.0233253 255 140 0
-0.0119678 0.0737170 -0.0233252 255 140 0
-0.0096938 0.0737173 -0.0233254 255 140 0
-0.0074255 0.0737176 -0.0233259 255 140 0
-0.0051555 0.0737178 -0.0233262 255 140 0
-0.0028840 0.0737182 -0.0233265 255 140 0
-0.0006129 0.0737187 -0.0233267 255 140 0
0.0016584 0.0737192 -0.0233270 255 140 0
0.0039293 0.0737198 -0.0233274 255 140 0
0.0062004 0.0737203 -0.0233273 255 140 0
0.0084721 0.0737207 -0.0233264 255 140 0
0.0107435 0.0737215 -0.0233231 255 140 0
0.0130170 0.0737236 -0.0233181 255 140 0
0.0152886 0.0737251 -0.0233091 255 140 0
0.0175559 0.0737269 -0.0232945 255 140 0
0.0198228 0.0737269 -0.0232810 255 140 0
0.0220937 0.0737247 -0.0232676 255 140 0
0.0243653 0.0737210 -0.0232660 255 140 0
-0.0846634 0.0760091 -0.0232460 255 140 0
-0.0823867 0.0760092 -0.0232600 255 140 0
-0.0801198 0.0760060 -0.0232768 255 140 0
-0.0778499 0.0760013 -0.0232958 255 140 0
-0.0755788 0.0759972 -0.0233095 255 140 0
-0.0733079 0.0759941 -0.0233181 255 140 0
-0.0710367 0.0759911 -0.0233227 255 140 0
-0.0687653 0.0759896 -0.0233248 255 140 0
-0.0664937 0.0759884 -0.0233256 255 140 0
-0.0642219 0.0759880 -0.0233258 255 140 0
-0.0619486 0.0759885 -0.0233249 255 140 0
-0.0596760 0.0759888 -0.0233245 255 140 0
-0.0574054 0.0759890 -0.0233247 255 140 0
-0.0551341 0.0759890 -0.0233247 255 140 0
-0.0528626 0.0759891 -0.0233246 255 140 0
-0.0505910 0.0759890 -0.0233246 255 140 0
-0.0483194 0.0759886 -0.0233245 255 140 0
-0.0460479 0.0759883 -0.0233245 255 140 0
-0.0437764 0.0759874 -0.0233245 255 140 0
-0.0415045 0.0759870 -0.0233245 255 140 0
-0.0392327 0.0759864 -0.0233246 255 140 0
-0.0369596 0.0759858 -0.0233242 255 140 0
-0.0346869 0.0759852 -0.0233241 255 140 0
-0.0324164 0.0759849 -0.0233242 255 140 0
-0.0301453 0.0759847 -0.0233243 255 140 0
-0.0278737 0.0759843 -0.0233242 255 140 0
-0.0256020 0.0759840 -0.0233242 255 140 0
-0.0233305 0.0759839 -0.0233241 255 140 0
-0.0210590 0.0759838 -0.0233242 255 140 0
-0.0187874 0.0759837 -0.0233243 255 140 0
-0.0165155 0.0759838 -0.0233245 255 140 0
-0.0142454 0.0759841 -0.0233246 255 140 0
-0.0119678 0.0759846 -0.0233245 255 140 0
-0.0096939 0.0759849 -0.0233245 255 140 0
-0.0074256 0.0759850 -0.0233248 255 140 0
-0.0051555 0.0759851 -0.0233251 255 140 0
-0.0028841 0.0759852 -0.0233253 255 140 0
-0.0006129 0.0759856 -0.0233254 255 140 0
0.0016584 0.0759861 -0.0233257 255 140 0
0.0039293 0.0759866 -0.0233258 255 140 0
0.0062004 0.0759871 -0.0233258 255 140 0
0.0084722 0.0759879 -0.0233253 255 140 0
0.0107437 0.0759887 -0.0233228 255 140 0
0.0130185 0.0759918 -0.0233191 255 140 0
0.0152902 0.0759932 -0.0233111 255 140 0
0.0175560 0.0759954 -0.0232989 255 140 0
0.0198232 0.0759968 -0.0232850 255 140 0
0.0220936 0.0759954 -0.0232685 255 140 0
0.0243654 0.0759922 -0.0232631 255 140 0
-0.0846551 0.0782763 -0.0232466 255 140 0
-0.0823842 0.0782750 -0.0232659 255 140 0
-0.0801204 0.0782727 -0.0232838 255 140 0
-0.0778498 0.0782676 -0.0233003 255 140 0
-0.0755792 0.0782632 -0.0233116 255 140 0
-0.0733082 0.0782595 -0.0233182 255 140 0
-0.0710369 0.0782573 -0.0233220 255 140 0
-0.0687654 0.0782561 -0.0233234 255 140 0
-0.0664937 0.0782554 -0.0233237 255 140 0
-0.0642220 0.0782552 -0.0233238 255 140 0
-0.0619487 0.0782554 -0.0233228 255 140 0
-0.0596762 0.0782555 -0.0233222 255 140 0
-0.0574056 0.0782558 -0.0233224 255 140 0
-0.0551344 0.0782560 -0.0233225 255 140 0
-0.0528629 0.0782559 -0.0233223 255 140 0
-0.0505913 0.0782559 -0.0233221 255 140 0
-0.0483197 0.0782557 -0.0233222 255 140 0
-0.0460481 0.0782550 -0.0233222 255 140 0
-0.0437765 0.0782540 -0.0233222 255 140 0
-0.0415045 0.0782537 -0.0233222 255 140 0
-0.0392327 0.0782532 -0.0233224 255 140 0
-0.0369595 0.0782525 -0.0233221 255 140 0
-0.0346870 0.0782521 -0.0233221 255 140 0
-0.0324163 0.0782521 -0.0233222 255 140 0
-0.0301452 0.0782517 -0.0233222 255 140 0
-0.0278737 0.0782514 -0.0233221 255 140 0
-0.0256021 0.0782513 -0.0233222 255 140 0
-0.0233305 0.0782511 -0.0233221 255 140 0
-0.0210590 0.0782510 -0.0233221 255 140 0
-0.0187874 0.0782510 -0.0233222 255 140 0
-0.0165154 0.0782509 -0.0233223 255 140 0
-0.0142454 0.0782511 -0.0233226 255 140 0
-0.0119679 0.0782517 -0.0233222 255 140 0
-0.0096939 0.0782519 -0.0233221 255 140 0
-0.0074256 0.0782522 -0.0233225 255 140 0
-0.0051555 0.0782523 -0.0233227 255 140 0
-0.0028841 0.0782524 -0.0233229 255 140 0
-0.0006129 0.0782528 -0.0233230 255 140 0
0.0016584 0.0782531 -0.0233231 255 140 0
0.0039295 0.0782536 -0.0233233 255 140 0
0.0062004 0.0782540 -0.0233233 255 140 0
0.0084722 0.0782544 -0.0233230 255 140 0
0.0107437 0.0782555 -0.0233208 255 140 0
0.0130188 0.0782574 -0.0233183 255 140 0
0.0152906 0.0782590 -0.0233116 255 140 0
0.0175563 0.0782622 -0.0233008 255 140 0
0.0198233 0.0782637 -0.0232868 255 140 0
0.0220935 0.0782627 -0.0232680 255 140 0
0.0243653 0.0782608 -0.0232595 255 140 0
-0.0846534 0.0805374 -0.0232478 255 140 0
-0.0823850 0.0805388 -0.0232715 255 140 0
