ply
format ascii 1.0
element vertex 1170
property float x
property float y
property float z
property uchar red
property uchar green
property uchar blue
end_header
-0.0165126 0.1078478 0.0292940 255 140 0
-0.0142409 0.1078478 0.0292939 255 140 0
-0.0119693 0.1078478 0.0292938 255 140 0
-0.0096978 0.1078477 0.0292938 255 140 0
-0.0074261 0.1078477 0.0292938 255 140 0
-0.0051544 0.1078478 0.0292938 255 140 0
-0.0028828 0.1078478 0.0292937 255 140 0
-0.0006112 0.1078478 0.0292937 255 140 0
0.0016605 0.1078478 0.0292937 255 140 0
0.0039321 0.1078478 0.0292937 255 140 0
0.0062037 0.1078477 0.0292938 255 140 0
0.0084754 0.1078476 0.0292941 255 140 0
0.0107470 0.1078473 0.0292946 255 140 0
0.0130186 0.1078471 0.0292953 255 140 0
0.0152902 0.1078462 0.0292970 255 140 0
0.0175621 0.1078449 0.0292991 255 140 0
0.0198338 0.1078420 0.0293033 255 140 0
0.0221054 0.1078386 0.0293097 255 140 0
-0.0823902 0.1101084 0.0293121 255 140 0
-0.0801177 0.1101132 0.0293043 255 140 0
-0.0778461 0.1101157 0.0293001 255 140 0
-0.0755745 0.1101171 0.0292974 255 140 0
-0.0733029 0.1101178 0.0292960 255 140 0
-0.0710313 0.1101186 0.0292951 255 140 0
-0.0687596 0.1101190 0.0292946 255 140 0
-0.0664880 0.1101193 0.0292942 255 140 0
-0.0642164 0.1101195 0.0292940 255 140 0
-0.0619449 0.1101196 0.0292939 255 140 0
-0.0596733 0.1101197 0.0292938 255 140 0
-0.0574016 0.1101197 0.0292937 255 140 0
-0.0551299 0.1101198 0.0292937 255 140 0
-0.0528583 0.1101198 0.0292937 255 140 0
-0.0505866 0.1101198 0.0292936 255 140 0
-0.0483150 0.1101199 0.0292936 255 140 0
-0.0460434 0.1101200 0.0292935 255 140 0
-0.0437718 0.1101201 0.0292934 255 140 0
-0.0415001 0.1101201 0.0292933 255 140 0
-0.0392285 0.1101202 0.0292932 255 140 0
-0.0369569 0.1101202 0.0292930 255 140 0
-0.0346853 0.1101203 0.0292929 255 140 0
-0.0324136 0.1101203 0.0292929 255 140 0
-0.0301425 0.1101203 0.0292928 255 140 0
-0.0278708 0.1101203 0.0292927 255 140 0
-0.0255992 0.1101203 0.0292927 255 140 0
-0.0233275 0.1101203 0.0292926 255 140 0
-0.0210559 0.1101202 0.0292925 255 140 0
-0.0187842 0.1101202 0.0292925 255 140 0
-0.0165126 0.1101202 0.0292924 255 140 0
-0.0142409 0.1101202 0.0292923 255 140 0
-0.0119693 0.1101202 0.0292922 255 140 0
-0.0096977 0.1101203 0.0292921 255 140 0
-0.0074261 0.1101203 0.0292921 255 140 0
-0.0051544 0.1101204 0.0292921 255 140 0
-0.0028828 0.1101204 0.0292920 255 140 0
-0.0006111 0.1101204 0.0292920 255 140 0
0.0016605 0.1101205 0.0292920 255 140 0
0.0039322 0.1101205 0.0292920 255 140 0
0.0062038 0.1101204 0.0292921 255 140 0
0.0084754 0.1101204 0.0292924 255 140 0
0.0107470 0.1101200 0.0292930 255 140 0
0.0130186 0.1101196 0.0292937 255 140 0
0.0152902 0.1101182 0.0292956 255 140 0
0.0175621 0.1101170 0.0292978 255 140 0
0.0198338 0.1101142 0.0293020 255 140 0
-0.0801177 0.1123847 0.0293046 255 140 0
-0.0778461 0.1123873 0.0292997 255 140 0
-0.0755745 0.1123892 0.0292965 255 140 0
-0.0733029 0.1123903 0.0292947 255 140 0
-0.0710313 0.1123912 0.0292936 255 140 0
-0.0687596 0.1123916 0.0292930 255 140 0
-0.0664880 0.1123920 0.0292925 255 140 0
-0.0642164 0.1123922 0.0292922 255 140 0
-0.0619449 0.1123923 0.0292920 255 140 0
-0.0596732 0.1123924 0.0292919 255 140 0
-0.0574015 0.1123924 0.0292919 255 140 0
-0.0551299 0.1123925 0.0292918 255 140 0
-0.0528583 0.1123925 0.0292918 255 140 0
-0.0505866 0.1123926 0.0292917 255 140 0
-0.0483150 0.1123926 0.0292916 255 140 0
-0.0460434 0.1123927 0.0292915 255 140 0
-0.0437718 0.1123929 0.0292914 255 140 0
-0.0415001 0.1123929 0.0292912 255 140 0
-0.0392285 0.1123930 0.0292911 255 140 0
-0.0369569 0.1123931 0.0292909 255 140 0
-0.0346853 0.1123931 0.0292908 255 140 0
-0.0324136 0.1123932 0.0292907 255 140 0
-0.0301424 0.1123932 0.0292906 255 140 0
-0.0278708 0.1123932 0.0292905 255 140 0
-0.0255991 0.1123932 0.0292904 255 140 0
-0.0233275 0.1123932 0.0292903 255 140 0
-0.0210559 0.1123932 0.0292903 255 140 0
-0.0187842 0.1123933 0.0292902 255 140 0
-0.0165126 0.1123933 0.0292901 255 140 0
-0.0142409 0.1123933 0.0292900 255 140 0
-0.0119693 0.1123933 0.0292899 255 140 0
-0.0096977 0.1123934 0.0292898 255 140 0
-0.0074261 0.1123934 0.0292898 255 140 0
-0.0051544 0.1123934 0.0292897 255 140 0
-0.0028828 0.1123934 0.0292897 255 140 0
-0.0006111 0.1123934 0.0292896 255 140 0
0.0016605 0.1123934 0.0292896 255 140 0
0.0039321 0.1123934 0.0292897 255 140 0
0.0062038 0.1123934 0.0292897 255 140 0
0.0084754 0.1123933 0.0292900 255 140 0
0.0107470 0.1123929 0.0292907 255 140 0
0.0130186 0.1123925 0.0292915 255 140 0
0.0152902 0.1123913 0.0292934 255 140 0
0.0175621 0.1123898 0.0292959 255 140 0
0.0198338 0.1123867 0.0293000 255 140 0
-0.0801182 0.1146552 0.0293051 255 140 0
-0.0778461 0.1146590 0.0292989 255 140 0
-0.0755745 0.1146616 0.0292951 255 140 0
-0.0733029 0.1146628 0.0292931 255 140 0
-0.0710313 0.1146638 0.0292919 255 140 0
-0.0687596 0.1146642 0.0292912 255 140 0
-0.0664880 0.1146645 0.0292907 255 140 0
-0.0642164 0.1146647 0.0292904 255 140 0
-0.0619448 0.1146648 0.0292902 255 140 0
-0.0596732 0.1146649 0.0292900 255 140 0
-0.0574015 0.1146649 0.0292900 255 140 0
-0.0551299 0.1146650 0.0292900 255 140 0
-0.0528583 0.1146650 0.0292899 255 140 0
-0.0505866 0.1146651 0.0292898 255 140 0
-0.0483150 0.1146652 0.0292897 255 140 0
-0.0460434 0.1146653 0.0292896 255 140 0
-0.0437718 0.1146653 0.0292894 255 140 0
-0.0415001 0.1146654 0.0292893 255 140 0
-0.0392285 0.1146656 0.0292891 255 140 0
-0.0369569 0.1146658 0.0292889 255 140 0
-0.0346853 0.1146659 0.0292887 255 140 0
-0.0324136 0.1146659 0.0292886 255 140 0
-0.0301424 0.1146659 0.0292885 255 140 0
-0.0278708 0.1146659 0.0292884 255 140 0
-0.0255991 0.1146660 0.0292883 255 140 0
-0.0233275 0.1146660 0.0292882 255 140 0
-0.0210558 0.1146660 0.0292881 255 140 0
-0.0187842 0.1146660 0.0292880 255 140 0
-0.0165126 0.1146660 0.0292879 255 140 0
-0.0142409 0.1146660 0.0292879 255 140 0
-0.0119693 0.1146659 0.0292877 255 140 0
-0.0096977 0.1146659 0.0292876 255 140 0
-0.0074260 0.1146660 0.0292876 255 140 0
-0.0051544 0.1146660 0.0292875 255 140 0
-0.0028827 0.1146660 0.0292875 255 140 0
-0.0006111 0.1146660 0.0292874 255 140 0
0.0016606 0.1146660 0.0292874 255 140 0
0.0039322 0.1146660 0.0292875 255 140 0
0.0062038 0.1146659 0.0292876 255 140 0
0.0084754 0.1146656 0.0292878 255 140 0
0.0107471 0.1146654 0.0292885 255 140 0
0.0130187 0.1146650 0.0292895 255 140 0
0.0152903 0.1146639 0.0292915 255 140 0
0.0175621 0.1146629 0.0292938 255 140 0
0.0198338 0.1146597 0.0292983 255 140 0
-0.0778461 0.1169307 0.0292993 255 140 0
-0.0755745 0.1169330 0.0292951 255 140 0
-0.0733029 0.1169352 0.0292916 255 140 0
-0.0710313 0.1169366 0.0292893 255 140 0
-0.0687596 0.1169376 0.0292878 255 140 0
-0.0664880 0.1169382 0.0292868 255 140 0
-0.0642164 0.1169387 0.0292861 255 140 0
-0.0619448 0.1169389 0.0292857 255 140 0
-0.0596731 0.1169391 0.0292854 255 140 0
-0.0574015 0.1169391 0.0292853 255 140 0
-0.0551299 0.1169392 0.0292852 255 140 0
-0.0528583 0.1169392 0.0292850 255 140 0
-0.0505866 0.1169393 0.0292849 255 140 0
-0.0483150 0.1169394 0.0292847 255 140 0
-0.0460434 0.1169395 0.0292846 255 140 0
-0.0437718 0.1169395 0.0292844 255 140 0
-0.0415001 0.1169396 0.0292842 255 140 0
-0.0392285 0.1169396 0.0292840 255 140 0
-0.0369569 0.1169398 0.0292838 255 140 0
-0.0346853 0.1169399 0.0292836 255 140 0
-0.0324136 0.1169399 0.0292835 255 140 0
-0.0301423 0.1169399 0.0292833 255 140 0
-0.0278706 0.1169399 0.0292832 255 140 0
-0.0255990 0.1169400 0.0292831 255 140 0
-0.0233274 0.1169400 0.0292829 255 140 0
-0.0210557 0.1169400 0.0292828 255 140 0
-0.0187841 0.1169400 0.0292827 255 140 0
-0.0165125 0.1169400 0.0292826 255 140 0
-0.0142408 0.1169401 0.0292825 255 140 0
-0.0119692 0.1169402 0.0292823 255 140 0
-0.0096976 0.1169402 0.0292822 255 140 0
-0.0074260 0.1169402 0.0292821 255 140 0
-0.0051543 0.1169403 0.0292821 255 140 0
-0.0028827 0.1169403 0.0292820 255 140 0
-0.0006110 0.1169403 0.0292820 255 140 0
0.0016606 0.1169403 0.0292820 255 140 0
0.0039322 0.1169404 0.0292820 255 140 0
0.0062038 0.1169402 0.0292822 255 140 0
0.0084755 0.1169399 0.0292827 255 140 0
0.0107471 0.1169395 0.0292836 255 140 0
0.0130187 0.1169381 0.0292855 255 140 0
0.0152903 0.1169362 0.0292880 255 140 0
0.0175619 0.1169341 0.0292912 255 140 0
-0.0755746 0.1192049 0.0292946 255 140 0
-0.0733029 0.1192076 0.0292898 255 140 0
-0.0710313 0.1192095 0.0292867 255 140 0
-0.0687596 0.1192105 0.0292848 255 140 0
-0.0664880 0.1192113 0.0292835 255 140 0
-0.0642164 0.1192119 0.0292826 255 140 0
-0.0619449 0.1192122 0.0292820 255 140 0
-0.0596732 0.1192124 0.0292816 255 140 0
-0.0574016 0.1192126 0.0292815 255 140 0
-0.0551299 0.1192127 0.0292812 255 140 0
-0.0528583 0.1192128 0.0292810 255 140 0
-0.0505866 0.1192129 0.0292809 255 140 0
-0.0483150 0.1192129 0.0292807 255 140 0
-0.0460434 0.1192130 0.0292805 255 140 0
-0.0437718 0.1192131 0.0292804 255 140 0
-0.0415001 0.1192132 0.0292802 255 140 0
-0.0392285 0.1192132 0.0292799 255 140 0
-0.0369569 0.1192132 0.0292796 255 140 0
-0.0346853 0.1192133 0.0292794 255 140 0
-0.0324136 0.1192133 0.0292793 255 140 0
-0.0301422 0.1192134 0.0292791 255 140 0
-0.0278706 0.1192134 0.0292790 255 140 0
-0.0255989 0.1192134 0.0292788 255 140 0
-0.0233273 0.1192135 0.0292786 255 140 0
-0.0210557 0.1192135 0.0292785 255 140 0
-0.0187840 0.1192135 0.0292783 255 140 0
-0.0165124 0.1192135 0.0292782 255 140 0
-0.0142408 0.1192135 0.0292781 255 140 0
-0.0119692 0.1192136 0.0292779 255 140 0
-0.0096975 0.1192137 0.0292777 255 140 0
-0.0074259 0.1192137 0.0292776 255 140 0
-0.0051543 0.1192137 0.0292776 255 140 0
-0.0028827 0.1192137 0.0292775 255 140 0
-0.0006110 0.1192137 0.0292775 255 140 0
0.0016606 0.1192138 0.0292775 255 140 0
0.0039322 0.1192138 0.0292776 255 140 0
0.0062039 0.1192137 0.0292778 255 140 0
0.0084755 0.1192135 0.0292785 255 140 0
0.0107471 0.1192125 0.0292796 255 140 0
0.0130187 0.1192103 0.0292827 255 140 0
0.0152903 0.1192083 0.0292856 255 140 0
0.0175619 0.1192065 0.0292889 255 140 0
-0.0755745 0.1214774 0.0292926 255 140 0
-0.0733029 0.1214799 0.0292876 255 140 0
-0.0710313 0.1214826 0.0292845 255 140 0
-0.0687596 0.1214836 0.0292826 255 140 0
-0.0664880 0.1214844 0.0292811 255 140 0
-0.0642164 0.1214848 0.0292802 255 140 0
-0.0619448 0.1214850 0.0292795 255 140 0
-0.0596731 0.1214852 0.0292790 255 140 0
-0.0574015 0.1214853 0.0292789 255 140 0
-0.0551299 0.1214854 0.0292788 255 140 0
-0.0528583 0.1214854 0.0292786 255 140 0
-0.0505866 0.1214855 0.0292785 255 140 0
-0.0483150 0.1214856 0.0292783 255 140 0
-0.0460434 0.1214857 0.0292781 255 140 0
-0.0437718 0.1214857 0.0292780 255 140 0
-0.0415001 0.1214858 0.0292778 255 140 0
-0.0392285 0.1214858 0.0292776 255 140 0
-0.0369569 0.1214859 0.0292774 255 140 0
-0.0346853 0.1214859 0.0292772 255 140 0
-0.0324136 0.1214859 0.0292771 255 140 0
-0.0301422 0.1214859 0.0292770 255 140 0
-0.0278705 0.1214859 0.0292768 255 140 0
-0.0255989 0.1214859 0.0292767 255 140 0
-0.0233273 0.1214860 0.0292766 255 140 0
-0.0210556 0.1214860 0.0292765 255 140 0
-0.0187840 0.1214861 0.0292763 255 140 0
-0.0165124 0.1214861 0.0292762 255 140 0
-0.0142408 0.1214861 0.0292761 255 140 0
-0.0119691 0.1214862 0.0292759 255 140 0
-0.0096975 0.1214862 0.0292758 255 140 0
-0.0074259 0.1214862 0.0292757 255 140 0
-0.0051543 0.1214862 0.0292757 255 140 0
-0.0028826 0.1214863 0.0292756 255 140 0
-0.0006110 0.1214863 0.0292756 255 140 0
0.0016606 0.1214863 0.0292756 255 140 0
0.0039323 0.1214863 0.0292758 255 140 0
0.0062039 0.1214862 0.0292761 255 140 0
0.0084755 0.1214858 0.0292767 255 140 0
0.0107471 0.1214853 0.0292778 255 140 0
0.0130188 0.1214828 0.0292815 255 140 0
0.0152904 0.1214806 0.0292850 255 140 0
-0.0733029 0.1237527 0.0292859 255 140 0
-0.0710313 0.1237552 0.0292825 255 140 0
-0.0687596 0.1237563 0.0292802 255 140 0
-0.0664880 0.1237571 0.0292788 255 140 0
-0.0642164 0.1237578 0.0292778 255 140 0
-0.0619448 0.1237582 0.0292771 255 140 0
-0.0596731 0.1237585 0.0292766 255 140 0
-0.0574015 0.1237585 0.0292765 255 140 0
-0.0551299 0.1237586 0.0292764 255 140 0
-0.0528583 0.1237587 0.0292762 255 140 0
-0.0505866 0.1237587 0.0292761 255 140 0
-0.0483150 0.1237587 0.0292759 255 140 0
-0.0460434 0.1237587 0.0292758 255 140 0
-0.0437718 0.1237587 0.0292756 255 140 0
-0.0415001 0.1237588 0.0292755 255 140 0
-0.0392285 0.1237589 0.0292753 255 140 0
-0.0369569 0.1237590 0.0292751 255 140 0
-0.0346853 0.1237590 0.0292749 255 140 0
-0.0324136 0.1237591 0.0292749 255 140 0
-0.0301421 0.1237591 0.0292748 255 140 0
-0.0278705 0.1237591 0.0292747 255 140 0
-0.0255988 0.1237592 0.0292746 255 140 0
-0.0233272 0.1237592 0.0292744 255 140 0
-0.0210556 0.1237592 0.0292743 255 140 0
-0.0187839 0.1237594 0.0292742 255 140 0
-0.0165123 0.1237594 0.0292741 255 140 0
-0.0142407 0.1237595 0.0292740 255 140 0
-0.0119691 0.1237595 0.0292739 255 140 0
-0.0096975 0.1237595 0.0292738 255 140 0
-0.0074259 0.1237595 0.0292737 255 140 0
-0.0051542 0.1237595 0.0292737 255 140 0
-0.0028826 0.1237596 0.0292737 255 140 0
-0.0006110 0.1237596 0.0292737 255 140 0
0.0016607 0.1237595 0.0292737 255 140 0
0.0039323 0.1237593 0.0292739 255 140 0
0.0062039 0.1237591 0.0292742 255 140 0
0.0084755 0.1237582 0.0292750 255 140 0
0.0107472 0.1237579 0.0292759 255 140 0
0.0130188 0.1237547 0.0292807 255 140 0
-0.0733029 0.1260269 0.0292844 255 140 0
-0.0710313 0.1260284 0.0292805 255 140 0
-0.0687596 0.1260296 0.0292782 255 140 0
-0.0664880 0.1260310 0.0292765 255 140 0
-0.0642164 0.1260314 0.0292753 255 140 0
-0.0619448 0.1260319 0.0292745 255 140 0
-0.0596731 0.1260321 0.0292740 255 140 0
-0.0574015 0.1260321 0.0292739 255 140 0
-0.0551299 0.1260322 0.0292738 255 140 0
-0.0528583 0.1260323 0.0292736 255 140 0
-0.0505866 0.1260323 0.0292735 255 140 0
-0.0483150 0.1260324 0.0292733 255 140 0
-0.0460434 0.1260325 0.0292732 255 140 0
-0.0437718 0.1260325 0.0292731 255 140 0
-0.0415001 0.1260325 0.0292729 255 140 0
-0.0392285 0.1260326 0.0292728 255 140 0
-0.0369569 0.1260326 0.0292726 255 140 0
-0.0346853 0.1260326 0.0292725 255 140 0
-0.0324136 0.1260326 0.0292724 255 140 0
-0.0301420 0.1260326 0.0292723 255 140 0
-0.0278704 0.1260327 0.0292722 255 140 0
-0.0255988 0.1260327 0.0292721 255 140 0
-0.0233272 0.1260327 0.0292720 255 140 0
-0.0210555 0.1260326 0.0292720 255 140 0
-0.0187839 0.1260326 0.0292719 255 140 0
-0.0165123 0.1260326 0.0292718 255 140 0
-0.0142407 0.1260326 0.0292717 255 140 0
-0.0119691 0.1260325 0.0292715 255 140 0
-0.0096975 0.1260325 0.0292714 255 140 0
-0.0074258 0.1260324 0.0292714 255 140 0
-0.0051542 0.1260324 0.0292714 255 140 0
-0.0028826 0.1260323 0.0292714 255 140 0
-0.0006110 0.1260323 0.0292714 255 140 0
0.0016607 0.1260323 0.0292715 255 140 0
0.0039323 0.1260322 0.0292717 255 140 0
0.0062039 0.1260321 0.0292722 255 140 0
0.0084756 0.1260319 0.0292731 255 140 0
0.0107472 0.1260312 0.0292737 255 140 0
0.0130188 0.1260274 0.0292800 255 140 0
-0.0710313 0.1283008 0.0292792 255 140 0
-0.0687596 0.1283026 0.0292766 255 140 0
-0.0664880 0.1283032 0.0292747 255 140 0
-0.0642164 0.1283041 0.0292733 255 140 0
-0.0619448 0.1283044 0.0292724 255 140 0
-0.0596731 0.1283046 0.0292718 255 140 0
-0.0574015 0.1283046 0.0292717 255 140 0
-0.0551299 0.1283047 0.0292715 255 140 0
-0.0528583 0.1283047 0.0292714 255 140 0
-0.0505866 0.1283048 0.0292712 255 140 0
-0.0483150 0.1283049 0.0292711 255 140 0
-0.0460434 0.1283049 0.0292710 255 140 0
-0.0437718 0.1283050 0.0292709 255 140 0
-0.0415001 0.1283049 0.0292707 255 140 0
-0.0392285 0.1283049 0.0292705 255 140 0
-0.0369569 0.1283050 0.0292703 255 140 0
-0.0346852 0.1283050 0.0292701 255 140 0
-0.0324136 0.1283051 0.0292701 255 140 0
-0.0301420 0.1283052 0.0292700 255 140 0
-0.0278704 0.1283052 0.0292698 255 140 0
-0.0255987 0.1283052 0.0292698 255 140 0
-0.0233271 0.1283052 0.0292697 255 140 0
-0.0210555 0.1283053 0.0292696 255 140 0
-0.0187839 0.1283053 0.0292695 255 140 0
-0.0165123 0.1283053 0.0292694 255 140 0
-0.0142407 0.1283052 0.0292693 255 140 0
-0.0119691 0.1283051 0.0292692 255 140 0
-0.0096975 0.1283050 0.0292691 255 140 0
-0.0074258 0.1283049 0.0292691 255 140 0
-0.0051542 0.1283049 0.0292691 255 140 0
-0.0028826 0.1283047 0.0292691 255 140 0
-0.0006109 0.1283047 0.0292692 255 140 0
0.0016607 0.1283046 0.0292694 255 140 0
0.0039323 0.1283045 0.0292697 255 140 0
0.0062039 0.1283041 0.0292703 255 140 0
0.0084756 0.1283037 0.0292715 255 140 0
0.0107472 0.1283037 0.0292719 255 140 0
-0.0687596 0.1305745 0.0292755 255 140 0
-0.0664880 0.1305754 0.0292734 255 140 0
-0.0642164 0.1305763 0.0292717 255 140 0
-0.0619448 0.1305774 0.0292703 255 140 0
-0.0596731 0.1305778 0.0292695 255 140 0
-0.0574015 0.1305778 0.0292694 255 140 0
-0.0551299 0.1305779 0.0292692 255 140 0
-0.0528583 0.1305780 0.0292690 255 140 0
-0.0505866 0.1305781 0.0292689 255 140 0
-0.0483150 0.1305781 0.0292687 255 140 0
-0.0460434 0.1305780 0.0292686 255 140 0
-0.0437718 0.1305779 0.0292685 255 140 0
-0.0415001 0.1305779 0.0292683 255 140 0
-0.0392285 0.1305779 0.0292682 255 140 0
-0.0369568 0.1305780 0.0292681 255 140 0
-0.0346852 0.1305782 0.0292680 255 140 0
-0.0324136 0.1305783 0.0292679 255 140 0
-0.0301420 0.1305783 0.0292679 255 140 0
-0.0278703 0.1305783 0.0292678 255 140 0
-0.0255987 0.1305783 0.0292677 255 140 0
-0.0233271 0.1305784 0.0292677 255 140 0
-0.0210555 0.1305784 0.0292676 255 140 0
-0.0187839 0.1305785 0.0292676 255 140 0
-0.0165123 0.1305785 0.0292675 255 140 0
-0.0142407 0.1305785 0.0292674 255 140 0
-0.0119690 0.1305783 0.0292674 255 140 0
-0.0096974 0.1305781 0.0292673 255 140 0
-0.0074258 0.1305777 0.0292673 255 140 0
-0.0051542 0.1305773 0.0292673 255 140 0
-0.0028825 0.1305770 0.0292674 255 140 0
-0.0006105 0.1305769 0.0292675 255 140 0
0.0016608 0.1305764 0.0292677 255 140 0
0.0039323 0.1305763 0.0292681 255 140 0
0.0062040 0.1305762 0.0292688 255 140 0
0.0084756 0.1305756 0.0292700 255 140 0
-0.0664880 0.1328477 0.0292724 255 140 0
-0.0642164 0.1328494 0.0292701 255 140 0
-0.0619448 0.1328504 0.0292688 255 140 0
-0.0596731 0.1328511 0.0292679 255 140 0
-0.0574015 0.1328511 0.0292677 255 140 0
-0.0551299 0.1328513 0.0292675 255 140 0
-0.0528583 0.1328514 0.0292673 255 140 0
-0.0505866 0.1328513 0.0292671 255 140 0
-0.0483150 0.1328511 0.0292670 255 140 0
-0.0460434 0.1328511 0.0292669 255 140 0
-0.0437717 0.1328511 0.0292668 255 140 0
-0.0415001 0.1328511 0.0292667 255 140 0
-0.0392284 0.1328511 0.0292665 255 140 0
-0.0369568 0.1328509 0.0292664 255 140 0
-0.0346852 0.1328510 0.0292663 255 140 0
-0.0324135 0.1328511 0.0292663 255 140 0
-0.0301419 0.1328512 0.0292662 255 140 0
-0.0278703 0.1328512 0.0292662 255 140 0
-0.0255987 0.1328513 0.0292662 255 140 0
-0.0233271 0.1328513 0.0292661 255 140 0
-0.0210555 0.1328513 0.0292661 255 140 0
-0.0187839 0.1328513 0.0292661 255 140 0
-0.0165122 0.1328512 0.0292660 255 140 0
-0.0142406 0.1328510 0.0292660 255 140 0
-0.0119690 0.1328506 0.0292659 255 140 0
-0.0096974 0.1328500 0.0292659 255 140 0
-0.0074258 0.1328493 0.0292659 255 140 0
-0.0051542 0.1328487 0.0292660 255 140 0
-0.0028825 0.1328482 0.0292661 255 140 0
-0.0006104 0.1328480 0.0292662 255 140 0
0.0016617 0.1328479 0.0292666 255 140 0
0.0039324 0.1328479 0.0292671 255 140 0
0.0062040 0.1328474 0.0292678 255 140 0
0.0084756 0.1328472 0.0292690 255 140 0
-0.0642164 0.1351220 0.0292693 255 140 0
-0.0619448 0.1351230 0.0292678 255 140 0
-0.0596731 0.1351235 0.0292668 255 140 0
-0.0574015 0.1351235 0.0292665 255 140 0
-0.0551299 0.1351235 0.0292663 255 140 0
-0.0528583 0.1351235 0.0292660 255 140 0
-0.0505866 0.1351234 0.0292658 255 140 0
-0.0483150 0.1351235 0.0292657 255 140 0
-0.0460433 0.1351236 0.0292656 255 140 0
-0.0437717 0.1351235 0.0292654 255 140 0
-0.0415000 0.1351234 0.0292653 255 140 0
-0.0392284 0.1351234 0.0292651 255 140 0
-0.0369567 0.1351233 0.0292650 255 140 0
-0.0346851 0.1351234 0.0292649 255 140 0
-0.0324135 0.1351236 0.0292649 255 140 0
-0.0301419 0.1351235 0.0292649 255 140 0
-0.0278703 0.1351239 0.0292649 255 140 0
-0.0255987 0.1351240 0.0292649 255 140 0
-0.0233271 0.1351241 0.0292649 255 140 0
-0.0210555 0.1351241 0.0292649 255 140 0
-0.0187838 0.1351240 0.0292649 255 140 0
-0.0165122 0.1351237 0.0292649 255 140 0
-0.0142406 0.1351233 0.0292649 255 140 0
-0.0119690 0.1351224 0.0292649 255 140 0
-0.0096974 0.1351211 0.0292649 255 140 0
-0.0074258 0.1351187 0.0292649 255 140 0
-0.0051542 0.1351174 0.0292650 255 140 0
-0.0028825 0.1351163 0.0292652 255 140 0
-0.0006095 0.1351162 0.0292654 255 140 0
0.0016626 0.1351166 0.0292658 255 140 0
0.0039361 0.1351172 0.0292664 255 140 0
-0.0619448 0.1373952 0.0292672 255 140 0
-0.0596731 0.1373959 0.0292662 255 140 0
-0.0574015 0.1373958 0.0292658 255 140 0
-0.0551299 0.1373961 0.0292654 255 140 0
-0.0528583 0.1373962 0.0292651 255 140 0
-0.0505866 0.1373961 0.0292648 255 140 0
-0.0483150 0.1373961 0.0292646 255 140 0
-0.0460433 0.1373960 0.0292644 255 140 0
-0.0437717 0.1373958 0.0292642 255 140 0
-0.0415000 0.1373957 0.0292640 255 140 0
-0.0392283 0.1373956 0.0292639 255 140 0
-0.0369566 0.1373957 0.0292637 255 140 0
-0.0346850 0.1373959 0.0292637 255 140 0
-0.0324134 0.1373960 0.0292637 255 140 0
-0.0301418 0.1373960 0.0292638 255 140 0
-0.0278702 0.1373961 0.0292638 255 140 0
-0.0255986 0.1373962 0.0292639 255 140 0
-0.0233270 0.1373962 0.0292639 255 140 0
-0.0210554 0.1373961 0.0292640 255 140 0
-0.0187838 0.1373959 0.0292640 255 140 0
-0.0165122 0.1373954 0.0292640 255 140 0
-0.0142406 0.1373943 0.0292640 255 140 0
-0.0119690 0.1373926 0.0292640 255 140 0
-0.0096974 0.1373900 0.0292641 255 140 0
-0.0074258 0.1373854 0.0292642 255 140 0
-0.0051542 0.1373819 0.0292644 255 140 0
-0.0028806 0.1373791 0.0292646 255 140 0
-0.0006076 0.1373786 0.0292651 255 140 0
-0.0574015 0.1396680 0.0292661 255 140 0
-0.0551299 0.1396680 0.0292655 255 140 0
-0.0528583 0.1396680 0.0292651 255 140 0
-0.0505867 0.1396680 0.0292647 255 140 0
-0.0483150 0.1396679 0.0292642 255 140 0
-0.0460434 0.1396680 0.0292639 255 140 0
-0.0437718 0.1396679 0.0292638 255 140 0
-0.0415002 0.1396677 0.0292635 255 140 0
-0.0392286 0.1396678 0.0292635 255 140 0
-0.0369558 0.1396651 0.0292612 255 140 0
-0.0346835 0.1396639 0.0292601 255 140 0
-0.0324123 0.1396646 0.0292609 255 140 0
-0.0301409 0.1396651 0.0292615 255 140 0
-0.0278695 0.1396663 0.0292618 255 140 0
-0.0255981 0.1396663 0.0292621 255 140 0
-0.0233267 0.1396660 0.0292623 255 140 0
-0.0210552 0.1396651 0.0292625 255 140 0
-0.0187837 0.1396633 0.0292628 255 140 0
-0.0165121 0.1396605 0.0292650 255 140 0
-0.0142331 0.1396503 0.0292761 255 140 0
-0.0119690 0.1396484 0.0292689 255 140 0
-0.0096974 0.1396336 0.0292691 255 140 0
-0.0074260 0.1395810 0.0292635 255 140 0
-0.0051544 0.1395648 0.0292639 255 140 0
-0.0028827 0.1395764 0.0292642 255 140 0
-0.0551298 0.1419400 0.0292625 255 140 0
-0.0528581 0.1419400 0.0292621 255 140 0
-0.0505865 0.1419401 0.0292620 255 140 0
-0.0483148 0.1419401 0.0292621 255 140 0
-0.0460429 0.1419408 0.0292619 255 140 0
-0.0437711 0.1419413 0.0292615 255 140 0
-0.0414993 0.1419412 0.0292612 255 140 0
-0.0392274 0.1419410 0.0292609 255 140 0
-0.0369586 0.1419487 0.0292662 255 140 0
-0.0346884 0.1419529 0.0292689 255 140 0
-0.0324161 0.1419516 0.0292674 255 140 0
-0.0301438 0.1419502 0.0292663 255 140 0
-0.0278719 0.1419501 0.0292658 255 140 0
-0.0256000 0.1419509 0.0292654 255 140 0
-0.0233281 0.1419522 0.0292650 255 140 0
-0.0210561 0.1419546 0.0292647 255 140 0
-0.0187842 0.1419578 0.0292643 255 140 0
-0.0165124 0.1419615 0.0292639 255 140 0
-0.0142407 0.1419777 0.0292637 255 140 0
-0.0119691 0.1419533 0.0292593 255 140 0
-0.0097020 0.1418766 0.0292579 255 140 0
-0.0074332 0.1420666 0.0292552 255 140 0
-0.0483146 0.1442116 0.0292610 255 140 0
-0.0460426 0.1442121 0.0292606 255 140 0
-0.0437705 0.1442122 0.0292599 255 140 0
-0.0414986 0.1442128 0.0292609 255 140 0
-0.0392265 0.1442126 0.0292634 255 140 0
-0.0369603 0.1442269 0.0292691 255 140 0
-0.0346914 0.1442349 0.0292743 255 140 0
-0.0324182 0.1442316 0.0292714 255 140 0
-0.0301456 0.1442301 0.0292694 255 140 0
-0.0278734 0.1442302 0.0292684 255 140 0
-0.0256011 0.1442311 0.0292674 255 140 0
-0.0233289 0.1442334 0.0292667 255 140 0
-0.0210568 0.1442378 0.0292657 255 140 0
-0.0187847 0.1442414 0.0292535 255 140 0
-0.0165128 0.1441313 0.0292498 255 140 0
-0.0142484 0.1441624 0.0292490 255 140 0
-0.0119767 0.1441550 0.0292496 255 140 0
-0.0369577 0.1464897 0.0292642 255 140 0
-0.0346868 0.1464919 0.0292657 255 140 0
-0.0324149 0.1464916 0.0292652 255 140 0
-0.0301433 0.1464921 0.0292650 255 140 0
-0.0278717 0.1464933 0.0292651 255 140 0
-0.0255999 0.1464947 0.0292650 255 140 0
-0.0233281 0.1464961 0.0292647 255 140 0
-0.0210562 0.1464973 0.0292644 255 140 0
-0.0187842 0.1464983 0.0292639 255 140 0
-0.0165124 0.1464987 0.0292636 255 140 0
-0.0369569 0.0396891 0.0315340 255 140 0
-0.0346853 0.0396891 0.0315340 255 140 0
-0.0324136 0.0396891 0.0315340 255 140 0
-0.0301420 0.0396892 0.0315339 255 140 0
-0.0278704 0.0396892 0.0315339 255 140 0
-0.0255987 0.0396892 0.0315339 255 140 0
-0.0233271 0.0396892 0.0315339 255 140 0
-0.0483150 0.0419607 0.0315340 255 140 0
-0.0460434 0.0419608 0.0315340 255 140 0
-0.0437718 0.0419608 0.0315340 255 140 0
-0.0415001 0.0419608 0.0315340 255 140 0
-0.0392285 0.0419608 0.0315340 255 140 0
-0.0369569 0.0419607 0.0315340 255 140 0
-0.0346853 0.0419607 0.0315340 255 140 0
-0.0324136 0.0419607 0.0315340 255 140 0
-0.0301420 0.0419607 0.0315340 255 140 0
-0.0278704 0.0419607 0.0315340 255 140 0
-0.0255987 0.0419607 0.0315340 255 140 0
-0.0233271 0.0419607 0.0315340 255 140 0
-0.0210555 0.0419607 0.0315340 255 140 0
-0.0187839 0.0419607 0.0315340 255 140 0
-0.0165123 0.0419607 0.0315341 255 140 0
-0.0142406 0.0419607 0.0315341 255 140 0
-0.0528583 0.0442324 0.0315340 255 140 0
-0.0505866 0.0442324 0.0315340 255 140 0
-0.0483150 0.0442324 0.0315340 255 140 0
-0.0460434 0.0442324 0.0315340 255 140 0
-0.0437718 0.0442324 0.0315340 255 140 0
-0.0415001 0.0442324 0.0315340 255 140 0
-0.0392285 0.0442324 0.0315340 255 140 0
-0.0369569 0.0442324 0.0315340 255 140 0
-0.0346853 0.0442323 0.0315340 255 140 0
-0.0324136 0.0442323 0.0315340 255 140 0
-0.0301420 0.0442323 0.0315341 255 140 0
-0.0278704 0.0442323 0.0315341 255 140 0
-0.0255987 0.0442323 0.0315341 255 140 0
-0.0233271 0.0442323 0.0315341 255 140 0
-0.0210555 0.0442323 0.0315341 255 140 0
-0.0187839 0.0442323 0.0315341 255 140 0
-0.0165123 0.0442323 0.0315341 255 140 0
-0.0142406 0.0442323 0.0315341 255 140 0
-0.0119690 0.0442323 0.0315342 255 140 0
-0.0096974 0.0442323 0.0315343 255 140 0
-0.0551299 0.0465039 0.0315342 255 140 0
-0.0528583 0.0465039 0.0315340 255 140 0
-0.0505866 0.0465040 0.0315340 255 140 0
-0.0483150 0.0465040 0.0315340 255 140 0
-0.0460434 0.0465040 0.0315340 255 140 0
-0.0437718 0.0465040 0.0315340 255 140 0
-0.0415001 0.0465040 0.0315340 255 140 0
-0.0392285 0.0465040 0.0315341 255 140 0
-0.0369569 0.0465040 0.0315341 255 140 0
-0.0346853 0.0465040 0.0315341 255 140 0
-0.0324136 0.0465039 0.0315341 255 140 0
-0.0301420 0.0465039 0.0315341 255 140 0
-0.0278704 0.0465039 0.0315341 255 140 0
-0.0255987 0.0465039 0.0315341 255 140 0
-0.0233271 0.0465039 0.0315341 255 140 0
-0.0210555 0.0465039 0.0315341 255 140 0
-0.0187839 0.0465039 0.0315341 255 140 0
-0.0165123 0.0465039 0.0315342 255 140 0
-0.0142406 0.0465039 0.0315342 255 140 0
-0.0119690 0.0465039 0.0315343 255 140 0
-0.0096974 0.0465038 0.0315343 255 140 0
-0.0074258 0.0465037 0.0315344 255 140 0
-0.0051541 0.0465036 0.0315346 255 140 0
-0.0028825 0.0465036 0.0315347 255 140 0
-0.0574015 0.0487754 0.0315343 255 140 0
-0.0551299 0.0487755 0.0315342 255 140 0
-0.0528583 0.0487755 0.0315342 255 140 0
-0.0505866 0.0487755 0.0315342 255 140 0
-0.0483150 0.0487755 0.0315342 255 140 0
-0.0460434 0.0487755 0.0315342 255 140 0
-0.0437718 0.0487755 0.0315342 255 140 0
-0.0415001 0.0487755 0.0315342 255 140 0
-0.0392285 0.0487755 0.0315342 255 140 0
-0.0369569 0.0487754 0.0315342 255 140 0
-0.0346853 0.0487754 0.0315342 255 140 0
-0.0324136 0.0487754 0.0315342 255 140 0
-0.0301420 0.0487754 0.0315342 255 140 0
-0.0278704 0.0487754 0.0315342 255 140 0
-0.0255987 0.0487754 0.0315342 255 140 0
-0.0233271 0.0487754 0.0315343 255 140 0
-0.0210555 0.0487754 0.0315343 255 140 0
-0.0187839 0.0487754 0.0315344 255 140 0
-0.0165123 0.0487754 0.0315344 255 140 0
-0.0142406 0.0487753 0.0315344 255 140 0
-0.0119690 0.0487753 0.0315345 255 140 0
-0.0096974 0.0487753 0.0315345 255 140 0
-0.0074258 0.0487753 0.0315346 255 140 0
-0.0051541 0.0487753 0.0315346 255 140 0
-0.0028825 0.0487752 0.0315348 255 140 0
-0.0006109 0.0487751 0.0315352 255 140 0
-0.0619448 0.0510469 0.0315349 255 140 0
-0.0596731 0.0510470 0.0315347 255 140 0
-0.0574015 0.0510470 0.0315347 255 140 0
-0.0551299 0.0510470 0.0315345 255 140 0
-0.0528583 0.0510470 0.0315344 255 140 0
-0.0505866 0.0510470 0.0315344 255 140 0
-0.0483150 0.0510470 0.0315343 255 140 0
-0.0460434 0.0510470 0.0315343 255 140 0
-0.0437718 0.0510470 0.0315343 255 140 0
-0.0415001 0.0510470 0.0315344 255 140 0
-0.0392285 0.0510470 0.0315344 255 140 0
-0.0369569 0.0510470 0.0315344 255 140 0
-0.0346853 0.0510470 0.0315344 255 140 0
-0.0324136 0.0510470 0.0315344 255 140 0
-0.0301420 0.0510470 0.0315344 255 140 0
-0.0278704 0.0510470 0.0315345 255 140 0
-0.0255987 0.0510469 0.0315345 255 140 0
-0.0233271 0.0510469 0.0315345 255 140 0
-0.0210555 0.0510469 0.0315345 255 140 0
-0.0187839 0.0510469 0.0315345 255 140 0
-0.0165123 0.0510469 0.0315346 255 140 0
-0.0142406 0.0510469 0.0315346 255 140 0
-0.0119690 0.0510469 0.0315346 255 140 0
-0.0096974 0.0510469 0.0315348 255 140 0
-0.0074258 0.0510469 0.0315349 255 140 0
-0.0051541 0.0510469 0.0315350 255 140 0
-0.0028825 0.0510467 0.0315353 255 140 0
-0.0006109 0.0510466 0.0315354 255 140 0
0.0016607 0.0510462 0.0315358 255 140 0
-0.0642164 0.0533182 0.0315354 255 140 0
-0.0619448 0.0533185 0.0315351 255 140 0
-0.0596731 0.0533185 0.0315349 255 140 0
-0.0574015 0.0533185 0.0315348 255 140 0
-0.0551299 0.0533186 0.0315348 255 140 0
-0.0528583 0.0533186 0.0315348 255 140 0
-0.0505866 0.0533186 0.0315348 255 140 0
-0.0483150 0.0533186 0.0315348 255 140 0
-0.0460434 0.0533186 0.0315349 255 140 0
-0.0437718 0.0533186 0.0315349 255 140 0
-0.0415001 0.0533186 0.0315349 255 140 0
-0.0392285 0.0533186 0.0315349 255 140 0
-0.0369569 0.0533185 0.0315350 255 140 0
-0.0346853 0.0533185 0.0315350 255 140 0
-0.0324136 0.0533185 0.0315350 255 140 0
-0.0301420 0.0533185 0.0315350 255 140 0
-0.0278704 0.0533185 0.0315351 255 140 0
-0.0255987 0.0533185 0.0315351 255 140 0
-0.0233271 0.0533185 0.0315351 255 140 0
-0.0210555 0.0533185 0.0315351 255 140 0
-0.0187839 0.0533184 0.0315352 255 140 0
-0.0165123 0.0533184 0.0315352 255 140 0
-0.0142406 0.0533184 0.0315352 255 140 0
-0.0119690 0.0533184 0.0315353 255 140 0
-0.0096974 0.0533184 0.0315354 255 140 0
-0.0074258 0.0533184 0.0315354 255 140 0
-0.0051541 0.0533184 0.0315354 255 140 0
-0.0028825 0.0533182 0.0315355 255 140 0
-0.0006113 0.0533179 0.0315357 255 140 0
0.0016607 0.0533177 0.0315359 255 140 0
0.0039323 0.0533171 0.0315364 255 140 0
-0.0664880 0.0555894 0.0315362 255 140 0
-0.0642164 0.0555896 0.0315357 255 140 0
-0.0619448 0.0555899 0.0315353 255 140 0
-0.0596731 0.0555901 0.0315351 255 140 0
-0.0574015 0.0555901 0.0315351 255 140 0
-0.0551299 0.0555901 0.0315351 255 140 0
-0.0528583 0.0555901 0.0315351 255 140 0
-0.0505866 0.0555901 0.0315351 255 140 0
-0.0483150 0.0555900 0.0315351 255 140 0
-0.0460434 0.0555900 0.0315351 255 140 0
-0.0437718 0.0555900 0.0315352 255 140 0
-0.0415001 0.0555900 0.0315352 255 140 0
-0.0392285 0.0555900 0.0315352 255 140 0
-0.0369569 0.0555900 0.0315353 255 140 0
-0.0346853 0.0555899 0.0315354 255 140 0
-0.0324136 0.0555899 0.0315354 255 140 0
-0.0301420 0.0555899 0.0315354 255 140 0
-0.0278704 0.0555899 0.0315354 255 140 0
-0.0255987 0.0555899 0.0315355 255 140 0
-0.0233271 0.0555899 0.0315355 255 140 0
-0.0210555 0.0555899 0.0315355 255 140 0
-0.0187839 0.0555899 0.0315355 255 140 0
-0.0165123 0.0555898 0.0315356 255 140 0
-0.0142406 0.0555898 0.0315356 255 140 0
-0.0119690 0.0555898 0.0315357 255 140 0
-0.0096974 0.0555898 0.0315357 255 140 0
-0.0074258 0.0555898 0.0315357 255 140 0
-0.0051541 0.0555897 0.0315358 255 140 0
-0.0028825 0.0555896 0.0315358 255 140 0
-0.0006114 0.0555894 0.0315360 255 140 0
0.0016598 0.0555888 0.0315363 255 140 0
0.0039322 0.0555880 0.0315366 255 140 0
0.0062038 0.0555870 0.0315372 255 140 0
0.0084752 0.0555858 0.0315381 255 140 0
-0.0687596 0.0578607 0.0315371 255 140 0
-0.0664880 0.0578610 0.0315364 255 140 0
-0.0642164 0.0578612 0.0315360 255 140 0
-0.0619448 0.0578612 0.0315359 255 140 0
-0.0596731 0.0578612 0.0315357 255 140 0
-0.0574015 0.0578612 0.0315357 255 140 0
-0.0551299 0.0578613 0.0315357 255 140 0
-0.0528583 0.0578613 0.0315357 255 140 0
-0.0505866 0.0578613 0.0315357 255 140 0
-0.0483150 0.0578613 0.0315357 255 140 0
-0.0460434 0.0578613 0.0315358 255 140 0
-0.0437718 0.0578613 0.0315358 255 140 0
-0.0415001 0.0578612 0.0315359 255 140 0
-0.0392285 0.0578612 0.0315359 255 140 0
-0.0369569 0.0578612 0.0315360 255 140 0
-0.0346853 0.0578612 0.0315360 255 140 0
-0.0324136 0.0578611 0.0315360 255 140 0
-0.0301420 0.0578611 0.0315361 255 140 0
-0.0278704 0.0578611 0.0315361 255 140 0
-0.0255987 0.0578611 0.0315361 255 140 0
-0.0233271 0.0578611 0.0315361 255 140 0
-0.0210555 0.0578611 0.0315362 255 140 0
-0.0187839 0.0578610 0.0315362 255 140 0
-0.0165123 0.0578610 0.0315363 255 140 0
-0.0142406 0.0578610 0.0315363 255 140 0
-0.0119690 0.0578610 0.0315363 255 140 0
-0.0096974 0.0578610 0.0315364 255 140 0
-0.0074258 0.0578610 0.0315364 255 140 0
-0.0051542 0.0578609 0.0315364 255 140 0
-0.0028825 0.0578607 0.0315366 255 140 0
-0.0006114 0.0578603 0.0315366 255 140 0
0.0016598 0.0578598 0.0315369 255 140 0
0.0039322 0.0578591 0.0315372 255 140 0
0.0062037 0.0578577 0.0315376 255 140 0
0.0084751 0.0578557 0.0315382 255 140 0
0.0107460 0.0578766 0.0315372 255 140 0
-0.0710313 0.0601316 0.0315383 255 140 0
-0.0687596 0.0601320 0.0315376 255 140 0
-0.0664880 0.0601324 0.0315369 255 140 0
-0.0642164 0.0601326 0.0315366 255 140 0
-0.0619448 0.0601327 0.0315364 255 140 0
-0.0596731 0.0601327 0.0315362 255 140 0
-0.0574015 0.0601327 0.0315361 255 140 0
-0.0551299 0.0601327 0.0315362 255 140 0
-0.0528583 0.0601327 0.0315362 255 140 0
-0.0505866 0.0601327 0.0315362 255 140 0
-0.0483150 0.0601327 0.0315363 255 140 0
-0.0460434 0.0601326 0.0315363 255 140 0
-0.0437718 0.0601326 0.0315364 255 140 0
-0.0415001 0.0601326 0.0315364 255 140 0
-0.0392285 0.0601326 0.0315364 255 140 0
-0.0369569 0.0601325 0.0315365 255 140 0
-0.0346853 0.0601325 0.0315366 255 140 0
-0.0324136 0.0601325 0.0315366 255 140 0
-0.0301420 0.0601324 0.0315366 255 140 0
-0.0278704 0.0601324 0.0315367 255 140 0
-0.0255987 0.0601324 0.0315367 255 140 0
-0.0233271 0.0601324 0.0315367 255 140 0
-0.0210555 0.0601324 0.0315368 255 140 0
-0.0187839 0.0601323 0.0315368 255 140 0
-0.0165123 0.0601323 0.0315369 255 140 0
-0.0142406 0.0601323 0.0315369 255 140 0
-0.0119690 0.0601323 0.0315369 255 140 0
-0.0096974 0.0601323 0.0315370 255 140 0
-0.0074258 0.0601323 0.0315370 255 140 0
-0.0051542 0.0601322 0.0315371 255 140 0
-0.0028826 0.0601321 0.0315372 255 140 0
-0.0006114 0.0601318 0.0315373 255 140 0
0.0016598 0.0601313 0.0315375 255 140 0
0.0039322 0.0601302 0.0315378 255 140 0
0.0062037 0.0601285 0.0315382 255 140 0
0.0084750 0.0601243 0.0315388 255 140 0
0.0107403 0.0601443 0.0315385 255 140 0
0.0130219 0.0600193 0.0315052 255 140 0
-0.0733029 0.0624024 0.0315400 255 140 0
-0.0710313 0.0624030 0.0315389 255 140 0
-0.0687596 0.0624033 0.0315381 255 140 0
-0.0664880 0.0624035 0.0315377 255 140 0
-0.0642164 0.0624037 0.0315374 255 140 0
-0.0619448 0.0624038 0.0315373 255 140 0
-0.0596731 0.0624038 0.0315374 255 140 0
-0.0574015 0.0624038 0.0315374 255 140 0
-0.0551299 0.0624037 0.0315374 255 140 0
-0.0528583 0.0624037 0.0315374 255 140 0
-0.0505866 0.0624037 0.0315375 255 140 0
-0.0483150 0.0624037 0.0315375 255 140 0
-0.0460434 0.0624037 0.0315376 255 140 0
-0.0437718 0.0624036 0.0315376 255 140 0
-0.0415001 0.0624036 0.0315377 255 140 0
-0.0392285 0.0624036 0.0315377 255 140 0
-0.0369569 0.0624035 0.0315378 255 140 0
-0.0346853 0.0624035 0.0315379 255 140 0
-0.0324136 0.0624035 0.0315379 255 140 0
-0.0301420 0.0624035 0.0315379 255 140 0
-0.0278704 0.0624035 0.0315380 255 140 0
-0.0255987 0.0624035 0.0315380 255 140 0
-0.0233271 0.0624034 0.0315381 255 140 0
-0.0210555 0.0624034 0.0315381 255 140 0
-0.0187839 0.0624034 0.0315381 255 140 0
-0.0165123 0.0624034 0.0315382 255 140 0
-0.0142406 0.0624033 0.0315383 255 140 0
-0.0119690 0.0624033 0.0315384 255 140 0
-0.0096974 0.0624033 0.0315384 255 140 0
-0.0074258 0.0624033 0.0315385 255 140 0
-0.0051542 0.0624032 0.0315385 255 140 0
-0.0028826 0.0624030 0.0315386 255 140 0
-0.0006110 0.0624028 0.0315386 255 140 0
0.0016606 0.0624023 0.0315386 255 140 0
0.0039322 0.0624016 0.0315389 255 140 0
0.0062038 0.0624001 0.0315391 255 140 0
0.0084754 0.0623969 0.0315399 255 140 0
0.0107419 0.0624456 0.0315392 255 140 0
0.0130317 0.0621715 0.0315295 255 140 0
-0.0755745 0.0647023 0.0315418 255 140 0
-0.0733029 0.0647037 0.0315402 255 140 0
-0.0710313 0.0647039 0.0315393 255 140 0
-0.0687596 0.0647043 0.0315387 255 140 0
-0.0664880 0.0647043 0.0315382 255 140 0
-0.0642164 0.0647046 0.0315380 255 140 0
-0.0619448 0.0647046 0.0315379 255 140 0
-0.0596731 0.0647047 0.0315380 255 140 0
-0.0574015 0.0647047 0.0315380 255 140 0
-0.0551299 0.0647047 0.0315381 255 140 0
-0.0528583 0.0647047 0.0315381 255 140 0
-0.0505866 0.0647047 0.0315381 255 140 0
-0.0483150 0.0647047 0.0315382 255 140 0
-0.0460434 0.0647047 0.0315382 255 140 0
-0.0437718 0.0647046 0.0315383 255 140 0
-0.0415001 0.0647046 0.0315384 255 140 0
-0.0392285 0.0647046 0.0315384 255 140 0
-0.0369569 0.0647045 0.0315385 255 140 0
-0.0346853 0.0647045 0.0315385 255 140 0
-0.0324136 0.0647045 0.0315386 255 140 0
-0.0301420 0.0647045 0.0315386 255 140 0
-0.0278704 0.0647045 0.0315387 255 140 0
-0.0255987 0.0647044 0.0315387 255 140 0
-0.0233271 0.0647044 0.0315388 255 140 0
-0.0210555 0.0647044 0.0315388 255 140 0
-0.0187839 0.0647044 0.0315388 255 140 0
-0.0165123 0.0647043 0.0315389 255 140 0
-0.0142407 0.0647043 0.0315389 255 140 0
-0.0119690 0.0647042 0.0315390 255 140 0
-0.0096974 0.0647039 0.0315391 255 140 0
-0.0074258 0.0647037 0.0315391 255 140 0
-0.0051542 0.0647034 0.0315392 255 140 0
-0.0028826 0.0647031 0.0315393 255 140 0
-0.0006110 0.0647027 0.0315393 255 140 0
0.0016607 0.0647019 0.0315394 255 140 0
0.0039323 0.0646997 0.0315395 255 140 0
0.0062040 0.0646968 0.0315398 255 140 0
0.0084760 0.0646973 0.0315404 255 140 0
0.0107441 0.0647446 0.0315388 255 140 0
0.0130431 0.0643420 0.0315398 255 140 0
0.0153286 0.0642017 0.0315502 255 140 0
-0.0755745 0.0669729 0.0315448 255 140 0
-0.0733029 0.0669733 0.0315433 255 140 0
-0.0710313 0.0669739 0.0315422 255 140 0
-0.0687596 0.0669742 0.0315419 255 140 0
-0.0664880 0.0669742 0.0315415 255 140 0
-0.0642164 0.0669742 0.0315414 255 140 0
-0.0619448 0.0669742 0.0315413 255 140 0
-0.0596731 0.0669741 0.0315413 255 140 0
-0.0574015 0.0669741 0.0315413 255 140 0
-0.0551299 0.0669741 0.0315414 255 140 0
-0.0528583 0.0669740 0.0315414 255 140 0
-0.0505866 0.0669740 0.0315415 255 140 0
-0.0483150 0.0669740 0.0315415 255 140 0
-0.0460434 0.0669740 0.0315416 255 140 0
-0.0437718 0.0669739 0.0315416 255 140 0
-0.0415001 0.0669739 0.0315417 255 140 0
-0.0392285 0.0669738 0.0315418 255 140 0
-0.0369569 0.0669738 0.0315419 255 140 0
-0.0346853 0.0669737 0.0315419 255 140 0
-0.0324136 0.0669737 0.0315420 255 140 0
-0.0301420 0.0669737 0.0315420 255 140 0
-0.0278704 0.0669737 0.0315421 255 140 0
-0.0255987 0.0669736 0.0315421 255 140 0
-0.0233271 0.0669736 0.0315422 255 140 0
-0.0210555 0.0669736 0.0315422 255 140 0
-0.0187839 0.0669735 0.0315423 255 140 0
-0.0165123 0.0669735 0.0315423 255 140 0
-0.0142407 0.0669735 0.0315424 255 140 0
-0.0119691 0.0669734 0.0315425 255 140 0
-0.0096975 0.0669733 0.0315425 255 140 0
-0.0074258 0.0669732 0.0315426 255 140 0
-0.0051542 0.0669731 0.0315426 255 140 0
-0.0028826 0.0669729 0.0315427 255 140 0
-0.0006110 0.0669727 0.0315428 255 140 0
0.0016606 0.0669723 0.0315429 255 140 0
0.0039322 0.0669720 0.0315430 255 140 0
0.0062038 0.0669715 0.0315433 255 140 0
0.0084755 0.0669671 0.0315438 255 140 0
0.0107482 0.0670090 0.0315437 255 140 0
0.0130221 0.0667218 0.0315570 255 140 0
0.0153006 0.0666728 0.0315634 255 140 0
-0.0778461 0.0692421 0.0315490 255 140 0
-0.0755745 0.0692432 0.0315466 255 140 0
-0.0733029 0.0692440 0.0315452 255 140 0
-0.0710313 0.0692448 0.0315444 255 140 0
-0.0687596 0.0692449 0.0315441 255 140 0
-0.0664880 0.0692450 0.0315440 255 140 0
-0.0642164 0.0692449 0.0315440 255 140 0
-0.0619448 0.0692449 0.0315440 255 140 0
-0.0596731 0.0692448 0.0315439 255 140 0
-0.0574015 0.0692448 0.0315440 255 140 0
-0.0551299 0.0692447 0.0315440 255 140 0
-0.0528583 0.0692447 0.0315441 255 140 0
-0.0505866 0.0692447 0.0315441 255 140 0
-0.0483150 0.0692446 0.0315442 255 140 0
-0.0460434 0.0692446 0.0315442 255 140 0
-0.0437718 0.0692446 0.0315443 255 140 0
-0.0415001 0.0692445 0.0315444 255 140 0
-0.0392285 0.0692445 0.0315445 255 140 0
-0.0369569 0.0692444 0.0315446 255 140 0
-0.0346853 0.0692444 0.0315447 255 140 0
-0.0324136 0.0692444 0.0315447 255 140 0
-0.0301420 0.0692443 0.0315447 255 140 0
-0.0278704 0.0692443 0.0315448 255 140 0
-0.0255987 0.0692443 0.0315448 255 140 0
-0.0233271 0.0692443 0.0315449 255 140 0
-0.0210555 0.0692442 0.0315449 255 140 0
-0.0187839 0.0692442 0.0315450 255 140 0
-0.0165123 0.0692442 0.0315451 255 140 0
-0.0142408 0.0692441 0.0315451 255 140 0
-0.0119692 0.0692439 0.0315452 255 140 0
-0.0096975 0.0692438 0.0315453 255 140 0
-0.0074259 0.0692438 0.0315453 255 140 0
-0.0051542 0.0692438 0.0315454 255 140 0
-0.0028826 0.0692438 0.0315454 255 140 0
-0.0006110 0.0692438 0.0315456 255 140 0
0.0016606 0.0692436 0.0315457 255 140 0
0.0039322 0.0692435 0.0315459 255 140 0
0.0062038 0.0692432 0.0315460 255 140 0
0.0084752 0.0692423 0.0315461 255 140 0
0.0107468 0.0692436 0.0315469 255 140 0
0.0130177 0.0692125 0.0315490 255 140 0
0.0152890 0.0691939 0.0315517 255 140 0
-0.0778461 0.0715134 0.0315495 255 140 0
-0.0755745 0.0715149 0.0315468 255 140 0
-0.0733029 0.0715154 0.0315455 255 140 0
-0.0710313 0.0715160 0.0315447 255 140 0
-0.0687596 0.0715163 0.0315444 255 140 0
-0.0664880 0.0715163 0.0315440 255 140 0
-0.0642164 0.0715163 0.0315439 255 140 0
-0.0619448 0.0715162 0.0315439 255 140 0
-0.0596731 0.0715161 0.0315440 255 140 0
-0.0574015 0.0715161 0.0315440 255 140 0
-0.0551299 0.0715161 0.0315441 255 140 0
-0.0528583 0.0715160 0.0315441 255 140 0
-0.0505866 0.0715160 0.0315442 255 140 0
-0.0483150 0.0715159 0.0315443 255 140 0
-0.0460434 0.0715159 0.0315443 255 140 0
-0.0437718 0.0715159 0.0315444 255 140 0
-0.0415001 0.0715158 0.0315444 255 140 0
-0.0392285 0.0715158 0.0315445 255 140 0
-0.0369569 0.0715157 0.0315446 255 140 0
-0.0346853 0.0715157 0.0315446 255 140 0
-0.0324136 0.0715156 0.0315447 255 140 0
-0.0301420 0.0715156 0.0315447 255 140 0
-0.0278704 0.0715156 0.0315448 255 140 0
-0.0255987 0.0715155 0.0315448 255 140 0
-0.0233271 0.0715155 0.0315448 255 140 0
-0.0210555 0.0715155 0.0315449 255 140 0
-0.0187839 0.0715155 0.0315449 255 140 0
-0.0165123 0.0715154 0.0315450 255 140 0
-0.0142408 0.0715153 0.0315451 255 140 0
-0.0119692 0.0715151 0.0315451 255 140 0
-0.0096975 0.0715149 0.0315452 255 140 0
-0.0074259 0.0715149 0.0315452 255 140 0
-0.0051542 0.0715149 0.0315453 255 140 0
-0.0028826 0.0715150 0.0315453 255 140 0
-0.0006110 0.0715150 0.0315454 255 140 0
0.0016606 0.0715150 0.0315454 255 140 0
0.0039322 0.0715150 0.0315455 255 140 0
0.0062038 0.0715149 0.0315458 255 140 0
0.0084754 0.0715150 0.0315463 255 140 0
0.0107470 0.0715156 0.0315471 255 140 0
0.0130188 0.0714999 0.0315489 255 140 0
0.0152905 0.0714931 0.0315508 255 140 0
0.0175619 0.0714979 0.0315547 255 140 0
-0.0778461 0.0737842 0.0315498 255 140 0
-0.0755745 0.0737863 0.0315473 255 140 0
-0.0733029 0.0737871 0.0315461 255 140 0
-0.0710313 0.0737872 0.0315452 255 140 0
-0.0687596 0.0737874 0.0315449 255 140 0
-0.0664880 0.0737874 0.0315445 255 140 0
-0.0642164 0.0737874 0.0315444 255 140 0
-0.0619448 0.0737874 0.0315444 255 140 0
-0.0596731 0.0737874 0.0315445 255 140 0
-0.0574015 0.0737874 0.0315445 255 140 0
-0.0551299 0.0737874 0.0315446 255 140 0
-0.0528583 0.0737874 0.0315446 255 140 0
-0.0505866 0.0737873 0.0315447 255 140 0
-0.0483150 0.0737873 0.0315447 255 140 0
-0.0460434 0.0737873 0.0315448 255 140 0
-0.0437718 0.0737872 0.0315448 255 140 0
-0.0415001 0.0737872 0.0315449 255 140 0
-0.0392285 0.0737872 0.0315449 255 140 0
-0.0369569 0.0737871 0.0315450 255 140 0
-0.0346853 0.0737871 0.0315451 255 140 0
-0.0324136 0.0737870 0.0315451 255 140 0
-0.0301420 0.0737870 0.0315451 255 140 0
-0.0278704 0.0737870 0.0315452 255 140 0
-0.0255987 0.0737870 0.0315452 255 140 0
-0.0233271 0.0737869 0.0315453 255 140 0
-0.0210555 0.0737869 0.0315453 255 140 0
-0.0187839 0.0737869 0.0315454 255 140 0
-0.0165123 0.0737869 0.0315454 255 140 0
-0.0142408 0.0737868 0.0315455 255 140 0
-0.0119692 0.0737865 0.0315455 255 140 0
-0.0096976 0.0737864 0.0315456 255 140 0
-0.0074259 0.0737864 0.0315456 255 140 0
-0.0051543 0.0737864 0.0315456 255 140 0
-0.0028826 0.0737864 0.0315457 255 140 0
-0.0006110 0.0737864 0.0315457 255 140 0
0.0016606 0.0737864 0.0315458 255 140 0
0.0039322 0.0737864 0.0315459 255 140 0
0.0062039 0.0737864 0.0315462 255 140 0
0.0084755 0.0737863 0.0315467 255 140 0
0.0107471 0.0737864 0.0315474 255 140 0
0.0130191 0.0737811 0.0315490 255 140 0
0.0152910 0.0737794 0.0315509 255 140 0
0.0175623 0.0737765 0.0315539 255 140 0
-0.0801177 0.0760541 0.0315537 255 140 0
-0.0778461 0.0760559 0.0315503 255 140 0
-0.0755745 0.0760569 0.0315481 255 140 0
-0.0733029 0.0760577 0.0315469 255 140 0
-0.0710313 0.0760577 0.0315461 255 140 0
-0.0687596 0.0760579 0.0315458 255 140 0
-0.0664880 0.0760579 0.0315457 255 140 0
-0.0642164 0.0760581 0.0315456 255 140 0
-0.0619448 0.0760581 0.0315456 255 140 0
-0.0596731 0.0760582 0.0315457 255 140 0
-0.0574015 0.0760582 0.0315457 255 140 0
-0.0551299 0.0760582 0.0315457 255 140 0
-0.0528583 0.0760581 0.0315458 255 140 0
-0.0505866 0.0760581 0.0315458 255 140 0
-0.0483150 0.0760581 0.0315459 255 140 0
-0.0460434 0.0760581 0.0315459 255 140 0
-0.0437718 0.0760580 0.0315460 255 140 0
-0.0415001 0.0760580 0.0315460 255 140 0
-0.0392285 0.0760580 0.0315461 255 140 0
-0.0369569 0.0760580 0.0315461 255 140 0
-0.0346853 0.0760580 0.0315462 255 140 0
-0.0324136 0.0760580 0.0315462 255 140 0
-0.0301420 0.0760579 0.0315462 255 140 0
-0.0278704 0.0760579 0.0315463 255 140 0
-0.0255987 0.0760579 0.0315463 255 140 0
-0.0233271 0.0760579 0.0315464 255 140 0
-0.0210555 0.0760578 0.0315464 255 140 0
-0.0187839 0.0760578 0.0315464 255 140 0
-0.0165123 0.0760577 0.0315465 255 140 0
-0.0142408 0.0760575 0.0315465 255 140 0
-0.0119692 0.0760574 0.0315466 255 140 0
-0.0096976 0.0760573 0.0315466 255 140 0
-0.0074259 0.0760573 0.0315466 255 140 0
-0.0051543 0.0760573 0.0315467 255 140 0
-0.0028826 0.0760573 0.0315467 255 140 0
-0.0006110 0.0760574 0.0315467 255 140 0
0.0016606 0.0760575 0.0315468 255 140 0
0.0039322 0.0760575 0.0315469 255 140 0
0.0062039 0.0760573 0.0315471 255 140 0
0.0084755 0.0760574 0.0315473 255 140 0
0.0107471 0.0760573 0.0315484 255 140 0
0.0130189 0.0760520 0.0315495 255 140 0
0.0152906 0.0760502 0.0315517 255 140 0
0.0175622 0.0760491 0.0315546 255 140 0
-0.0801177 0.0783253 0.0315536 255 140 0
-0.0778461 0.0783276 0.0315505 255 140 0
-0.0755745 0.0783285 0.0315486 255 140 0
-0.0733029 0.0783286 0.0315477 255 140 0
-0.0710313 0.0783289 0.0315473 255 140 0
-0.0687596 0.0783291 0.0315469 255 140 0
-0.0664880 0.0783292 0.0315468 255 140 0
-0.0642164 0.0783292 0.0315466 255 140 0
-0.0619448 0.0783293 0.0315467 255 140 0
-0.0596731 0.0783292 0.0315467 255 140 0
-0.0574015 0.0783292 0.0315468 255 140 0
-0.0551299 0.0783292 0.0315468 255 140 0
-0.0528583 0.0783292 0.0315468 255 140 0
-0.0505866 0.0783291 0.0315469 255 140 0
-0.0483150 0.0783291 0.0315469 255 140 0
-0.0460434 0.0783291 0.0315469 255 140 0
-0.0437718 0.0783290 0.0315470 255 140 0
-0.0415001 0.0783290 0.0315470 255 140 0
-0.0392285 0.0783290 0.0315471 255 140 0
