ply
format ascii 1.0
element vertex 1173
property float x
property float y
property float z
property uchar red
property uchar green
property uchar blue
end_header
-0.0596775 0.0832647 0.0070478 255 140 0
-0.0574055 0.0832653 0.0070475 255 140 0
-0.0551336 0.0832667 0.0070469 255 140 0
-0.0528617 0.0832700 0.0070462 255 140 0
-0.0505899 0.0832718 0.0070454 255 140 0
-0.0483182 0.0832730 0.0070446 255 140 0
-0.0460465 0.0832733 0.0070440 255 140 0
-0.0437748 0.0832733 0.0070434 255 140 0
-0.0415031 0.0832753 0.0070430 255 140 0
-0.0392313 0.0832773 0.0070426 255 140 0
-0.0369596 0.0832814 0.0070429 255 140 0
-0.0346879 0.0832829 0.0070431 255 140 0
-0.0324159 0.0832817 0.0070432 255 140 0
-0.0301439 0.0832805 0.0070433 255 140 0
-0.0278718 0.0832785 0.0070434 255 140 0
-0.0255997 0.0832776 0.0070435 255 140 0
-0.0233277 0.0832775 0.0070435 255 140 0
-0.0210558 0.0832753 0.0070435 255 140 0
-0.0187838 0.0832732 0.0070434 255 140 0
-0.0165119 0.0832744 0.0070433 255 140 0
-0.0142398 0.0832762 0.0070432 255 140 0
-0.0119679 0.0832783 0.0070430 255 140 0
-0.0096960 0.0832791 0.0070430 255 140 0
-0.0074242 0.0832772 0.0070425 255 140 0
-0.0051523 0.0832757 0.0070428 255 140 0
-0.0028804 0.0832746 0.0070436 255 140 0
-0.0006080 0.0832734 0.0070443 255 140 0
0.0016642 0.0832717 0.0070450 255 140 0
0.0039361 0.0832689 0.0070454 255 140 0
0.0062079 0.0832645 0.0070458 255 140 0
0.0084796 0.0832592 0.0070471 255 140 0
0.0107514 0.0832506 0.0070488 255 140 0
0.0130230 0.0832306 0.0070447 255 140 0
0.0152945 0.0832038 0.0070217 255 140 0
0.0175661 0.0831763 0.0069961 255 140 0
0.0198369 0.0831335 0.0069594 255 140 0
0.0221072 0.0830744 0.0069123 255 140 0
0.0243776 0.0830037 0.0068564 255 140 0
0.0266475 0.0829278 0.0067929 255 140 0
0.0289167 0.0828659 0.0067093 255 140 0
-0.0914781 0.0851391 0.0066548 255 140 0
-0.0892106 0.0853282 0.0069132 255 140 0
-0.0869400 0.0854127 0.0069817 255 140 0
-0.0846685 0.0854598 0.0070236 255 140 0
-0.0823963 0.0854500 0.0070110 255 140 0
-0.0801242 0.0854423 0.0070003 255 140 0
-0.0778520 0.0854355 0.0069914 255 140 0
-0.0755801 0.0854288 0.0069826 255 140 0
-0.0733082 0.0854221 0.0069747 255 140 0
-0.0710359 0.0854179 0.0069706 255 140 0
-0.0687636 0.0854169 0.0069702 255 140 0
-0.0664917 0.0854193 0.0069729 255 140 0
-0.0642199 0.0854226 0.0069760 255 140 0
-0.0619487 0.0854386 0.0069855 255 140 0
-0.0596771 0.0854487 0.0069904 255 140 0
-0.0574053 0.0854486 0.0069876 255 140 0
-0.0551335 0.0854491 0.0069861 255 140 0
-0.0528616 0.0854507 0.0069859 255 140 0
-0.0505898 0.0854523 0.0069860 255 140 0
-0.0483181 0.0854538 0.0069866 255 140 0
-0.0460463 0.0854550 0.0069875 255 140 0
-0.0437745 0.0854575 0.0069892 255 140 0
-0.0415028 0.0854619 0.0069925 255 140 0
-0.0392311 0.0854653 0.0069953 255 140 0
-0.0369596 0.0854728 0.0070067 255 140 0
-0.0346879 0.0854763 0.0070120 255 140 0
-0.0324159 0.0854743 0.0070078 255 140 0
-0.0301438 0.0854727 0.0070049 255 140 0
-0.0278718 0.0854715 0.0070032 255 140 0
-0.0255998 0.0854705 0.0070014 255 140 0
-0.0233279 0.0854695 0.0069993 255 140 0
-0.0210559 0.0854665 0.0069955 255 140 0
-0.0187840 0.0854641 0.0069920 255 140 0
-0.0165122 0.0854642 0.0069915 255 140 0
-0.0142403 0.0854655 0.0069914 255 140 0
-0.0119685 0.0854700 0.0069959 255 140 0
-0.0096966 0.0854712 0.0069966 255 140 0
-0.0074249 0.0854673 0.0069912 255 140 0
-0.0051530 0.0854633 0.0069861 255 140 0
-0.0028813 0.0854604 0.0069813 255 140 0
-0.0006091 0.0854563 0.0069762 255 140 0
0.0016629 0.0854525 0.0069708 255 140 0
0.0039344 0.0854467 0.0069643 255 140 0
0.0062060 0.0854384 0.0069566 255 140 0
0.0084784 0.0854270 0.0069477 255 140 0
0.0107489 0.0854144 0.0069373 255 140 0
0.0130214 0.0853847 0.0069321 255 140 0
0.0152923 0.0853514 0.0069048 255 140 0
0.0175639 0.0853198 0.0068763 255 140 0
0.0198326 0.0852663 0.0068328 255 140 0
0.0221009 0.0851828 0.0067754 255 140 0
0.0243684 0.0850834 0.0067064 255 140 0
0.0266358 0.0849500 0.0066286 255 140 0
0.0289040 0.0848297 0.0065438 255 140 0
-0.0914794 0.0874291 0.0066961 255 140 0
-0.0892085 0.0874782 0.0067499 255 140 0
-0.0869376 0.0875548 0.0068317 255 140 0
-0.0846663 0.0875973 0.0068763 255 140 0
-0.0823941 0.0875881 0.0068671 255 140 0
-0.0801223 0.0875799 0.0068598 255 140 0
-0.0778506 0.0875730 0.0068540 255 140 0
-0.0755787 0.0875657 0.0068481 255 140 0
-0.0733067 0.0875575 0.0068423 255 140 0
-0.0710347 0.0875518 0.0068390 255 140 0
-0.0687628 0.0875492 0.0068377 255 140 0
-0.0664910 0.0875491 0.0068383 255 140 0
-0.0642193 0.0875498 0.0068391 255 140 0
-0.0619474 0.0875597 0.0068469 255 140 0
-0.0596758 0.0875661 0.0068510 255 140 0
-0.0574040 0.0875660 0.0068492 255 140 0
-0.0551322 0.0875665 0.0068479 255 140 0
-0.0528605 0.0875672 0.0068472 255 140 0
-0.0505888 0.0875688 0.0068473 255 140 0
-0.0483172 0.0875707 0.0068482 255 140 0
-0.0460455 0.0875728 0.0068488 255 140 0
-0.0437738 0.0875763 0.0068502 255 140 0
-0.0415022 0.0875824 0.0068544 255 140 0
-0.0392305 0.0875885 0.0068583 255 140 0
-0.0369590 0.0875999 0.0068683 255 140 0
-0.0346873 0.0876066 0.0068733 255 140 0
-0.0324154 0.0876043 0.0068700 255 140 0
-0.0301435 0.0876023 0.0068678 255 140 0
-0.0278717 0.0876011 0.0068668 255 140 0
-0.0255999 0.0876006 0.0068664 255 140 0
-0.0233281 0.0876004 0.0068660 255 140 0
-0.0210564 0.0875987 0.0068640 255 140 0
-0.0187845 0.0875970 0.0068618 255 140 0
-0.0165127 0.0875975 0.0068616 255 140 0
-0.0142408 0.0875979 0.0068617 255 140 0
-0.0119692 0.0876004 0.0068644 255 140 0
-0.0096975 0.0876008 0.0068648 255 140 0
-0.0074257 0.0875976 0.0068619 255 140 0
-0.0051538 0.0875941 0.0068587 255 140 0
-0.0028821 0.0875898 0.0068549 255 140 0
-0.0006101 0.0875853 0.0068517 255 140 0
0.0016618 0.0875814 0.0068490 255 140 0
0.0039333 0.0875755 0.0068451 255 140 0
0.0062050 0.0875665 0.0068393 255 140 0
0.0084767 0.0875532 0.0068301 255 140 0
0.0107482 0.0875328 0.0068166 255 140 0
0.0130193 0.0874987 0.0067940 255 140 0
0.0152903 0.0874548 0.0067658 255 140 0
0.0175611 0.0874122 0.0067382 255 140 0
0.0198289 0.0873430 0.0066942 255 140 0
0.0220923 0.0872404 0.0066368 255 140 0
0.0243561 0.0871179 0.0065624 255 140 0
0.0266188 0.0869852 0.0064837 255 140 0
0.0288932 0.0871739 0.0065181 255 140 0
-0.0914776 0.0900760 0.0070821 255 140 0
-0.0892043 0.0895500 0.0065371 255 140 0
-0.0869317 0.0895545 0.0065226 255 140 0
-0.0846596 0.0895626 0.0065090 255 140 0
-0.0823876 0.0895524 0.0064963 255 140 0
-0.0801158 0.0895378 0.0064851 255 140 0
-0.0778442 0.0895197 0.0064730 255 140 0
-0.0755727 0.0895072 0.0064652 255 140 0
-0.0733014 0.0894920 0.0064577 255 140 0
-0.0710301 0.0894820 0.0064523 255 140 0
-0.0687587 0.0894759 0.0064483 255 140 0
-0.0664870 0.0894693 0.0064441 255 140 0
-0.0642154 0.0894638 0.0064407 255 140 0
-0.0619441 0.0894720 0.0064464 255 140 0
-0.0596724 0.0894757 0.0064498 255 140 0
-0.0574011 0.0894728 0.0064497 255 140 0
-0.0551296 0.0894700 0.0064494 255 140 0
-0.0528582 0.0894661 0.0064485 255 140 0
-0.0505867 0.0894641 0.0064478 255 140 0
-0.0483151 0.0894727 0.0064507 255 140 0
-0.0460435 0.0894732 0.0064499 255 140 0
-0.0437717 0.0894807 0.0064524 255 140 0
-0.0415001 0.0894936 0.0064592 255 140 0
-0.0392285 0.0895015 0.0064641 255 140 0
-0.0369566 0.0895158 0.0064713 255 140 0
-0.0346843 0.0895270 0.0064768 255 140 0
-0.0324136 0.0895259 0.0064760 255 140 0
-0.0301423 0.0895281 0.0064765 255 140 0
-0.0278708 0.0895298 0.0064765 255 140 0
-0.0255994 0.0895299 0.0064767 255 140 0
-0.0233280 0.0895326 0.0064789 255 140 0
-0.0210565 0.0895357 0.0064802 255 140 0
-0.0187849 0.0895347 0.0064789 255 140 0
-0.0165133 0.0895358 0.0064797 255 140 0
-0.0142437 0.0895366 0.0064807 255 140 0
-0.0119651 0.0895351 0.0064816 255 140 0
-0.0096908 0.0895307 0.0064802 255 140 0
-0.0074246 0.0895338 0.0064815 255 140 0
-0.0051558 0.0895303 0.0064794 255 140 0
-0.0028846 0.0895273 0.0064779 255 140 0
-0.0006141 0.0895230 0.0064771 255 140 0
0.0016567 0.0895169 0.0064769 255 140 0
0.0039274 0.0895099 0.0064758 255 140 0
0.0061982 0.0895045 0.0064743 255 140 0
0.0084695 0.0894868 0.0064658 255 140 0
0.0107395 0.0894619 0.0064527 255 140 0
0.0130201 0.0894251 0.0064343 255 140 0
0.0152933 0.0894201 0.0064298 255 140 0
0.0175564 0.0894298 0.0064360 255 140 0
0.0198217 0.0894533 0.0064483 255 140 0
0.0220847 0.0894798 0.0064635 255 140 0
0.0243570 0.0896378 0.0065353 255 140 0
0.0266238 0.0896253 0.0065472 255 140 0
0.0288844 0.0894942 0.0065466 255 140 0
0.0311175 0.0894964 0.0066812 255 140 0
-0.0915185 0.0918824 0.0063856 255 140 0
-0.0892147 0.0921717 0.0070062 255 140 0
-0.0869449 0.0923026 0.0070840 255 140 0
-0.0846745 0.0923686 0.0070812 255 140 0
-0.0824023 0.0923690 0.0070808 255 140 0
-0.0801302 0.0923701 0.0070812 255 140 0
-0.0778577 0.0923723 0.0070814 255 140 0
-0.0755853 0.0923724 0.0070819 255 140 0
-0.0733130 0.0923703 0.0070824 255 140 0
-0.0710408 0.0923673 0.0070821 255 140 0
-0.0687686 0.0923642 0.0070822 255 140 0
-0.0664966 0.0923618 0.0070821 255 140 0
-0.0642246 0.0923608 0.0070819 255 140 0
-0.0619529 0.0923749 0.0070809 255 140 0
-0.0596811 0.0923846 0.0070798 255 140 0
-0.0574089 0.0923880 0.0070789 255 140 0
-0.0551369 0.0923914 0.0070781 255 140 0
-0.0528649 0.0923958 0.0070773 255 140 0
-0.0505931 0.0923977 0.0070765 255 140 0
-0.0483212 0.0923970 0.0070758 255 140 0
-0.0460494 0.0923956 0.0070753 255 140 0
-0.0437777 0.0923962 0.0070749 255 140 0
-0.0415060 0.0924010 0.0070742 255 140 0
-0.0392342 0.0924065 0.0070737 255 140 0
-0.0369626 0.0924156 0.0070723 255 140 0
-0.0346907 0.0924208 0.0070716 255 140 0
-0.0324183 0.0924211 0.0070720 255 140 0
-0.0301460 0.0924199 0.0070724 255 140 0
-0.0278738 0.0924179 0.0070729 255 140 0
-0.0256016 0.0924155 0.0070732 255 140 0
-0.0233295 0.0924131 0.0070733 255 140 0
-0.0210574 0.0924118 0.0070734 255 140 0
-0.0187853 0.0924099 0.0070735 255 140 0
-0.0165133 0.0924086 0.0070730 255 140 0
-0.0142413 0.0924065 0.0070725 255 140 0
-0.0119692 0.0924119 0.0070723 255 140 0
-0.0096960 0.0924141 0.0070732 255 140 0
-0.0074251 0.0924081 0.0070738 255 140 0
-0.0051531 0.0924050 0.0070737 255 140 0
-0.0028811 0.0924048 0.0070740 255 140 0
-0.0006086 0.0924042 0.0070745 255 140 0
0.0016638 0.0924040 0.0070756 255 140 0
0.0039356 0.0924037 0.0070776 255 140 0
0.0062076 0.0924021 0.0070784 255 140 0
0.0084798 0.0923954 0.0070796 255 140 0
0.0107517 0.0923844 0.0070810 255 140 0
0.0130235 0.0923728 0.0070830 255 140 0
0.0152952 0.0923550 0.0070850 255 140 0
0.0175668 0.0923310 0.0070869 255 140 0
0.0198380 0.0922964 0.0070904 255 140 0
0.0221084 0.0922562 0.0070950 255 140 0
0.0243780 0.0921616 0.0070386 255 140 0
0.0266445 0.0919852 0.0068874 255 140 0
0.0289031 0.0917181 0.0067149 255 140 0
0.0311219 0.0913636 0.0066348 255 140 0
-0.0892240 0.0946102 0.0070855 255 140 0
-0.0869500 0.0948234 0.0070802 255 140 0
-0.0846805 0.0948288 0.0070764 255 140 0
-0.0824087 0.0948228 0.0070760 255 140 0
-0.0801364 0.0948210 0.0070754 255 140 0
-0.0778633 0.0948235 0.0070757 255 140 0
-0.0755905 0.0948265 0.0070757 255 140 0
-0.0733177 0.0948201 0.0070754 255 140 0
-0.0710454 0.0948183 0.0070749 255 140 0
-0.0687731 0.0948106 0.0070746 255 140 0
-0.0665011 0.0948065 0.0070745 255 140 0
-0.0642292 0.0947979 0.0070743 255 140 0
-0.0619570 0.0948080 0.0070733 255 140 0
-0.0596844 0.0948156 0.0070724 255 140 0
-0.0574120 0.0948201 0.0070716 255 140 0
-0.0551399 0.0948243 0.0070707 255 140 0
-0.0528678 0.0948286 0.0070699 255 140 0
-0.0505959 0.0948260 0.0070691 255 140 0
-0.0483240 0.0948274 0.0070685 255 140 0
-0.0460523 0.0948270 0.0070681 255 140 0
-0.0437806 0.0948216 0.0070679 255 140 0
-0.0415090 0.0948243 0.0070675 255 140 0
-0.0392371 0.0948287 0.0070671 255 140 0
-0.0369651 0.0948327 0.0070663 255 140 0
-0.0346928 0.0948364 0.0070660 255 140 0
-0.0324205 0.0948408 0.0070664 255 140 0
-0.0301478 0.0948444 0.0070668 255 140 0
-0.0278754 0.0948478 0.0070672 255 140 0
-0.0256031 0.0948489 0.0070675 255 140 0
-0.0233308 0.0948436 0.0070675 255 140 0
-0.0210585 0.0948461 0.0070676 255 140 0
-0.0187863 0.0948493 0.0070676 255 140 0
-0.0165142 0.0948493 0.0070673 255 140 0
-0.0142423 0.0948427 0.0070670 255 140 0
-0.0119656 0.0948487 0.0070670 255 140 0
-0.0096916 0.0948531 0.0070670 255 140 0
-0.0074243 0.0948534 0.0070672 255 140 0
-0.0051529 0.0948512 0.0070680 255 140 0
-0.0028806 0.0948573 0.0070690 255 140 0
-0.0006081 0.0948613 0.0070687 255 140 0
0.0016646 0.0948640 0.0070687 255 140 0
0.0039364 0.0948690 0.0070700 255 140 0
0.0062083 0.0948737 0.0070709 255 140 0
0.0084816 0.0948692 0.0070728 255 140 0
0.0107532 0.0948680 0.0070748 255 140 0
0.0130299 0.0948598 0.0070786 255 140 0
0.0153039 0.0948558 0.0070800 255 140 0
0.0175710 0.0948610 0.0070795 255 140 0
0.0198400 0.0948425 0.0070801 255 140 0
0.0221103 0.0948218 0.0070821 255 140 0
0.0243826 0.0947529 0.0070879 255 140 0
0.0266537 0.0945423 0.0070976 255 140 0
0.0289245 0.0943467 0.0070182 255 140 0
0.0311882 0.0941036 0.0067980 255 140 0
-0.0892154 0.0968679 0.0070844 255 140 0
-0.0869452 0.0969475 0.0070809 255 140 0
-0.0846739 0.0969947 0.0070787 255 140 0
-0.0824019 0.0969980 0.0070789 255 140 0
-0.0801296 0.0970017 0.0070782 255 140 0
-0.0778574 0.0970071 0.0070771 255 140 0
-0.0755851 0.0970096 0.0070760 255 140 0
-0.0733125 0.0970089 0.0070759 255 140 0
-0.0710400 0.0970057 0.0070768 255 140 0
-0.0687676 0.0970018 0.0070765 255 140 0
-0.0664956 0.0970004 0.0070761 255 140 0
-0.0642238 0.0970010 0.0070756 255 140 0
-0.0619519 0.0970109 0.0070749 255 140 0
-0.0596800 0.0970145 0.0070753 255 140 0
-0.0574081 0.0970119 0.0070751 255 140 0
-0.0551362 0.0970125 0.0070748 255 140 0
-0.0528643 0.0970159 0.0070742 255 140 0
-0.0505923 0.0970201 0.0070736 255 140 0
-0.0483205 0.0970249 0.0070729 255 140 0
-0.0460488 0.0970358 0.0070721 255 140 0
-0.0437771 0.0970390 0.0070713 255 140 0
-0.0415054 0.0970450 0.0070706 255 140 0
-0.0392336 0.0970511 0.0070701 255 140 0
-0.0369617 0.0970576 0.0070706 255 140 0
-0.0346898 0.0970587 0.0070708 255 140 0
-0.0324178 0.0970607 0.0070705 255 140 0
-0.0301458 0.0970581 0.0070703 255 140 0
-0.0278735 0.0970535 0.0070701 255 140 0
-0.0256012 0.0970506 0.0070700 255 140 0
-0.0233288 0.0970484 0.0070700 255 140 0
-0.0210567 0.0970474 0.0070701 255 140 0
-0.0187847 0.0970455 0.0070702 255 140 0
-0.0165127 0.0970411 0.0070704 255 140 0
-0.0142408 0.0970349 0.0070705 255 140 0
-0.0119674 0.0970357 0.0070706 255 140 0
-0.0096927 0.0970352 0.0070703 255 140 0
-0.0074243 0.0970286 0.0070698 255 140 0
-0.0051526 0.0970255 0.0070704 255 140 0
-0.0028803 0.0970266 0.0070712 255 140 0
-0.0006077 0.0970170 0.0070725 255 140 0
0.0016647 0.0970017 0.0070738 255 140 0
0.0039362 0.0970024 0.0070749 255 140 0
0.0062080 0.0970042 0.0070763 255 140 0
0.0084807 0.0970026 0.0070776 255 140 0
0.0107527 0.0969963 0.0070794 255 140 0
0.0130250 0.0969918 0.0070821 255 140 0
0.0152969 0.0969717 0.0070844 255 140 0
0.0175680 0.0969417 0.0070848 255 140 0
0.0198339 0.0968903 0.0070862 255 140 0
0.0221014 0.0968185 0.0070886 255 140 0
0.0243711 0.0966921 0.0070253 255 140 0
0.0266367 0.0965162 0.0068542 255 140 0
0.0289072 0.0962678 0.0066520 255 140 0
0.0311987 0.0962356 0.0061753 255 140 0
-0.0892132 0.0990734 0.0070692 255 140 0
-0.0869418 0.0990933 0.0070805 255 140 0
-0.0846703 0.0991040 0.0070777 255 140 0
-0.0823983 0.0991076 0.0070763 255 140 0
-0.0801262 0.0991115 0.0070758 255 140 0
-0.0778539 0.0991148 0.0070749 255 140 0
-0.0755817 0.0991163 0.0070745 255 140 0
-0.0733094 0.0991155 0.0070747 255 140 0
-0.0710371 0.0991130 0.0070746 255 140 0
-0.0687648 0.0991105 0.0070740 255 140 0
-0.0664928 0.0991103 0.0070738 255 140 0
-0.0642209 0.0991116 0.0070735 255 140 0
-0.0619494 0.0991170 0.0070735 255 140 0
-0.0596777 0.0991221 0.0070734 255 140 0
-0.0574057 0.0991252 0.0070733 255 140 0
-0.0551339 0.0991294 0.0070730 255 140 0
-0.0528622 0.0991349 0.0070725 255 140 0
-0.0505904 0.0991381 0.0070718 255 140 0
-0.0483187 0.0991401 0.0070710 255 140 0
-0.0460471 0.0991438 0.0070700 255 140 0
-0.0437754 0.0991507 0.0070689 255 140 0
-0.0415038 0.0991575 0.0070681 255 140 0
-0.0392321 0.0991639 0.0070674 255 140 0
-0.0369604 0.0991719 0.0070680 255 140 0
-0.0346886 0.0991746 0.0070682 255 140 0
-0.0324167 0.0991719 0.0070679 255 140 0
-0.0301447 0.0991679 0.0070676 255 140 0
-0.0278727 0.0991628 0.0070674 255 140 0
-0.0256006 0.0991591 0.0070674 255 140 0
-0.0233284 0.0991554 0.0070674 255 140 0
-0.0210564 0.0991523 0.0070675 255 140 0
-0.0187845 0.0991489 0.0070678 255 140 0
-0.0165125 0.0991438 0.0070676 255 140 0
-0.0142406 0.0991394 0.0070673 255 140 0
-0.0119686 0.0991354 0.0070673 255 140 0
-0.0096962 0.0991325 0.0070679 255 140 0
-0.0074250 0.0991284 0.0070688 255 140 0
-0.0051534 0.0991258 0.0070691 255 140 0
-0.0028813 0.0991242 0.0070697 255 140 0
-0.0006088 0.0991217 0.0070711 255 140 0
0.0016637 0.0991185 0.0070735 255 140 0
0.0039361 0.0991179 0.0070750 255 140 0
0.0062078 0.0991187 0.0070756 255 140 0
0.0084788 0.0991184 0.0070764 255 140 0
0.0107506 0.0991118 0.0070774 255 140 0
0.0130225 0.0991113 0.0070788 255 140 0
0.0152940 0.0990897 0.0070772 255 140 0
0.0175645 0.0990436 0.0070369 255 140 0
0.0198275 0.0989641 0.0069707 255 140 0
0.0220931 0.0988445 0.0068815 255 140 0
0.0243596 0.0987063 0.0067667 255 140 0
0.0266233 0.0984820 0.0066317 255 140 0
0.0288938 0.0982782 0.0064709 255 140 0
-0.0892116 0.1012774 0.0069821 255 140 0
-0.0869402 0.1013079 0.0070196 255 140 0
-0.0846686 0.1013294 0.0070456 255 140 0
-0.0823967 0.1013365 0.0070541 255 140 0
-0.0801248 0.1013427 0.0070621 255 140 0
-0.0778526 0.1013492 0.0070698 255 140 0
-0.0755806 0.1013507 0.0070691 255 140 0
-0.0733087 0.1013498 0.0070686 255 140 0
-0.0710366 0.1013490 0.0070678 255 140 0
-0.0687644 0.1013482 0.0070678 255 140 0
-0.0664926 0.1013484 0.0070673 255 140 0
-0.0642207 0.1013492 0.0070668 255 140 0
-0.0619493 0.1013529 0.0070663 255 140 0
-0.0596776 0.1013560 0.0070658 255 140 0
-0.0574057 0.1013590 0.0070652 255 140 0
-0.0551338 0.1013616 0.0070638 255 140 0
-0.0528620 0.1013646 0.0070638 255 140 0
-0.0505903 0.1013691 0.0070630 255 140 0
-0.0483185 0.1013744 0.0070621 255 140 0
-0.0460468 0.1013812 0.0070612 255 140 0
-0.0437750 0.1013886 0.0070603 255 140 0
-0.0415032 0.1013971 0.0070594 255 140 0
-0.0392314 0.1014033 0.0070588 255 140 0
-0.0369599 0.1014114 0.0070584 255 140 0
-0.0346881 0.1014139 0.0070582 255 140 0
-0.0324158 0.1014074 0.0070585 255 140 0
-0.0301440 0.1014022 0.0070587 255 140 0
-0.0278721 0.1013977 0.0070589 255 140 0
-0.0256001 0.1013927 0.0070591 255 140 0
-0.0233281 0.1013873 0.0070593 255 140 0
-0.0210561 0.1013814 0.0070596 255 140 0
-0.0187842 0.1013745 0.0070575 255 140 0
-0.0165124 0.1013666 0.0070500 255 140 0
-0.0142405 0.1013596 0.0070430 255 140 0
-0.0119687 0.1013500 0.0070355 255 140 0
-0.0096968 0.1013417 0.0070284 255 140 0
-0.0074272 0.1013357 0.0070209 255 140 0
-0.0051541 0.1013297 0.0070142 255 140 0
-0.0028817 0.1013245 0.0070091 255 140 0
-0.0006093 0.1013187 0.0070030 255 140 0
0.0016633 0.1013133 0.0069969 255 140 0
0.0039360 0.1013120 0.0069939 255 140 0
0.0062084 0.1013131 0.0069935 255 140 0
0.0084797 0.1013151 0.0069949 255 140 0
0.0107505 0.1013072 0.0069896 255 140 0
0.0130220 0.1013154 0.0070008 255 140 0
0.0152934 0.1012930 0.0069862 255 140 0
0.0175625 0.1012399 0.0069462 255 140 0
0.0198262 0.1011485 0.0068850 255 140 0
0.0220922 0.1010303 0.0068057 255 140 0
0.0243565 0.1008619 0.0067144 255 140 0
0.0266218 0.1006401 0.0066183 255 140 0
0.0288997 0.1004681 0.0065252 255 140 0
-0.0892069 0.1034311 0.0067967 255 140 0
-0.0869379 0.1034503 0.0068713 255 140 0
-0.0846671 0.1034819 0.0069202 255 140 0
-0.0823954 0.1034924 0.0069282 255 140 0
-0.0801238 0.1035027 0.0069375 255 140 0
-0.0778519 0.1035123 0.0069491 255 140 0
-0.0755800 0.1035171 0.0069552 255 140 0
-0.0733079 0.1035176 0.0069565 255 140 0
-0.0710359 0.1035165 0.0069555 255 140 0
-0.0687636 0.1035142 0.0069531 255 140 0
-0.0664915 0.1035125 0.0069506 255 140 0
-0.0642198 0.1035110 0.0069479 255 140 0
-0.0619485 0.1035114 0.0069456 255 140 0
-0.0596767 0.1035123 0.0069431 255 140 0
-0.0574048 0.1035127 0.0069388 255 140 0
-0.0551330 0.1035152 0.0069376 255 140 0
-0.0528612 0.1035200 0.0069396 255 140 0
-0.0505895 0.1035280 0.0069450 255 140 0
-0.0483178 0.1035397 0.0069535 255 140 0
-0.0460461 0.1035538 0.0069642 255 140 0
-0.0437745 0.1035691 0.0069763 255 140 0
-0.0415028 0.1035856 0.0069893 255 140 0
-0.0392312 0.1035981 0.0069990 255 140 0
-0.0369597 0.1036107 0.0070085 255 140 0
-0.0346879 0.1036145 0.0070104 255 140 0
-0.0324159 0.1036047 0.0070000 255 140 0
-0.0301438 0.1035953 0.0069904 255 140 0
-0.0278720 0.1035873 0.0069820 255 140 0
-0.0256001 0.1035777 0.0069728 255 140 0
-0.0233281 0.1035672 0.0069630 255 140 0
-0.0210563 0.1035563 0.0069533 255 140 0
-0.0187844 0.1035458 0.0069440 255 140 0
-0.0165127 0.1035350 0.0069352 255 140 0
-0.0142408 0.1035247 0.0069267 255 140 0
-0.0119694 0.1035103 0.0069180 255 140 0
-0.0097003 0.1034983 0.0069097 255 140 0
-0.0074281 0.1034892 0.0069020 255 140 0
-0.0051553 0.1034798 0.0068949 255 140 0
-0.0028826 0.1034714 0.0068888 255 140 0
-0.0006105 0.1034636 0.0068825 255 140 0
0.0016621 0.1034575 0.0068763 255 140 0
0.0039354 0.1034552 0.0068732 255 140 0
0.0062079 0.1034563 0.0068734 255 140 0
0.0084821 0.1034618 0.0068774 255 140 0
0.0107535 0.1034572 0.0068752 255 140 0
0.0130211 0.1034898 0.0069018 255 140 0
0.0152921 0.1034798 0.0068981 255 140 0
0.0175615 0.1034244 0.0068601 255 140 0
0.0198255 0.1033317 0.0068033 255 140 0
0.0220888 0.1031773 0.0067310 255 140 0
0.0243516 0.1029793 0.0066516 255 140 0
0.0266173 0.1027483 0.0065741 255 140 0
0.0288998 0.1025923 0.0065209 255 140 0
-0.0891973 0.1055022 0.0065662 255 140 0
-0.0869326 0.1055451 0.0066824 255 140 0
-0.0846644 0.1055761 0.0067609 255 140 0
-0.0823928 0.1055872 0.0067659 255 140 0
-0.0801215 0.1055964 0.0067758 255 140 0
-0.0778501 0.1056022 0.0067921 255 140 0
-0.0755783 0.1056066 0.0068001 255 140 0
-0.0733065 0.1056071 0.0068009 255 140 0
-0.0710346 0.1056056 0.0067999 255 140 0
-0.0687627 0.1056021 0.0067973 255 140 0
-0.0664910 0.1055978 0.0067933 255 140 0
-0.0642192 0.1055927 0.0067890 255 140 0
-0.0619476 0.1055891 0.0067869 255 140 0
-0.0596761 0.1055871 0.0067852 255 140 0
-0.0574043 0.1055864 0.0067822 255 140 0
-0.0551325 0.1055896 0.0067825 255 140 0
-0.0528608 0.1055963 0.0067860 255 140 0
-0.0505891 0.1056086 0.0067936 255 140 0
-0.0483174 0.1056240 0.0068050 255 140 0
-0.0460458 0.1056474 0.0068192 255 140 0
-0.0437741 0.1056736 0.0068352 255 140 0
-0.0415024 0.1057020 0.0068518 255 140 0
-0.0392307 0.1057233 0.0068644 255 140 0
-0.0369593 0.1057403 0.0068743 255 140 0
-0.0346877 0.1057462 0.0068767 255 140 0
-0.0324157 0.1057360 0.0068676 255 140 0
-0.0301439 0.1057253 0.0068585 255 140 0
-0.0278721 0.1057135 0.0068496 255 140 0
-0.0256002 0.1056986 0.0068399 255 140 0
-0.0233284 0.1056839 0.0068296 255 140 0
-0.0210567 0.1056694 0.0068196 255 140 0
-0.0187850 0.1056547 0.0068102 255 140 0
-0.0165132 0.1056395 0.0068011 255 140 0
-0.0142415 0.1056247 0.0067924 255 140 0
-0.0119717 0.1056082 0.0067834 255 140 0
-0.0097033 0.1055938 0.0067751 255 140 0
-0.0074293 0.1055843 0.0067675 255 140 0
-0.0051562 0.1055757 0.0067604 255 140 0
-0.0028846 0.1055680 0.0067536 255 140 0
-0.0006123 0.1055568 0.0067471 255 140 0
0.0016603 0.1055479 0.0067413 255 140 0
0.0039339 0.1055448 0.0067377 255 140 0
0.0062062 0.1055488 0.0067375 255 140 0
0.0084806 0.1055617 0.0067429 255 140 0
0.0107523 0.1055639 0.0067433 255 140 0
0.0130244 0.1056349 0.0067864 255 140 0
0.0152910 0.1056437 0.0067952 255 140 0
0.0175608 0.1055727 0.0067610 255 140 0
0.0198244 0.1054495 0.0067091 255 140 0
0.0220831 0.1052648 0.0066450 255 140 0
0.0243408 0.1050432 0.0065728 255 140 0
0.0266015 0.1048697 0.0065332 255 140 0
0.0288859 0.1048449 0.0065483 255 140 0
-0.0891769 0.1082172 0.0065889 255 140 0
-0.0869248 0.1076684 0.0065730 255 140 0
-0.0846612 0.1076568 0.0066540 255 140 0
-0.0823900 0.1076651 0.0066530 255 140 0
-0.0801189 0.1076762 0.0066582 255 140 0
-0.0778478 0.1076906 0.0066710 255 140 0
-0.0755763 0.1076968 0.0066759 255 140 0
-0.0733047 0.1076961 0.0066743 255 140 0
-0.0710330 0.1076924 0.0066717 255 140 0
-0.0687612 0.1076863 0.0066679 255 140 0
-0.0664895 0.1076765 0.0066624 255 140 0
-0.0642177 0.1076662 0.0066565 255 140 0
-0.0619469 0.1076535 0.0066530 255 140 0
-0.0596753 0.1076446 0.0066502 255 140 0
-0.0574034 0.1076405 0.0066466 255 140 0
-0.0551316 0.1076423 0.0066463 255 140 0
-0.0528599 0.1076506 0.0066486 255 140 0
-0.0505883 0.1076688 0.0066559 255 140 0
-0.0483167 0.1076975 0.0066682 255 140 0
-0.0460451 0.1077351 0.0066856 255 140 0
-0.0437735 0.1077771 0.0067053 255 140 0
-0.0415020 0.1078185 0.0067232 255 140 0
-0.0392304 0.1078515 0.0067366 255 140 0
-0.0369590 0.1078732 0.0067449 255 140 0
-0.0346874 0.1078805 0.0067464 255 140 0
-0.0324155 0.1078697 0.0067381 255 140 0
-0.0301438 0.1078564 0.0067296 255 140 0
-0.0278721 0.1078411 0.0067207 255 140 0
-0.0256004 0.1078238 0.0067114 255 140 0
-0.0233288 0.1078057 0.0067018 255 140 0
-0.0210572 0.1077865 0.0066927 255 140 0
-0.0187855 0.1077680 0.0066839 255 140 0
-0.0165139 0.1077483 0.0066757 255 140 0
-0.0142422 0.1077292 0.0066681 255 140 0
-0.0119710 0.1077030 0.0066608 255 140 0
-0.0097006 0.1076808 0.0066538 255 140 0
-0.0074300 0.1076640 0.0066471 255 140 0
-0.0051568 0.1076467 0.0066411 255 140 0
-0.0028860 0.1076303 0.0066359 255 140 0
-0.0006141 0.1076154 0.0066305 255 140 0
0.0016580 0.1076038 0.0066256 255 140 0
0.0039307 0.1076009 0.0066228 255 140 0
0.0062045 0.1076093 0.0066234 255 140 0
0.0084789 0.1076337 0.0066297 255 140 0
0.0107506 0.1076445 0.0066321 255 140 0
0.0130246 0.1077877 0.0067094 255 140 0
0.0152955 0.1078342 0.0067434 255 140 0
0.0175613 0.1077636 0.0067174 255 140 0
0.0198280 0.1076478 0.0066734 255 140 0
0.0220828 0.1074714 0.0066186 255 140 0
0.0243396 0.1072097 0.0065486 255 140 0
0.0266025 0.1071611 0.0065600 255 140 0
0.0288867 0.1070731 0.0065744 255 140 0
-0.0891667 0.1108689 0.0066538 255 140 0
-0.0869153 0.1100290 0.0065762 255 140 0
-0.0846585 0.1097744 0.0065774 255 140 0
-0.0823876 0.1097674 0.0065723 255 140 0
-0.0801167 0.1097677 0.0065720 255 140 0
-0.0778460 0.1097758 0.0065773 255 140 0
-0.0755748 0.1097775 0.0065773 255 140 0
-0.0733033 0.1097721 0.0065732 255 140 0
-0.0710320 0.1097639 0.0065692 255 140 0
-0.0687604 0.1097519 0.0065648 255 140 0
-0.0664888 0.1097373 0.0065589 255 140 0
-0.0642172 0.1097225 0.0065529 255 140 0
-0.0619457 0.1097013 0.0065485 255 140 0
-0.0596742 0.1096870 0.0065449 255 140 0
-0.0574024 0.1096818 0.0065410 255 140 0
-0.0551308 0.1096820 0.0065393 255 140 0
-0.0528593 0.1096877 0.0065391 255 140 0
-0.0505877 0.1097072 0.0065445 255 140 0
-0.0483161 0.1097457 0.0065564 255 140 0
-0.0460445 0.1097991 0.0065775 255 140 0
-0.0437729 0.1098539 0.0066025 255 140 0
-0.0415015 0.1099114 0.0066223 255 140 0
-0.0392299 0.1099631 0.0066364 255 140 0
-0.0369585 0.1099932 0.0066418 255 140 0
-0.0346871 0.1100045 0.0066421 255 140 0
-0.0324152 0.1099910 0.0066351 255 140 0
-0.0301437 0.1099754 0.0066277 255 140 0
-0.0278722 0.1099561 0.0066199 255 140 0
-0.0256007 0.1099357 0.0066121 255 140 0
-0.0233292 0.1099139 0.0066043 255 140 0
-0.0210576 0.1098917 0.0065970 255 140 0
-0.0187860 0.1098685 0.0065902 255 140 0
-0.0165144 0.1098573 0.0065843 255 140 0
-0.0142433 0.1098356 0.0065789 255 140 0
-0.0119718 0.1098109 0.0065742 255 140 0
-0.0097006 0.1097875 0.0065698 255 140 0
-0.0074289 0.1097708 0.0065654 255 140 0
-0.0051574 0.1097526 0.0065616 255 140 0
-0.0028865 0.1097317 0.0065584 255 140 0
-0.0006154 0.1097149 0.0065547 255 140 0
0.0016563 0.1097034 0.0065509 255 140 0
0.0039287 0.1097048 0.0065492 255 140 0
0.0062030 0.1097220 0.0065503 255 140 0
0.0084775 0.1097608 0.0065557 255 140 0
0.0107498 0.1097864 0.0065585 255 140 0
0.0130294 0.1099915 0.0066652 255 140 0
0.0153018 0.1100798 0.0067235 255 140 0
0.0175699 0.1100542 0.0067089 255 140 0
0.0198308 0.1099419 0.0066740 255 140 0
0.0220916 0.1097690 0.0066259 255 140 0
0.0243520 0.1095051 0.0065548 255 140 0
0.0266197 0.1093728 0.0065816 255 140 0
0.0289131 0.1091298 0.0066112 255 140 0
-0.0869151 0.1123867 0.0065844 255 140 0
-0.0846512 0.1120187 0.0065414 255 140 0
-0.0823848 0.1120153 0.0065412 255 140 0
-0.0801145 0.1120119 0.0065395 255 140 0
-0.0778439 0.1120036 0.0065353 255 140 0
-0.0755729 0.1120042 0.0065334 255 140 0
-0.0733016 0.1120144 0.0065338 255 140 0
-0.0710301 0.1120250 0.0065351 255 140 0
-0.0687584 0.1120387 0.0065373 255 140 0
-0.0664866 0.1120536 0.0065395 255 140 0
-0.0642148 0.1120672 0.0065417 255 140 0
-0.0619434 0.1120827 0.0065449 255 140 0
-0.0596717 0.1120909 0.0065468 255 140 0
-0.0574000 0.1121053 0.0065479 255 140 0
-0.0551284 0.1121076 0.0065475 255 140 0
-0.0528571 0.1121018 0.0065460 255 140 0
-0.0505858 0.1120734 0.0065411 255 140 0
-0.0483147 0.1120060 0.0065320 255 140 0
-0.0460435 0.1119737 0.0065190 255 140 0
-0.0437719 0.1120662 0.0065611 255 140 0
-0.0415008 0.1121606 0.0065986 255 140 0
-0.0392295 0.1122332 0.0066261 255 140 0
-0.0369578 0.1122613 0.0066282 255 140 0
-0.0346862 0.1122715 0.0066275 255 140 0
-0.0324148 0.1122602 0.0066231 255 140 0
-0.0301435 0.1122463 0.0066181 255 140 0
-0.0278721 0.1122298 0.0066127 255 140 0
-0.0256006 0.1122110 0.0066073 255 140 0
-0.0233291 0.1121893 0.0066020 255 140 0
-0.0210576 0.1121672 0.0065970 255 140 0
-0.0187860 0.1121455 0.0065928 255 140 0
-0.0165145 0.1121244 0.0065893 255 140 0
-0.0142435 0.1121055 0.0065866 255 140 0
-0.0119716 0.1120745 0.0065829 255 140 0
-0.0096980 0.1120490 0.0065800 255 140 0
-0.0074274 0.1120367 0.0065784 255 140 0
-0.0051573 0.1120225 0.0065767 255 140 0
-0.0028864 0.1120070 0.0065748 255 140 0
-0.0006153 0.1119928 0.0065728 255 140 0
0.0016559 0.1119844 0.0065708 255 140 0
0.0039285 0.1119864 0.0065701 255 140 0
0.0062004 0.1120039 0.0065713 255 140 0
0.0084740 0.1120425 0.0065759 255 140 0
0.0107468 0.1120735 0.0065803 255 140 0
0.0130294 0.1122864 0.0066710 255 140 0
0.0153063 0.1123651 0.0067247 255 140 0
0.0175716 0.1123491 0.0067245 255 140 0
0.0198374 0.1122738 0.0067019 255 140 0
0.0220963 0.1121372 0.0066623 255 140 0
0.0243606 0.1119198 0.0065963 255 140 0
0.0266316 0.1118305 0.0065861 255 140 0
-0.0868969 0.1145628 0.0065477 255 140 0
-0.0846453 0.1147049 0.0065730 255 140 0
-0.0823803 0.1147079 0.0065797 255 140 0
-0.0801105 0.1147055 0.0065832 255 140 0
-0.0778394 0.1146941 0.0065837 255 140 0
-0.0755682 0.1146792 0.0065832 255 140 0
-0.0732968 0.1146609 0.0065789 255 140 0
-0.0710255 0.1146469 0.0065696 255 140 0
-0.0687542 0.1146337 0.0065616 255 140 0
-0.0664828 0.1146260 0.0065543 255 140 0
-0.0642114 0.1146181 0.0065483 255 140 0
-0.0619401 0.1145947 0.0065341 255 140 0
-0.0596687 0.1145864 0.0065286 255 140 0
-0.0573972 0.1145864 0.0065297 255 140 0
-0.0551256 0.1145900 0.0065332 255 140 0
-0.0528542 0.1146017 0.0065397 255 140 0
-0.0505827 0.1146175 0.0065450 255 140 0
-0.0483109 0.1146478 0.0065557 255 140 0
-0.0460352 0.1144924 0.0065310 255 140 0
-0.0437646 0.1143917 0.0065136 255 140 0
-0.0414992 0.1144328 0.0065419 255 140 0
-0.0392286 0.1145180 0.0065926 255 140 0
-0.0369566 0.1145379 0.0065911 255 140 0
-0.0346847 0.1145474 0.0065899 255 140 0
-0.0324141 0.1145402 0.0065887 255 140 0
-0.0301427 0.1145281 0.0065860 255 140 0
-0.0278713 0.1145149 0.0065828 255 140 0
-0.0255999 0.1145028 0.0065808 255 140 0
-0.0233285 0.1144843 0.0065777 255 140 0
-0.0210572 0.1144711 0.0065761 255 140 0
-0.0187865 0.1144596 0.0065741 255 140 0
-0.0165141 0.1144493 0.0065735 255 140 0
-0.0142457 0.1144400 0.0065738 255 140 0
-0.0119660 0.1144149 0.0065719 255 140 0
-0.0096919 0.1143936 0.0065704 255 140 0
-0.0074257 0.1143876 0.0065720 255 140 0
-0.0051574 0.1143782 0.0065724 255 140 0
-0.0028860 0.1143642 0.0065713 255 140 0
-0.0006153 0.1143561 0.0065709 255 140 0
0.0016556 0.1143528 0.0065711 255 140 0
0.0039259 0.1143538 0.0065720 255 140 0
0.0061981 0.1143669 0.0065747 255 140 0
0.0084725 0.1144019 0.0065805 255 140 0
0.0107443 0.1144329 0.0065874 255 140 0
0.0130291 0.1145750 0.0066513 255 140 0
0.0153052 0.1146177 0.0066986 255 140 0
0.0175714 0.1146106 0.0067147 255 140 0
0.0198332 0.1145720 0.0066866 255 140 0
0.0220964 0.1144785 0.0066478 255 140 0
0.0243561 0.1142868 0.0065499 255 140 0
0.0266256 0.1144681 0.0065600 255 140 0
-0.0869394 0.1172550 0.0071358 255 140 0
-0.0846549 0.1171909 0.0070228 255 140 0
-0.0823937 0.1171481 0.0069680 255 140 0
-0.0801218 0.1171252 0.0069301 255 140 0
-0.0778498 0.1171140 0.0069095 255 140 0
-0.0755777 0.1171031 0.0068903 255 140 0
-0.0733058 0.1170829 0.0068728 255 140 0
-0.0710339 0.1170670 0.0068591 255 140 0
-0.0687621 0.1170540 0.0068479 255 140 0
-0.0664902 0.1170427 0.0068380 255 140 0
-0.0642183 0.1170331 0.0068293 255 140 0
-0.0619464 0.1170155 0.0068147 255 140 0
-0.0596744 0.1170031 0.0068040 255 140 0
-0.0574030 0.1169991 0.0067990 255 140 0
-0.0551314 0.1169959 0.0067949 255 140 0
-0.0528597 0.1169931 0.0067910 255 140 0
-0.0505881 0.1169952 0.0067926 255 140 0
-0.0483163 0.1170047 0.0068013 255 140 0
-0.0460447 0.1170327 0.0068251 255 140 0
-0.0437733 0.1170748 0.0068559 255 140 0
-0.0415016 0.1171118 0.0068815 255 140 0
-0.0392302 0.1171417 0.0069017 255 140 0
-0.0369580 0.1171428 0.0069044 255 140 0
-0.0346771 0.1171385 0.0069051 255 140 0
-0.0324147 0.1171338 0.0069032 255 140 0
-0.0301433 0.1171280 0.0069003 255 140 0
-0.0278715 0.1171214 0.0068956 255 140 0
-0.0255998 0.1171147 0.0068903 255 140 0
-0.0233281 0.1171080 0.0068851 255 140 0
-0.0210565 0.1170987 0.0068800 255 140 0
-0.0187852 0.1170897 0.0068753 255 140 0
-0.0165132 0.1170831 0.0068706 255 140 0
-0.0142447 0.1170771 0.0068662 255 140 0
-0.0119640 0.1170633 0.0068561 255 140 0
-0.0096860 0.1170517 0.0068487 255 140 0
-0.0074233 0.1170444 0.0068454 255 140 0
-0.0051548 0.1170356 0.0068416 255 140 0
-0.0028843 0.1170252 0.0068370 255 140 0
-0.0006129 0.1170160 0.0068331 255 140 0
0.0016584 0.1170083 0.0068300 255 140 0
0.0039290 0.1170034 0.0068279 255 140 0
0.0061999 0.1170039 0.0068281 255 140 0
0.0084714 0.1170179 0.0068319 255 140 0
0.0107443 0.1170303 0.0068372 255 140 0
0.0130322 0.1171028 0.0068740 255 140 0
0.0153086 0.1171446 0.0068985 255 140 0
0.0175745 0.1171459 0.0069063 255 140 0
0.0198357 0.1171344 0.0069097 255 140 0
0.0220964 0.1171087 0.0069043 255 140 0
0.0243576 0.1171146 0.0069378 255 140 0
-0.0846306 0.1197514 0.0071405 255 140 0
-0.0823900 0.1197363 0.0071425 255 140 0
-0.0801259 0.1197045 0.0071432 255 140 0
-0.0778538 0.1196872 0.0071408 255 140 0
-0.0755814 0.1196699 0.0071403 255 140 0
-0.0733093 0.1196535 0.0071405 255 140 0
-0.0710368 0.1196407 0.0071414 255 140 0
-0.0687644 0.1196306 0.0071420 255 140 0
-0.0664924 0.1196230 0.0071425 255 140 0
-0.0642207 0.1196170 0.0071428 255 140 0
-0.0619479 0.1196026 0.0071359 255 140 0
-0.0596755 0.1195925 0.0071222 255 140 0
-0.0574043 0.1195901 0.0071159 255 140 0
-0.0551328 0.1195892 0.0071086 255 140 0
-0.0528610 0.1195894 0.0071001 255 140 0
-0.0505892 0.1195898 0.0070928 255 140 0
-0.0483175 0.1195887 0.0070859 255 140 0
-0.0460458 0.1195825 0.0070760 255 140 0
-0.0437741 0.1195743 0.0070662 255 140 0
-0.0415023 0.1195699 0.0070606 255 140 0
-0.0392305 0.1195667 0.0070575 255 140 0
-0.0369523 0.1195751 0.0070624 255 140 0
-0.0346727 0.1195802 0.0070652 255 140 0
-0.0324147 0.1195818 0.0070656 255 140 0
-0.0301430 0.1195812 0.0070643 255 140 0
-0.0278711 0.1195785 0.0070614 255 140 0
-0.0255992 0.1195752 0.0070573 255 140 0
-0.0233274 0.1195690 0.0070524 255 140 0
-0.0210558 0.1195651 0.0070478 255 140 0
-0.0187862 0.1195604 0.0070431 255 140 0
-0.0165123 0.1195558 0.0070379 255 140 0
-0.0142448 0.1195507 0.0070325 255 140 0
-0.0119603 0.1195366 0.0070196 255 140 0
-0.0096837 0.1195256 0.0070098 255 140 0
-0.0074210 0.1195204 0.0070051 255 140 0
-0.0051550 0.1195127 0.0069998 255 140 0
-0.0028830 0.1195045 0.0069935 255 140 0
-0.0006114 0.1194987 0.0069882 255 140 0
0.0016602 0.1194945 0.0069838 255 140 0
0.0039303 0.1194919 0.0069803 255 140 0
0.0062010 0.1194935 0.0069790 255 140 0
0.0084733 0.1195005 0.0069806 255 140 0
0.0107452 0.1195076 0.0069836 255 140 0
0.0130340 0.1195221 0.0070011 255 140 0
0.0153090 0.1195463 0.0070154 255 140 0
0.0175667 0.1195470 0.0070202 255 140 0
0.0198339 0.1195566 0.0070367 255 140 0
0.0220954 0.1195692 0.0070579 255 140 0
0.0243552 0.1196557 0.0071648 255 140 0
-0.0846259 0.1219379 0.0071513 255 140 0
-0.0823760 0.1219437 0.0071500 255 140 0
-0.0801224 0.1219399 0.0071358 255 140 0
-0.0778503 0.1219232 0.0071135 255 140 0
-0.0755781 0.1219076 0.0070951 255 140 0
-0.0733061 0.1218939 0.0070801 255 140 0
-0.0710341 0.1218820 0.0070665 255 140 0
-0.0687620 0.1218707 0.0070541 255 140 0
-0.0664902 0.1218607 0.0070423 255 140 0
-0.0642183 0.1218513 0.0070318 255 140 0
-0.0619458 0.1218383 0.0070153 255 140 0
-0.0596701 0.1218293 0.0070036 255 140 0
-0.0574026 0.1218274 0.0069992 255 140 0
-0.0551310 0.1218312 0.0069944 255 140 0
-0.0528593 0.1218380 0.0069887 255 140 0
-0.0505876 0.1218354 0.0069837 255 140 0
-0.0483159 0.1218344 0.0069808 255 140 0
-0.0460443 0.1218167 0.0069795 255 140 0
-0.0437727 0.1218176 0.0069795 255 140 0
-0.0415009 0.1218398 0.0069802 255 140 0
-0.0392292 0.1218524 0.0069808 255 140 0
-0.0369569 0.1218548 0.0069774 255 140 0
-0.0346831 0.1218550 0.0069746 255 140 0
-0.0324135 0.1218541 0.0069732 255 140 0
-0.0301419 0.1218520 0.0069704 255 140 0
-0.0278700 0.1218480 0.0069666 255 140 0
-0.0255982 0.1218438 0.0069622 255 140 0
-0.0233265 0.1218394 0.0069580 255 140 0
-0.0210549 0.1218352 0.0069536 255 140 0
-0.0187838 0.1218309 0.0069491 255 140 0
-0.0165114 0.1218258 0.0069446 255 140 0
-0.0142439 0.1218213 0.0069397 255 140 0
-0.0119614 0.1218101 0.0069299 255 140 0
-0.0096857 0.1218019 0.0069225 255 140 0
-0.0074211 0.1217990 0.0069197 255 140 0
-0.0051528 0.1217954 0.0069160 255 140 0
-0.0028819 0.1217914 0.0069113 255 140 0
-0.0006104 0.1217872 0.0069069 255 140 0
0.0016610 0.1217842 0.0069035 255 140 0
0.0039317 0.1217835 0.0069007 255 140 0
0.0062027 0.1217850 0.0068994 255 140 0
0.0084766 0.1217903 0.0069004 255 140 0
0.0107489 0.1217953 0.0069021 255 140 0
0.0130294 0.1218184 0.0069123 255 140 0
0.0153061 0.1218301 0.0069177 255 140 0
0.0175663 0.1218294 0.0069202 255 140 0
0.0198319 0.1218195 0.0069139 255 140 0
0.0220926 0.1218025 0.0069000 255 140 0
0.0243525 0.1217814 0.0068869 255 140 0
-0.0823703 0.1241766 0.0070336 255 140 0
-0.0801200 0.1241795 0.0070302 255 140 0
-0.0778483 0.1241691 0.0070166 255 140 0
-0.0755763 0.1241591 0.0070038 255 140 0
-0.0733046 0.1241484 0.0069921 255 140 0
-0.0710325 0.1241373 0.0069805 255 140 0
-0.0687607 0.1241254 0.0069688 255 140 0
-0.0664888 0.1241133 0.0069573 255 140 0
-0.0642170 0.1241027 0.0069471 255 140 0
-0.0619448 0.1240891 0.0069320 255 140 0
-0.0596716 0.1240792 0.0069214 255 140 0
-0.0574017 0.1240773 0.0069189 255 140 0
-0.0551302 0.1240750 0.0069157 255 140 0
-0.0528585 0.1240719 0.0069119 255 140 0
-0.0505868 0.1240697 0.0069097 255 140 0
-0.0483152 0.1240697 0.0069094 255 140 0
-0.0460435 0.1240732 0.0069128 255 140 0
-0.0437719 0.1240795 0.0069181 255 140 0
-0.0415003 0.1240889 0.0069224 255 140 0
-0.0392286 0.1240970 0.0069253 255 140 0
-0.0369563 0.1241012 0.0069186 255 140 0
-0.0346841 0.1241097 0.0069129 255 140 0
-0.0324129 0.1241077 0.0069109 255 140 0
-0.0301413 0.1241059 0.0069074 255 140 0
-0.0278696 0.1241045 0.0069035 255 140 0
-0.0255978 0.1241028 0.0068997 255 140 0
-0.0233260 0.1240992 0.0068958 255 140 0
-0.0210543 0.1240958 0.0068921 255 140 0
-0.0187828 0.1240922 0.0068883 255 140 0
-0.0165108 0.1240880 0.0068843 255 140 0
-0.0142421 0.1240840 0.0068804 255 140 0
-0.0119619 0.1240746 0.0068724 255 140 0
-0.0096881 0.1240685 0.0068669 255 140 0
-0.0074213 0.1240670 0.0068658 255 140 0
-0.0051520 0.1240653 0.0068637 255 140 0
-0.0028816 0.1240628 0.0068602 255 140 0
-0.0006099 0.1240605 0.0068574 255 140 0
0.0016616 0.1240594 0.0068549 255 140 0
0.0039323 0.1240591 0.0068533 255 140 0
0.0062038 0.1240606 0.0068528 255 140 0
0.0084785 0.1240647 0.0068537 255 140 0
0.0107503 0.1240691 0.0068552 255 140 0
0.0130276 0.1240815 0.0068621 255 140 0
0.0153008 0.1240859 0.0068639 255 140 0
0.0175659 0.1240864 0.0068666 255 140 0
0.0198302 0.1240694 0.0068526 255 140 0
0.0220910 0.1240347 0.0068250 255 140 0
-0.0801185 0.1263795 0.0069153 255 140 0
-0.0778472 0.1264031 0.0069211 255 140 0
-0.0755755 0.1264034 0.0069179 255 140 0
-0.0733037 0.1263909 0.0069065 255 140 0
-0.0710319 0.1263768 0.0068945 255 140 0
-0.0687601 0.1263625 0.0068822 255 140 0
-0.0664883 0.1263480 0.0068705 255 140 0
-0.0642165 0.1263358 0.0068605 255 140 0
-0.0619445 0.1263211 0.0068475 255 140 0
-0.0596727 0.1263121 0.0068392 255 140 0
-0.0574014 0.1263112 0.0068385 255 140 0
-0.0551298 0.1263092 0.0068372 255 140 0
-0.0528581 0.1263068 0.0068347 255 140 0
-0.0505865 0.1263050 0.0068332 255 140 0
-0.0483149 0.1263042 0.0068327 255 140 0
-0.0460432 0.1263061 0.0068338 255 140 0
-0.0437717 0.1263072 0.0068357 255 140 0
-0.0415000 0.1263111 0.0068369 255 140 0
-0.0392283 0.1263135 0.0068377 255 140 0
-0.0369563 0.1263103 0.0068333 255 140 0
-0.0346845 0.1263086 0.0068299 255 140 0
-0.0324130 0.1263063 0.0068286 255 140 0
-0.0301413 0.1263038 0.0068264 255 140 0
-0.0278696 0.1263011 0.0068235 255 140 0
-0.0255979 0.1262980 0.0068209 255 140 0
-0.0233262 0.1262949 0.0068184 255 140 0
-0.0210545 0.1262919 0.0068162 255 140 0
-0.0187828 0.1262893 0.0068138 255 140 0
-0.0165110 0.1262845 0.0068109 255 140 0
-0.0142410 0.1262800 0.0068082 255 140 0
-0.0119628 0.1262739 0.0068023 255 140 0
-0.0096905 0.1262695 0.0067984 255 140 0
-0.0074222 0.1262675 0.0067977 255 140 0
-0.0051524 0.1262651 0.0067965 255 140 0
-0.0028821 0.1262627 0.0067945 255 140 0
-0.0006102 0.1262611 0.0067930 255 140 0
0.0016613 0.1262608 0.0067921 255 140 0
0.0039328 0.1262610 0.0067920 255 140 0
0.0062041 0.1262634 0.0067930 255 140 0
0.0084779 0.1262686 0.0067961 255 140 0
0.0107497 0.1262755 0.0068005 255 140 0
0.0130265 0.1262958 0.0068140 255 140 0
0.0152983 0.1263099 0.0068223 255 140 0
0.0175651 0.1263186 0.0068297 255 140 0
0.0198304 0.1263121 0.0068268 255 140 0
0.0220938 0.1262872 0.0068112 255 140 0
-0.0801102 0.1286340 0.0068921 255 140 0
-0.0778468 0.1286689 0.0068970 255 140 0
-0.0755751 0.1286653 0.0068902 255 140 0
-0.0733035 0.1286473 0.0068742 255 140 0
-0.0710318 0.1286282 0.0068590 255 140 0
-0.0687600 0.1286095 0.0068447 255 140 0
-0.0664881 0.1285932 0.0068321 255 140 0
-0.0642162 0.1285793 0.0068218 255 140 0
-0.0619445 0.1285637 0.0068098 255 140 0
-0.0596728 0.1285537 0.0068023 255 140 0
-0.0574014 0.1285525 0.0068021 255 140 0
-0.0551299 0.1285516 0.0068011 255 140 0
-0.0528582 0.1285494 0.0067992 255 140 0
-0.0505866 0.1285481 0.0067977 255 140 0
-0.0483150 0.1285472 0.0067960 255 140 0
-0.0460433 0.1285474 0.0067954 255 140 0
-0.0437717 0.1285476 0.0067950 255 140 0
-0.0415000 0.1285469 0.0067944 255 140 0
-0.0392283 0.1285459 0.0067939 255 140 0
-0.0369563 0.1285428 0.0067912 255 140 0
-0.0346844 0.1285401 0.0067891 255 140 0
-0.0324129 0.1285389 0.0067884 255 140 0
-0.0301413 0.1285369 0.0067870 255 140 0
-0.0278697 0.1285345 0.0067848 255 140 0
-0.0255980 0.1285325 0.0067830 255 140 0
-0.0233263 0.1285301 0.0067813 255 140 0
-0.0210546 0.1285288 0.0067799 255 140 0
-0.0187828 0.1285268 0.0067784 255 140 0
-0.0165111 0.1285234 0.0067763 255 140 0
-0.0142397 0.1285199 0.0067742 255 140 0
-0.0119635 0.1285131 0.0067693 255 140 0
-0.0096909 0.1285092 0.0067658 255 140 0
-0.0074226 0.1285082 0.0067648 255 140 0
-0.0051526 0.1285064 0.0067635 255 140 0
-0.0028818 0.1285044 0.0067620 255 140 0
-0.0006102 0.1285027 0.0067611 255 140 0
0.0016615 0.1285024 0.0067606 255 140 0
0.0039332 0.1285032 0.0067611 255 140 0
0.0062048 0.1285061 0.0067632 255 140 0
0.0084777 0.1285121 0.0067679 255 140 0
0.0107494 0.1285204 0.0067738 255 140 0
0.0130258 0.1285556 0.0067956 255 140 0
0.0152973 0.1285786 0.0068105 255 140 0
0.0175644 0.1285902 0.0068177 255 140 0
0.0198287 0.1285829 0.0068205 255 140 0
-0.0778472 0.1309732 0.0069355 255 140 0
-0.0755749 0.1309772 0.0069142 255 140 0
-0.0733031 0.1309480 0.0068886 255 140 0
-0.0710315 0.1309201 0.0068673 255 140 0
-0.0687598 0.1308940 0.0068498 255 140 0
-0.0664879 0.1308738 0.0068355 255 140 0
-0.0642162 0.1308573 0.0068242 255 140 0
-0.0619445 0.1308408 0.0068120 255 140 0
-0.0596728 0.1308300 0.0068040 255 140 0
-0.0574013 0.1308284 0.0068030 255 140 0
-0.0551298 0.1308260 0.0068014 255 140 0
-0.0528582 0.1308233 0.0067992 255 140 0
-0.0505865 0.1308211 0.0067975 255 140 0
-0.0483148 0.1308202 0.0067964 255 140 0
-0.0460432 0.1308203 0.0067959 255 140 0
-0.0437715 0.1308206 0.0067958 255 140 0
-0.0414998 0.1308210 0.0067958 255 140 0
-0.0392282 0.1308211 0.0067957 255 140 0
-0.0369563 0.1308186 0.0067938 255 140 0
-0.0346844 0.1308172 0.0067926 255 140 0
-0.0324129 0.1308163 0.0067927 255 140 0
-0.0301413 0.1308158 0.0067923 255 140 0
-0.0278696 0.1308154 0.0067915 255 140 0
-0.0255978 0.1308138 0.0067903 255 140 0
-0.0233261 0.1308119 0.0067890 255 140 0
-0.0210544 0.1308102 0.0067880 255 140 0
-0.0187827 0.1308081 0.0067870 255 140 0
-0.0165110 0.1308062 0.0067856 255 140 0
-0.0142393 0.1308044 0.0067841 255 140 0
-0.0119636 0.1307991 0.0067793 255 140 0
-0.0096908 0.1307949 0.0067757 255 140 0
-0.0074226 0.1307938 0.0067742 255 140 0
-0.0051524 0.1307918 0.0067725 255 140 0
-0.0028812 0.1307900 0.0067707 255 140 0
-0.0006098 0.1307877 0.0067693 255 140 0
0.0016620 0.1307862 0.0067683 255 140 0
0.0039336 0.1307872 0.0067687 255 140 0
0.0062053 0.1307921 0.0067717 255 140 0
0.0084780 0.1308025 0.0067789 255 140 0
0.0107499 0.1308143 0.0067868 255 140 0
0.0130254 0.1308728 0.0068217 255 140 0
0.0152953 0.1309133 0.0068455 255 140 0
0.0175645 0.1309213 0.0068504 255 140 0
-0.0755750 0.1332877 0.0069468 255 140 0
-0.0733032 0.1332658 0.0069093 255 140 0
-0.0710315 0.1332247 0.0068799 255 140 0
-0.0687596 0.1331887 0.0068574 255 140 0
-0.0664879 0.1331753 0.0068398 255 140 0
-0.0642162 0.1331560 0.0068265 255 140 0
-0.0619443 0.1331353 0.0068130 255 140 0
-0.0596726 0.1331226 0.0068041 255 140 0
-0.0574011 0.1331203 0.0068023 255 140 0
-0.0551296 0.1331176 0.0068001 255 140 0
-0.0528580 0.1331137 0.0067974 255 140 0
-0.0505864 0.1331112 0.0067954 255 140 0
-0.0483147 0.1331103 0.0067941 255 140 0
-0.0460431 0.1331109 0.0067935 255 140 0
-0.0437714 0.1331109 0.0067937 255 140 0
-0.0414998 0.1331104 0.0067945 255 140 0
-0.0392281 0.1331091 0.0067954 255 140 0
-0.0369563 0.1331065 0.0067946 255 140 0
-0.0346845 0.1331026 0.0067941 255 140 0
-0.0324129 0.1330973 0.0067942 255 140 0
-0.0301413 0.1330910 0.0067939 255 140 0
-0.0278695 0.1330891 0.0067934 255 140 0
-0.0255977 0.1330870 0.0067925 255 140 0
-0.0233260 0.1330852 0.0067913 255 140 0
-0.0210543 0.1330835 0.0067904 255 140 0
-0.0187825 0.1330823 0.0067895 255 140 0
-0.0165108 0.1330812 0.0067882 255 140 0
-0.0142390 0.1330800 0.0067871 255 140 0
-0.0119646 0.1330753 0.0067833 255 140 0
-0.0096911 0.1330726 0.0067804 255 140 0
-0.0074220 0.1330732 0.0067793 255 140 0
-0.0051521 0.1330731 0.0067783 255 140 0
-0.0028804 0.1330725 0.0067772 255 140 0
-0.0006086 0.1330724 0.0067766 255 140 0
0.0016633 0.1330734 0.0067765 255 140 0
0.0039352 0.1330773 0.0067783 255 140 0
0.0062076 0.1330863 0.0067837 255 140 0
0.0084802 0.1331039 0.0067949 255 140 0
0.0107526 0.1331163 0.0068044 255 140 0
0.0130217 0.1332347 0.0068679 255 140 0
0.0152893 0.1333026 0.0069069 255 140 0
-0.0733039 0.1355295 0.0069061 255 140 0
-0.0710311 0.1355062 0.0068665 255 140 0
-0.0687595 0.1354736 0.0068506 255 140 0
-0.0664878 0.1354562 0.0068302 255 140 0
-0.0642160 0.1354334 0.0068185 255 140 0
-0.0619442 0.1354115 0.0068100 255 140 0
-0.0596726 0.1353956 0.0068001 255 140 0
-0.0574010 0.1353928 0.0067976 255 140 0
-0.0551294 0.1353893 0.0067949 255 140 0
-0.0528578 0.1353847 0.0067915 255 140 0
-0.0505862 0.1353806 0.0067890 255 140 0
-0.0483145 0.1353787 0.0067872 255 140 0
-0.0460429 0.1353771 0.0067862 255 140 0
-0.0437713 0.1353758 0.0067861 255 140 0
-0.0414996 0.1353741 0.0067870 255 140 0
-0.0392279 0.1353725 0.0067881 255 140 0
-0.0369561 0.1353715 0.0067880 255 140 0
