ply
format ascii 1.0
element vertex 1170
property float x
property float y
property float z
property uchar red
property uchar green
property uchar blue
end_header
0.0175621 0.1101406 0.0315337 255 140 0
0.0198338 0.1101406 0.0315337 255 140 0
-0.0778461 0.1124122 0.0315337 255 140 0
-0.0755745 0.1124122 0.0315337 255 140 0
-0.0733029 0.1124122 0.0315337 255 140 0
-0.0710313 0.1124122 0.0315337 255 140 0
-0.0687596 0.1124122 0.0315337 255 140 0
-0.0664880 0.1124122 0.0315337 255 140 0
-0.0642164 0.1124122 0.0315337 255 140 0
-0.0619448 0.1124122 0.0315337 255 140 0
-0.0596731 0.1124122 0.0315337 255 140 0
-0.0574015 0.1124122 0.0315337 255 140 0
-0.0551299 0.1124122 0.0315337 255 140 0
-0.0528583 0.1124122 0.0315337 255 140 0
-0.0505866 0.1124122 0.0315337 255 140 0
-0.0483150 0.1124122 0.0315337 255 140 0
-0.0460434 0.1124122 0.0315337 255 140 0
-0.0437718 0.1124122 0.0315337 255 140 0
-0.0415001 0.1124122 0.0315337 255 140 0
-0.0392285 0.1124122 0.0315337 255 140 0
-0.0369569 0.1124122 0.0315337 255 140 0
-0.0346853 0.1124122 0.0315337 255 140 0
-0.0324136 0.1124122 0.0315337 255 140 0
-0.0301420 0.1124122 0.0315337 255 140 0
-0.0278704 0.1124122 0.0315337 255 140 0
-0.0255987 0.1124122 0.0315337 255 140 0
-0.0233271 0.1124122 0.0315337 255 140 0
-0.0210555 0.1124122 0.0315337 255 140 0
-0.0187839 0.1124122 0.0315337 255 140 0
-0.0165123 0.1124122 0.0315337 255 140 0
-0.0142406 0.1124122 0.0315337 255 140 0
-0.0119690 0.1124122 0.0315337 255 140 0
-0.0096974 0.1124122 0.0315337 255 140 0
-0.0074258 0.1124122 0.0315337 255 140 0
-0.0051541 0.1124122 0.0315337 255 140 0
-0.0028825 0.1124122 0.0315337 255 140 0
-0.0006109 0.1124122 0.0315337 255 140 0
0.0016607 0.1124122 0.0315337 255 140 0
0.0039324 0.1124122 0.0315337 255 140 0
0.0062040 0.1124122 0.0315337 255 140 0
0.0084756 0.1124122 0.0315337 255 140 0
0.0107472 0.1124122 0.0315337 255 140 0
0.0130189 0.1124122 0.0315337 255 140 0
0.0152905 0.1124122 0.0315337 255 140 0
0.0175621 0.1124122 0.0315337 255 140 0
0.0198338 0.1124122 0.0315337 255 140 0
-0.0778461 0.1146838 0.0315337 255 140 0
-0.0755745 0.1146838 0.0315337 255 140 0
-0.0733029 0.1146838 0.0315337 255 140 0
-0.0710313 0.1146838 0.0315337 255 140 0
-0.0687596 0.1146838 0.0315337 255 140 0
-0.0664880 0.1146838 0.0315337 255 140 0
-0.0642164 0.1146838 0.0315337 255 140 0
-0.0619448 0.1146838 0.0315337 255 140 0
-0.0596731 0.1146838 0.0315337 255 140 0
-0.0574015 0.1146838 0.0315337 255 140 0
-0.0551299 0.1146838 0.0315337 255 140 0
-0.0528583 0.1146838 0.0315337 255 140 0
-0.0505866 0.1146838 0.0315337 255 140 0
-0.0483150 0.1146838 0.0315337 255 140 0
-0.0460434 0.1146838 0.0315337 255 140 0
-0.0437718 0.1146838 0.0315337 255 140 0
-0.0415001 0.1146838 0.0315337 255 140 0
-0.0392285 0.1146838 0.0315337 255 140 0
-0.0369569 0.1146838 0.0315337 255 140 0
-0.0346853 0.1146838 0.0315337 255 140 0
-0.0324136 0.1146838 0.0315337 255 140 0
-0.0301420 0.1146838 0.0315337 255 140 0
-0.0278704 0.1146838 0.0315337 255 140 0
-0.0255987 0.1146838 0.0315337 255 140 0
-0.0233271 0.1146838 0.0315337 255 140 0
-0.0210555 0.1146838 0.0315337 255 140 0
-0.0187839 0.1146838 0.0315337 255 140 0
-0.0165123 0.1146838 0.0315337 255 140 0
-0.0142406 0.1146838 0.0315337 255 140 0
-0.0119690 0.1146838 0.0315337 255 140 0
-0.0096974 0.1146837 0.0315337 255 140 0
-0.0074258 0.1146837 0.0315337 255 140 0
-0.0051541 0.1146837 0.0315337 255 140 0
-0.0028825 0.1146837 0.0315337 255 140 0
-0.0006109 0.1146837 0.0315337 255 140 0
0.0016607 0.1146837 0.0315337 255 140 0
0.0039324 0.1146837 0.0315337 255 140 0
0.0062040 0.1146837 0.0315337 255 140 0
0.0084756 0.1146838 0.0315337 255 140 0
0.0107472 0.1146838 0.0315337 255 140 0
0.0130189 0.1146838 0.0315337 255 140 0
0.0152905 0.1146838 0.0315337 255 140 0
0.0175621 0.1146838 0.0315337 255 140 0
-0.0755745 0.1169554 0.0315337 255 140 0
-0.0733029 0.1169554 0.0315337 255 140 0
-0.0710313 0.1169554 0.0315337 255 140 0
-0.0687596 0.1169554 0.0315337 255 140 0
-0.0664880 0.1169554 0.0315337 255 140 0
-0.0642164 0.1169554 0.0315337 255 140 0
-0.0619448 0.1169554 0.0315337 255 140 0
-0.0596731 0.1169554 0.0315337 255 140 0
-0.0574015 0.1169554 0.0315337 255 140 0
-0.0551299 0.1169554 0.0315337 255 140 0
-0.0528583 0.1169554 0.0315337 255 140 0
-0.0505866 0.1169554 0.0315337 255 140 0
-0.0483150 0.1169554 0.0315337 255 140 0
-0.0460434 0.1169554 0.0315337 255 140 0
-0.0437718 0.1169554 0.0315337 255 140 0
-0.0415001 0.1169554 0.0315337 255 140 0
-0.0392285 0.1169554 0.0315337 255 140 0
-0.0369569 0.1169554 0.0315337 255 140 0
-0.0346853 0.1169554 0.0315337 255 140 0
-0.0324136 0.1169554 0.0315337 255 140 0
-0.0301420 0.1169554 0.0315337 255 140 0
-0.0278704 0.1169554 0.0315337 255 140 0
-0.0255987 0.1169554 0.0315337 255 140 0
-0.0233271 0.1169554 0.0315337 255 140 0
-0.0210555 0.1169554 0.0315337 255 140 0
-0.0187839 0.1169554 0.0315337 255 140 0
-0.0165123 0.1169554 0.0315337 255 140 0
-0.0142406 0.1169553 0.0315337 255 140 0
-0.0119690 0.1169553 0.0315337 255 140 0
-0.0096974 0.1169553 0.0315337 255 140 0
-0.0074258 0.1169553 0.0315337 255 140 0
-0.0051541 0.1169553 0.0315337 255 140 0
-0.0028825 0.1169553 0.0315337 255 140 0
-0.0006109 0.1169553 0.0315337 255 140 0
0.0016607 0.1169553 0.0315337 255 140 0
0.0039324 0.1169553 0.0315337 255 140 0
0.0062040 0.1169553 0.0315337 255 140 0
0.0084756 0.1169553 0.0315337 255 140 0
0.0107472 0.1169553 0.0315337 255 140 0
0.0130189 0.1169554 0.0315337 255 140 0
0.0152905 0.1169554 0.0315337 255 140 0
0.0175621 0.1169554 0.0315337 255 140 0
-0.0755745 0.1192271 0.0315337 255 140 0
-0.0733029 0.1192271 0.0315337 255 140 0
-0.0710313 0.1192271 0.0315337 255 140 0
-0.0687596 0.1192271 0.0315337 255 140 0
-0.0664880 0.1192271 0.0315337 255 140 0
-0.0642164 0.1192271 0.0315337 255 140 0
-0.0619448 0.1192271 0.0315337 255 140 0
-0.0596731 0.1192271 0.0315337 255 140 0
-0.0574015 0.1192271 0.0315337 255 140 0
-0.0551299 0.1192271 0.0315337 255 140 0
-0.0528583 0.1192271 0.0315337 255 140 0
-0.0505866 0.1192271 0.0315337 255 140 0
-0.0483150 0.1192271 0.0315337 255 140 0
-0.0460434 0.1192271 0.0315337 255 140 0
-0.0437718 0.1192271 0.0315337 255 140 0
-0.0415001 0.1192270 0.0315337 255 140 0
-0.0392285 0.1192270 0.0315337 255 140 0
-0.0369569 0.1192270 0.0315337 255 140 0
-0.0346853 0.1192270 0.0315337 255 140 0
-0.0324136 0.1192270 0.0315337 255 140 0
-0.0301420 0.1192270 0.0315337 255 140 0
-0.0278704 0.1192269 0.0315337 255 140 0
-0.0255987 0.1192269 0.0315337 255 140 0
-0.0233271 0.1192269 0.0315337 255 140 0
-0.0210555 0.1192269 0.0315337 255 140 0
-0.0187839 0.1192270 0.0315337 255 140 0
-0.0165123 0.1192269 0.0315337 255 140 0
-0.0142406 0.1192269 0.0315337 255 140 0
-0.0119690 0.1192269 0.0315337 255 140 0
-0.0096974 0.1192269 0.0315337 255 140 0
-0.0074258 0.1192269 0.0315337 255 140 0
-0.0051541 0.1192269 0.0315337 255 140 0
-0.0028825 0.1192269 0.0315337 255 140 0
-0.0006109 0.1192269 0.0315337 255 140 0
0.0016607 0.1192269 0.0315337 255 140 0
0.0039324 0.1192269 0.0315337 255 140 0
0.0062040 0.1192269 0.0315337 255 140 0
0.0084756 0.1192269 0.0315337 255 140 0
0.0107472 0.1192269 0.0315337 255 140 0
0.0130189 0.1192270 0.0315337 255 140 0
0.0152905 0.1192270 0.0315337 255 140 0
-0.0733029 0.1214987 0.0315337 255 140 0
-0.0710313 0.1214987 0.0315337 255 140 0
-0.0687596 0.1214987 0.0315337 255 140 0
-0.0664880 0.1214987 0.0315337 255 140 0
-0.0642164 0.1214987 0.0315337 255 140 0
-0.0619448 0.1214987 0.0315337 255 140 0
-0.0596731 0.1214987 0.0315337 255 140 0
-0.0574015 0.1214987 0.0315337 255 140 0
-0.0551299 0.1214987 0.0315337 255 140 0
-0.0528583 0.1214987 0.0315337 255 140 0
-0.0505866 0.1214987 0.0315337 255 140 0
-0.0483150 0.1214987 0.0315337 255 140 0
-0.0460434 0.1214987 0.0315337 255 140 0
-0.0437718 0.1214986 0.0315337 255 140 0
-0.0415001 0.1214985 0.0315337 255 140 0
-0.0392285 0.1214985 0.0315337 255 140 0
-0.0369569 0.1214986 0.0315337 255 140 0
-0.0346853 0.1214986 0.0315337 255 140 0
-0.0324136 0.1214986 0.0315337 255 140 0
-0.0301420 0.1214985 0.0315337 255 140 0
-0.0278704 0.1214985 0.0315337 255 140 0
-0.0255987 0.1214985 0.0315337 255 140 0
-0.0233271 0.1214985 0.0315337 255 140 0
-0.0210555 0.1214985 0.0315337 255 140 0
-0.0187839 0.1214985 0.0315337 255 140 0
-0.0165123 0.1214986 0.0315337 255 140 0
-0.0142406 0.1214985 0.0315337 255 140 0
-0.0119690 0.1214985 0.0315337 255 140 0
-0.0096974 0.1214985 0.0315337 255 140 0
-0.0074258 0.1214985 0.0315337 255 140 0
-0.0051541 0.1214985 0.0315337 255 140 0
-0.0028825 0.1214985 0.0315337 255 140 0
-0.0006109 0.1214985 0.0315337 255 140 0
0.0016607 0.1214985 0.0315337 255 140 0
0.0039324 0.1214985 0.0315337 255 140 0
0.0062040 0.1214985 0.0315337 255 140 0
0.0084756 0.1214986 0.0315337 255 140 0
0.0107472 0.1214986 0.0315337 255 140 0
0.0130189 0.1214986 0.0315337 255 140 0
-0.0710313 0.1237703 0.0315337 255 140 0
-0.0687596 0.1237703 0.0315337 255 140 0
-0.0664880 0.1237703 0.0315337 255 140 0
-0.0642164 0.1237703 0.0315337 255 140 0
-0.0619448 0.1237703 0.0315337 255 140 0
-0.0596731 0.1237703 0.0315337 255 140 0
-0.0574015 0.1237703 0.0315337 255 140 0
-0.0551299 0.1237703 0.0315337 255 140 0
-0.0528583 0.1237703 0.0315337 255 140 0
-0.0505866 0.1237703 0.0315337 255 140 0
-0.0483150 0.1237701 0.0315337 255 140 0
-0.0460434 0.1237701 0.0315337 255 140 0
-0.0437718 0.1237701 0.0315337 255 140 0
-0.0415001 0.1237701 0.0315337 255 140 0
-0.0392285 0.1237701 0.0315337 255 140 0
-0.0369569 0.1237701 0.0315337 255 140 0
-0.0346853 0.1237701 0.0315337 255 140 0
-0.0324136 0.1237700 0.0315337 255 140 0
-0.0301420 0.1237701 0.0315337 255 140 0
-0.0278704 0.1237701 0.0315337 255 140 0
-0.0255987 0.1237701 0.0315337 255 140 0
-0.0233271 0.1237701 0.0315337 255 140 0
-0.0210555 0.1237701 0.0315337 255 140 0
-0.0187839 0.1237701 0.0315337 255 140 0
-0.0165123 0.1237701 0.0315337 255 140 0
-0.0142406 0.1237701 0.0315337 255 140 0
-0.0119690 0.1237701 0.0315337 255 140 0
-0.0096974 0.1237700 0.0315337 255 140 0
-0.0074258 0.1237700 0.0315337 255 140 0
-0.0051541 0.1237700 0.0315337 255 140 0
-0.0028825 0.1237700 0.0315337 255 140 0
-0.0006109 0.1237700 0.0315337 255 140 0
0.0016607 0.1237700 0.0315337 255 140 0
0.0039324 0.1237700 0.0315337 255 140 0
0.0062040 0.1237701 0.0315337 255 140 0
0.0084756 0.1237701 0.0315337 255 140 0
0.0107472 0.1237701 0.0315337 255 140 0
0.0130189 0.1237702 0.0315337 255 140 0
-0.0710313 0.1260419 0.0315337 255 140 0
-0.0687596 0.1260419 0.0315337 255 140 0
-0.0664880 0.1260419 0.0315337 255 140 0
-0.0642164 0.1260419 0.0315337 255 140 0
-0.0619448 0.1260419 0.0315337 255 140 0
-0.0596731 0.1260419 0.0315337 255 140 0
-0.0574015 0.1260419 0.0315337 255 140 0
-0.0551299 0.1260419 0.0315337 255 140 0
-0.0528583 0.1260419 0.0315337 255 140 0
-0.0505866 0.1260419 0.0315337 255 140 0
-0.0483150 0.1260419 0.0315337 255 140 0
-0.0460434 0.1260419 0.0315337 255 140 0
-0.0437718 0.1260419 0.0315337 255 140 0
-0.0415001 0.1260419 0.0315337 255 140 0
-0.0392285 0.1260419 0.0315337 255 140 0
-0.0369569 0.1260418 0.0315337 255 140 0
-0.0346852 0.1260418 0.0315337 255 140 0
-0.0324136 0.1260418 0.0315337 255 140 0
-0.0301420 0.1260418 0.0315337 255 140 0
-0.0278704 0.1260418 0.0315337 255 140 0
-0.0255987 0.1260418 0.0315337 255 140 0
-0.0233271 0.1260418 0.0315337 255 140 0
-0.0210555 0.1260418 0.0315337 255 140 0
-0.0187839 0.1260418 0.0315337 255 140 0
-0.0165123 0.1260418 0.0315337 255 140 0
-0.0142406 0.1260417 0.0315337 255 140 0
-0.0119690 0.1260416 0.0315337 255 140 0
-0.0096974 0.1260416 0.0315337 255 140 0
-0.0074258 0.1260415 0.0315337 255 140 0
-0.0051541 0.1260415 0.0315337 255 140 0
-0.0028825 0.1260415 0.0315337 255 140 0
-0.0006109 0.1260415 0.0315337 255 140 0
0.0016607 0.1260415 0.0315337 255 140 0
0.0039324 0.1260415 0.0315337 255 140 0
0.0062040 0.1260416 0.0315337 255 140 0
0.0084756 0.1260416 0.0315337 255 140 0
0.0107472 0.1260417 0.0315337 255 140 0
-0.0687596 0.1283136 0.0315337 255 140 0
-0.0664880 0.1283136 0.0315337 255 140 0
-0.0642164 0.1283136 0.0315337 255 140 0
-0.0619448 0.1283136 0.0315337 255 140 0
-0.0596731 0.1283136 0.0315337 255 140 0
-0.0574015 0.1283136 0.0315337 255 140 0
-0.0551299 0.1283136 0.0315337 255 140 0
-0.0528583 0.1283136 0.0315337 255 140 0
-0.0505866 0.1283136 0.0315337 255 140 0
-0.0483150 0.1283136 0.0315337 255 140 0
-0.0460434 0.1283135 0.0315337 255 140 0
-0.0437718 0.1283134 0.0315337 255 140 0
-0.0415001 0.1283133 0.0315337 255 140 0
-0.0392285 0.1283132 0.0315337 255 140 0
-0.0369568 0.1283133 0.0315337 255 140 0
-0.0346852 0.1283133 0.0315337 255 140 0
-0.0324136 0.1283133 0.0315337 255 140 0
-0.0301420 0.1283133 0.0315337 255 140 0
-0.0278703 0.1283133 0.0315337 255 140 0
-0.0255987 0.1283132 0.0315337 255 140 0
-0.0233271 0.1283133 0.0315337 255 140 0
-0.0210555 0.1283132 0.0315337 255 140 0
-0.0187839 0.1283133 0.0315337 255 140 0
-0.0165123 0.1283132 0.0315337 255 140 0
-0.0142406 0.1283132 0.0315337 255 140 0
-0.0119690 0.1283130 0.0315337 255 140 0
-0.0096974 0.1283129 0.0315337 255 140 0
-0.0074258 0.1283128 0.0315337 255 140 0
-0.0051541 0.1283127 0.0315337 255 140 0
-0.0028825 0.1283126 0.0315337 255 140 0
-0.0006109 0.1283126 0.0315337 255 140 0
0.0016607 0.1283127 0.0315337 255 140 0
0.0039324 0.1283128 0.0315337 255 140 0
0.0062040 0.1283129 0.0315337 255 140 0
0.0084756 0.1283130 0.0315337 255 140 0
-0.0664880 0.1305852 0.0315337 255 140 0
-0.0642164 0.1305852 0.0315337 255 140 0
-0.0619448 0.1305852 0.0315337 255 140 0
-0.0596731 0.1305852 0.0315337 255 140 0
-0.0574015 0.1305852 0.0315337 255 140 0
-0.0551299 0.1305852 0.0315337 255 140 0
-0.0528583 0.1305852 0.0315337 255 140 0
-0.0505866 0.1305852 0.0315337 255 140 0
-0.0483150 0.1305851 0.0315337 255 140 0
-0.0460434 0.1305849 0.0315337 255 140 0
-0.0437717 0.1305848 0.0315337 255 140 0
-0.0415001 0.1305847 0.0315337 255 140 0
-0.0392284 0.1305847 0.0315336 255 140 0
-0.0369568 0.1305846 0.0315336 255 140 0
-0.0346852 0.1305847 0.0315337 255 140 0
-0.0324136 0.1305848 0.0315337 255 140 0
-0.0301419 0.1305847 0.0315337 255 140 0
-0.0278703 0.1305847 0.0315337 255 140 0
-0.0255987 0.1305847 0.0315337 255 140 0
-0.0233271 0.1305847 0.0315337 255 140 0
-0.0210555 0.1305846 0.0315337 255 140 0
-0.0187839 0.1305846 0.0315337 255 140 0
-0.0165122 0.1305846 0.0315337 255 140 0
-0.0142406 0.1305845 0.0315337 255 140 0
-0.0119690 0.1305842 0.0315337 255 140 0
-0.0096974 0.1305840 0.0315337 255 140 0
-0.0074258 0.1305837 0.0315337 255 140 0
-0.0051541 0.1305835 0.0315337 255 140 0
-0.0028825 0.1305835 0.0315337 255 140 0
-0.0006108 0.1305836 0.0315337 255 140 0
0.0016609 0.1305837 0.0315337 255 140 0
0.0039324 0.1305839 0.0315337 255 140 0
0.0062040 0.1305842 0.0315337 255 140 0
-0.0642164 0.1328568 0.0315337 255 140 0
-0.0619448 0.1328568 0.0315337 255 140 0
-0.0596731 0.1328568 0.0315337 255 140 0
-0.0574015 0.1328568 0.0315337 255 140 0
-0.0551299 0.1328568 0.0315337 255 140 0
-0.0528583 0.1328568 0.0315337 255 140 0
-0.0505866 0.1328567 0.0315337 255 140 0
-0.0483150 0.1328564 0.0315337 255 140 0
-0.0460433 0.1328564 0.0315337 255 140 0
-0.0437716 0.1328563 0.0315336 255 140 0
-0.0415000 0.1328562 0.0315336 255 140 0
-0.0392284 0.1328561 0.0315336 255 140 0
-0.0369567 0.1328559 0.0315334 255 140 0
-0.0346851 0.1328558 0.0315334 255 140 0
-0.0324135 0.1328559 0.0315335 255 140 0
-0.0301418 0.1328559 0.0315335 255 140 0
-0.0278703 0.1328560 0.0315335 255 140 0
-0.0255986 0.1328560 0.0315336 255 140 0
-0.0233271 0.1328560 0.0315336 255 140 0
-0.0210555 0.1328559 0.0315337 255 140 0
-0.0187838 0.1328558 0.0315337 255 140 0
-0.0165122 0.1328557 0.0315337 255 140 0
-0.0142406 0.1328555 0.0315337 255 140 0
-0.0119690 0.1328550 0.0315337 255 140 0
-0.0096974 0.1328545 0.0315337 255 140 0
-0.0074258 0.1328538 0.0315337 255 140 0
-0.0051541 0.1328534 0.0315337 255 140 0
-0.0028825 0.1328534 0.0315337 255 140 0
-0.0006107 0.1328536 0.0315337 255 140 0
0.0016609 0.1328541 0.0315337 255 140 0
0.0039324 0.1328545 0.0315337 255 140 0
-0.0619448 0.1351284 0.0315337 255 140 0
-0.0596731 0.1351284 0.0315337 255 140 0
-0.0574015 0.1351284 0.0315337 255 140 0
-0.0551299 0.1351284 0.0315337 255 140 0
-0.0528583 0.1351284 0.0315337 255 140 0
-0.0505866 0.1351281 0.0315337 255 140 0
-0.0483149 0.1351280 0.0315336 255 140 0
-0.0460433 0.1351279 0.0315336 255 140 0
-0.0437716 0.1351277 0.0315336 255 140 0
-0.0414999 0.1351275 0.0315334 255 140 0
-0.0392282 0.1351273 0.0315333 255 140 0
-0.0369566 0.1351271 0.0315331 255 140 0
-0.0346849 0.1351269 0.0315330 255 140 0
-0.0324133 0.1351269 0.0315331 255 140 0
-0.0301417 0.1351269 0.0315332 255 140 0
-0.0278701 0.1351270 0.0315333 255 140 0
-0.0255986 0.1351270 0.0315334 255 140 0
-0.0233270 0.1351270 0.0315335 255 140 0
-0.0210554 0.1351270 0.0315336 255 140 0
-0.0187838 0.1351269 0.0315336 255 140 0
-0.0165122 0.1351266 0.0315336 255 140 0
-0.0142406 0.1351261 0.0315337 255 140 0
-0.0119690 0.1351251 0.0315337 255 140 0
-0.0096974 0.1351239 0.0315337 255 140 0
-0.0074258 0.1351218 0.0315337 255 140 0
-0.0051541 0.1351209 0.0315337 255 140 0
-0.0028821 0.1351210 0.0315337 255 140 0
-0.0006105 0.1351217 0.0315337 255 140 0
0.0016611 0.1351229 0.0315337 255 140 0
-0.0596731 0.1374001 0.0315337 255 140 0
-0.0574015 0.1374001 0.0315337 255 140 0
-0.0551299 0.1374001 0.0315337 255 140 0
-0.0528583 0.1373999 0.0315337 255 140 0
-0.0505866 0.1373996 0.0315337 255 140 0
-0.0483149 0.1373996 0.0315336 255 140 0
-0.0460432 0.1373994 0.0315336 255 140 0
-0.0437716 0.1373992 0.0315334 255 140 0
-0.0414998 0.1373986 0.0315332 255 140 0
-0.0392280 0.1373981 0.0315329 255 140 0
-0.0369563 0.1373974 0.0315324 255 140 0
-0.0346846 0.1373970 0.0315323 255 140 0
-0.0324130 0.1373973 0.0315324 255 140 0
-0.0301415 0.1373974 0.0315326 255 140 0
-0.0278699 0.1373975 0.0315328 255 140 0
-0.0255984 0.1373977 0.0315330 255 140 0
-0.0233269 0.1373978 0.0315332 255 140 0
-0.0210553 0.1373977 0.0315334 255 140 0
-0.0187838 0.1373974 0.0315335 255 140 0
-0.0165122 0.1373969 0.0315336 255 140 0
-0.0142406 0.1373955 0.0315336 255 140 0
-0.0119690 0.1373935 0.0315337 255 140 0
-0.0096974 0.1373907 0.0315337 255 140 0
-0.0074258 0.1373847 0.0315337 255 140 0
-0.0051534 0.1373820 0.0315337 255 140 0
-0.0028818 0.1373825 0.0315337 255 140 0
-0.0574015 0.1396714 0.0315338 255 140 0
-0.0551299 0.1396713 0.0315338 255 140 0
-0.0528582 0.1396710 0.0315338 255 140 0
-0.0505866 0.1396709 0.0315338 255 140 0
-0.0483150 0.1396708 0.0315337 255 140 0
-0.0460434 0.1396711 0.0315339 255 140 0
-0.0437724 0.1396722 0.0315347 255 140 0
-0.0415021 0.1396753 0.0315366 255 140 0
-0.0392323 0.1396793 0.0315395 255 140 0
-0.0369543 0.1396612 0.0315284 255 140 0
-0.0346793 0.1396508 0.0315225 255 140 0
-0.0324094 0.1396550 0.0315257 255 140 0
-0.0301389 0.1396586 0.0315280 255 140 0
-0.0278680 0.1396599 0.0315292 255 140 0
-0.0255970 0.1396600 0.0315302 255 140 0
-0.0233259 0.1396589 0.0315308 255 140 0
-0.0210548 0.1396542 0.0315312 255 140 0
-0.0187837 0.1396462 0.0315315 255 140 0
-0.0165122 0.1396364 0.0315369 255 140 0
-0.0142392 0.1396131 0.0315370 255 140 0
-0.0119689 0.1396261 0.0315385 255 140 0
-0.0096973 0.1396167 0.0315395 255 140 0
-0.0074260 0.1395625 0.0315339 255 140 0
-0.0505865 0.1419436 0.0315335 255 140 0
-0.0483147 0.1419432 0.0315333 255 140 0
-0.0460427 0.1419422 0.0315326 255 140 0
-0.0437693 0.1419369 0.0315299 255 140 0
-0.0414927 0.1419252 0.0315237 255 140 0
-0.0392154 0.1419097 0.0315195 255 140 0
-0.0369598 0.1419570 0.0315410 255 140 0
-0.0346966 0.1419811 0.0315547 255 140 0
-0.0324212 0.1419705 0.0315479 255 140 0
-0.0301471 0.1419644 0.0315435 255 140 0
-0.0278744 0.1419629 0.0315417 255 140 0
-0.0256018 0.1419643 0.0315405 255 140 0
-0.0233294 0.1419687 0.0315397 255 140 0
-0.0210567 0.1419807 0.0315392 255 140 0
-0.0187841 0.1419985 0.0315388 255 140 0
-0.0165121 0.1420184 0.0315389 255 140 0
-0.0142419 0.1420338 0.0315387 255 140 0
-0.0119704 0.1419939 0.0315304 255 140 0
-0.0096988 0.1419971 0.0315284 255 140 0
-0.0414840 0.1441810 0.0315136 255 140 0
-0.0392031 0.1441515 0.0314975 255 140 0
-0.0369608 0.1442429 0.0315441 255 140 0
-0.0347059 0.1442846 0.0315726 255 140 0
-0.0324277 0.1442665 0.0315603 255 140 0
-0.0301517 0.1442558 0.0315522 255 140 0
-0.0278780 0.1442525 0.0315488 255 140 0
-0.0256046 0.1442544 0.0315464 255 140 0
-0.0233313 0.1442628 0.0315448 255 140 0
-0.0210577 0.1442836 0.0315435 255 140 0
-0.0187844 0.1442916 0.0315364 255 140 0
-0.0165123 0.1443076 0.0315360 255 140 0
-0.0278738 0.1465048 0.0315407 255 140 0
-0.0256018 0.1465085 0.0315406 255 140 0
-0.0233295 0.1465122 0.0315400 255 140 0
-0.0210569 0.1465176 0.0315390 255 140 0
-0.0415001 0.0419856 0.0338054 255 140 0
-0.0392285 0.0419856 0.0338054 255 140 0
-0.0369569 0.0419856 0.0338054 255 140 0
-0.0346853 0.0419856 0.0338054 255 140 0
-0.0324136 0.0419856 0.0338054 255 140 0
-0.0301420 0.0419856 0.0338054 255 140 0
-0.0278704 0.0419856 0.0338054 255 140 0
-0.0255987 0.0419856 0.0338054 255 140 0
-0.0233271 0.0419856 0.0338054 255 140 0
-0.0210555 0.0419856 0.0338054 255 140 0
-0.0187839 0.0419856 0.0338054 255 140 0
-0.0165123 0.0419856 0.0338054 255 140 0
-0.0505866 0.0442572 0.0338054 255 140 0
-0.0483150 0.0442572 0.0338054 255 140 0
-0.0460434 0.0442572 0.0338054 255 140 0
-0.0437718 0.0442572 0.0338054 255 140 0
-0.0415001 0.0442572 0.0338054 255 140 0
-0.0392285 0.0442572 0.0338054 255 140 0
-0.0369569 0.0442572 0.0338054 255 140 0
-0.0346853 0.0442572 0.0338054 255 140 0
-0.0324136 0.0442572 0.0338054 255 140 0
-0.0301420 0.0442572 0.0338054 255 140 0
-0.0278704 0.0442572 0.0338054 255 140 0
-0.0255987 0.0442572 0.0338054 255 140 0
-0.0233271 0.0442572 0.0338054 255 140 0
-0.0210555 0.0442572 0.0338054 255 140 0
-0.0187839 0.0442572 0.0338054 255 140 0
-0.0165123 0.0442572 0.0338054 255 140 0
-0.0142406 0.0442572 0.0338054 255 140 0
-0.0119690 0.0442572 0.0338054 255 140 0
-0.0528583 0.0465289 0.0338054 255 140 0
-0.0505866 0.0465289 0.0338054 255 140 0
-0.0483150 0.0465289 0.0338054 255 140 0
-0.0460434 0.0465289 0.0338054 255 140 0
-0.0437718 0.0465289 0.0338054 255 140 0
-0.0415001 0.0465289 0.0338054 255 140 0
-0.0392285 0.0465289 0.0338054 255 140 0
-0.0369569 0.0465289 0.0338054 255 140 0
-0.0346853 0.0465289 0.0338054 255 140 0
-0.0324136 0.0465289 0.0338054 255 140 0
-0.0301420 0.0465289 0.0338054 255 140 0
-0.0278704 0.0465289 0.0338054 255 140 0
-0.0255987 0.0465289 0.0338054 255 140 0
-0.0233271 0.0465289 0.0338054 255 140 0
-0.0210555 0.0465289 0.0338054 255 140 0
-0.0187839 0.0465289 0.0338054 255 140 0
-0.0165123 0.0465289 0.0338054 255 140 0
-0.0142406 0.0465289 0.0338054 255 140 0
-0.0119690 0.0465289 0.0338054 255 140 0
-0.0096974 0.0465289 0.0338054 255 140 0
-0.0074258 0.0465289 0.0338054 255 140 0
-0.0551299 0.0488005 0.0338054 255 140 0
-0.0528583 0.0488005 0.0338054 255 140 0
-0.0505866 0.0488005 0.0338054 255 140 0
-0.0483150 0.0488005 0.0338054 255 140 0
-0.0460434 0.0488005 0.0338054 255 140 0
-0.0437718 0.0488005 0.0338054 255 140 0
-0.0415001 0.0488005 0.0338054 255 140 0
-0.0392285 0.0488005 0.0338054 255 140 0
-0.0369569 0.0488005 0.0338054 255 140 0
-0.0346853 0.0488005 0.0338054 255 140 0
-0.0324136 0.0488005 0.0338054 255 140 0
-0.0301420 0.0488005 0.0338054 255 140 0
-0.0278704 0.0488005 0.0338054 255 140 0
-0.0255987 0.0488005 0.0338054 255 140 0
-0.0233271 0.0488005 0.0338054 255 140 0
-0.0210555 0.0488005 0.0338054 255 140 0
-0.0187839 0.0488005 0.0338054 255 140 0
-0.0165123 0.0488005 0.0338054 255 140 0
-0.0142406 0.0488005 0.0338054 255 140 0
-0.0119690 0.0488005 0.0338054 255 140 0
-0.0096974 0.0488005 0.0338054 255 140 0
-0.0074258 0.0488005 0.0338054 255 140 0
-0.0051541 0.0488005 0.0338054 255 140 0
-0.0028825 0.0488005 0.0338054 255 140 0
-0.0596731 0.0510721 0.0338054 255 140 0
-0.0574015 0.0510721 0.0338054 255 140 0
-0.0551299 0.0510721 0.0338054 255 140 0
-0.0528583 0.0510721 0.0338054 255 140 0
-0.0505866 0.0510721 0.0338054 255 140 0
-0.0483150 0.0510721 0.0338054 255 140 0
-0.0460434 0.0510721 0.0338054 255 140 0
-0.0437718 0.0510721 0.0338054 255 140 0
-0.0415001 0.0510721 0.0338054 255 140 0
-0.0392285 0.0510721 0.0338054 255 140 0
-0.0369569 0.0510721 0.0338054 255 140 0
-0.0346853 0.0510721 0.0338054 255 140 0
-0.0324136 0.0510721 0.0338054 255 140 0
-0.0301420 0.0510721 0.0338054 255 140 0
-0.0278704 0.0510721 0.0338054 255 140 0
-0.0255987 0.0510721 0.0338054 255 140 0
-0.0233271 0.0510721 0.0338054 255 140 0
-0.0210555 0.0510721 0.0338054 255 140 0
-0.0187839 0.0510721 0.0338054 255 140 0
-0.0165123 0.0510721 0.0338054 255 140 0
-0.0142406 0.0510721 0.0338054 255 140 0
-0.0119690 0.0510721 0.0338054 255 140 0
-0.0096974 0.0510722 0.0338054 255 140 0
-0.0074258 0.0510722 0.0338054 255 140 0
-0.0051541 0.0510721 0.0338054 255 140 0
-0.0028825 0.0510721 0.0338054 255 140 0
-0.0006109 0.0510719 0.0338054 255 140 0
-0.0619448 0.0533437 0.0338054 255 140 0
-0.0596731 0.0533437 0.0338054 255 140 0
-0.0574015 0.0533437 0.0338054 255 140 0
-0.0551299 0.0533437 0.0338054 255 140 0
-0.0528583 0.0533437 0.0338054 255 140 0
-0.0505866 0.0533437 0.0338054 255 140 0
-0.0483150 0.0533437 0.0338054 255 140 0
-0.0460434 0.0533437 0.0338054 255 140 0
-0.0437718 0.0533437 0.0338054 255 140 0
-0.0415001 0.0533437 0.0338054 255 140 0
-0.0392285 0.0533437 0.0338054 255 140 0
-0.0369569 0.0533437 0.0338054 255 140 0
-0.0346853 0.0533437 0.0338054 255 140 0
-0.0324136 0.0533437 0.0338054 255 140 0
-0.0301420 0.0533437 0.0338054 255 140 0
-0.0278704 0.0533437 0.0338054 255 140 0
-0.0255987 0.0533437 0.0338054 255 140 0
-0.0233271 0.0533437 0.0338054 255 140 0
-0.0210555 0.0533437 0.0338054 255 140 0
-0.0187839 0.0533437 0.0338054 255 140 0
-0.0165123 0.0533437 0.0338054 255 140 0
-0.0142406 0.0533437 0.0338054 255 140 0
-0.0119690 0.0533437 0.0338054 255 140 0
-0.0096974 0.0533438 0.0338054 255 140 0
-0.0074258 0.0533438 0.0338054 255 140 0
-0.0051541 0.0533437 0.0338054 255 140 0
-0.0028825 0.0533436 0.0338054 255 140 0
-0.0006110 0.0533433 0.0338054 255 140 0
0.0016607 0.0533427 0.0338053 255 140 0
-0.0642164 0.0556154 0.0338054 255 140 0
-0.0619448 0.0556154 0.0338054 255 140 0
-0.0596731 0.0556154 0.0338054 255 140 0
-0.0574015 0.0556154 0.0338054 255 140 0
-0.0551299 0.0556154 0.0338054 255 140 0
-0.0528583 0.0556154 0.0338054 255 140 0
-0.0505866 0.0556154 0.0338054 255 140 0
-0.0483150 0.0556154 0.0338054 255 140 0
-0.0460434 0.0556154 0.0338054 255 140 0
-0.0437718 0.0556154 0.0338054 255 140 0
-0.0415001 0.0556154 0.0338054 255 140 0
-0.0392285 0.0556154 0.0338054 255 140 0
-0.0369569 0.0556154 0.0338054 255 140 0
-0.0346853 0.0556154 0.0338054 255 140 0
-0.0324136 0.0556154 0.0338054 255 140 0
-0.0301420 0.0556154 0.0338054 255 140 0
-0.0278704 0.0556154 0.0338054 255 140 0
-0.0255987 0.0556154 0.0338054 255 140 0
-0.0233271 0.0556154 0.0338054 255 140 0
-0.0210555 0.0556154 0.0338054 255 140 0
-0.0187839 0.0556154 0.0338054 255 140 0
-0.0165123 0.0556154 0.0338054 255 140 0
-0.0142406 0.0556154 0.0338054 255 140 0
-0.0119690 0.0556154 0.0338054 255 140 0
-0.0096974 0.0556154 0.0338054 255 140 0
-0.0074258 0.0556154 0.0338054 255 140 0
-0.0051541 0.0556153 0.0338054 255 140 0
-0.0028825 0.0556151 0.0338054 255 140 0
-0.0006110 0.0556146 0.0338054 255 140 0
0.0016606 0.0556138 0.0338054 255 140 0
0.0039319 0.0556121 0.0338054 255 140 0
0.0062032 0.0556077 0.0338056 255 140 0
-0.0664880 0.0578870 0.0338054 255 140 0
-0.0642164 0.0578870 0.0338054 255 140 0
-0.0619448 0.0578870 0.0338054 255 140 0
-0.0596731 0.0578870 0.0338054 255 140 0
-0.0574015 0.0578870 0.0338054 255 140 0
-0.0551299 0.0578870 0.0338054 255 140 0
-0.0528583 0.0578870 0.0338054 255 140 0
-0.0505866 0.0578870 0.0338054 255 140 0
-0.0483150 0.0578870 0.0338054 255 140 0
-0.0460434 0.0578870 0.0338054 255 140 0
-0.0437718 0.0578870 0.0338054 255 140 0
-0.0415001 0.0578870 0.0338054 255 140 0
-0.0392285 0.0578870 0.0338054 255 140 0
-0.0369569 0.0578870 0.0338054 255 140 0
-0.0346853 0.0578870 0.0338054 255 140 0
-0.0324136 0.0578870 0.0338054 255 140 0
-0.0301420 0.0578870 0.0338054 255 140 0
-0.0278704 0.0578870 0.0338054 255 140 0
-0.0255987 0.0578870 0.0338054 255 140 0
-0.0233271 0.0578870 0.0338054 255 140 0
-0.0210555 0.0578870 0.0338054 255 140 0
-0.0187839 0.0578870 0.0338054 255 140 0
-0.0165123 0.0578870 0.0338054 255 140 0
-0.0142406 0.0578870 0.0338054 255 140 0
-0.0119690 0.0578870 0.0338054 255 140 0
-0.0096974 0.0578870 0.0338054 255 140 0
-0.0074258 0.0578870 0.0338054 255 140 0
-0.0051541 0.0578869 0.0338054 255 140 0
-0.0028825 0.0578867 0.0338054 255 140 0
-0.0006110 0.0578861 0.0338053 255 140 0
0.0016605 0.0578850 0.0338054 255 140 0
0.0039319 0.0578827 0.0338054 255 140 0
0.0062030 0.0578755 0.0338056 255 140 0
0.0084730 0.0578574 0.0338060 255 140 0
-0.0687596 0.0601586 0.0338054 255 140 0
-0.0664880 0.0601586 0.0338054 255 140 0
-0.0642164 0.0601586 0.0338054 255 140 0
-0.0619448 0.0601586 0.0338054 255 140 0
-0.0596731 0.0601586 0.0338054 255 140 0
-0.0574015 0.0601586 0.0338054 255 140 0
-0.0551299 0.0601586 0.0338054 255 140 0
-0.0528583 0.0601586 0.0338054 255 140 0
-0.0505866 0.0601586 0.0338054 255 140 0
-0.0483150 0.0601586 0.0338054 255 140 0
-0.0460434 0.0601586 0.0338054 255 140 0
-0.0437718 0.0601586 0.0338054 255 140 0
-0.0415001 0.0601586 0.0338054 255 140 0
-0.0392285 0.0601586 0.0338054 255 140 0
-0.0369569 0.0601586 0.0338054 255 140 0
-0.0346853 0.0601586 0.0338054 255 140 0
-0.0324136 0.0601586 0.0338054 255 140 0
-0.0301420 0.0601586 0.0338054 255 140 0
-0.0278704 0.0601586 0.0338054 255 140 0
-0.0255987 0.0601586 0.0338054 255 140 0
-0.0233271 0.0601586 0.0338054 255 140 0
-0.0210555 0.0601586 0.0338054 255 140 0
-0.0187839 0.0601586 0.0338054 255 140 0
-0.0165123 0.0601586 0.0338054 255 140 0
-0.0142406 0.0601586 0.0338054 255 140 0
-0.0119690 0.0601586 0.0338054 255 140 0
-0.0096974 0.0601587 0.0338054 255 140 0
-0.0074258 0.0601586 0.0338054 255 140 0
-0.0051541 0.0601585 0.0338054 255 140 0
-0.0028825 0.0601583 0.0338054 255 140 0
-0.0006110 0.0601576 0.0338053 255 140 0
0.0016605 0.0601564 0.0338054 255 140 0
0.0039319 0.0601535 0.0338055 255 140 0
0.0062028 0.0601440 0.0338056 255 140 0
0.0084724 0.0601203 0.0338062 255 140 0
0.0107417 0.0600372 0.0338093 255 140 0
-0.0710313 0.0624302 0.0338054 255 140 0
-0.0687596 0.0624302 0.0338054 255 140 0
-0.0664880 0.0624302 0.0338054 255 140 0
-0.0642164 0.0624302 0.0338054 255 140 0
-0.0619448 0.0624302 0.0338054 255 140 0
-0.0596731 0.0624302 0.0338054 255 140 0
-0.0574015 0.0624302 0.0338054 255 140 0
-0.0551299 0.0624302 0.0338054 255 140 0
-0.0528583 0.0624302 0.0338054 255 140 0
-0.0505866 0.0624302 0.0338054 255 140 0
-0.0483150 0.0624302 0.0338054 255 140 0
-0.0460434 0.0624302 0.0338054 255 140 0
-0.0437718 0.0624302 0.0338054 255 140 0
-0.0415001 0.0624302 0.0338054 255 140 0
-0.0392285 0.0624302 0.0338054 255 140 0
-0.0369569 0.0624302 0.0338054 255 140 0
-0.0346853 0.0624302 0.0338054 255 140 0
-0.0324136 0.0624302 0.0338054 255 140 0
-0.0301420 0.0624302 0.0338054 255 140 0
-0.0278704 0.0624302 0.0338054 255 140 0
-0.0255987 0.0624302 0.0338054 255 140 0
-0.0233271 0.0624302 0.0338054 255 140 0
-0.0210555 0.0624302 0.0338054 255 140 0
-0.0187839 0.0624302 0.0338054 255 140 0
-0.0165123 0.0624302 0.0338054 255 140 0
-0.0142406 0.0624302 0.0338054 255 140 0
-0.0119690 0.0624303 0.0338054 255 140 0
-0.0096974 0.0624303 0.0338054 255 140 0
-0.0074258 0.0624302 0.0338054 255 140 0
-0.0051541 0.0624301 0.0338054 255 140 0
-0.0028825 0.0624299 0.0338054 255 140 0
-0.0006110 0.0624293 0.0338054 255 140 0
0.0016606 0.0624280 0.0338054 255 140 0
0.0039318 0.0624253 0.0338054 255 140 0
0.0062029 0.0624166 0.0338056 255 140 0
0.0084731 0.0623965 0.0338059 255 140 0
0.0107415 0.0622123 0.0338127 255 140 0
-0.0733029 0.0647081 0.0338054 255 140 0
-0.0710313 0.0647081 0.0338054 255 140 0
-0.0687596 0.0647081 0.0338054 255 140 0
-0.0664880 0.0647081 0.0338054 255 140 0
-0.0642164 0.0647081 0.0338054 255 140 0
-0.0619448 0.0647081 0.0338054 255 140 0
-0.0596731 0.0647081 0.0338054 255 140 0
-0.0574015 0.0647081 0.0338054 255 140 0
-0.0551299 0.0647081 0.0338054 255 140 0
-0.0528583 0.0647081 0.0338054 255 140 0
-0.0505866 0.0647081 0.0338054 255 140 0
-0.0483150 0.0647081 0.0338054 255 140 0
-0.0460434 0.0647081 0.0338054 255 140 0
-0.0437718 0.0647081 0.0338054 255 140 0
-0.0415001 0.0647081 0.0338054 255 140 0
-0.0392285 0.0647081 0.0338054 255 140 0
-0.0369569 0.0647081 0.0338054 255 140 0
-0.0346853 0.0647081 0.0338054 255 140 0
-0.0324136 0.0647081 0.0338054 255 140 0
-0.0301420 0.0647081 0.0338054 255 140 0
-0.0278704 0.0647081 0.0338054 255 140 0
-0.0255987 0.0647081 0.0338054 255 140 0
-0.0233271 0.0647081 0.0338054 255 140 0
-0.0210555 0.0647081 0.0338054 255 140 0
-0.0187839 0.0647081 0.0338054 255 140 0
-0.0165123 0.0647081 0.0338054 255 140 0
-0.0142406 0.0647080 0.0338054 255 140 0
-0.0119690 0.0647079 0.0338054 255 140 0
-0.0096974 0.0647076 0.0338054 255 140 0
-0.0074258 0.0647075 0.0338054 255 140 0
-0.0051541 0.0647071 0.0338054 255 140 0
-0.0028825 0.0647067 0.0338054 255 140 0
-0.0006110 0.0647059 0.0338054 255 140 0
0.0016606 0.0647037 0.0338054 255 140 0
0.0039321 0.0646977 0.0338054 255 140 0
0.0062037 0.0646910 0.0338055 255 140 0
0.0084751 0.0646780 0.0338057 255 140 0
0.0107491 0.0643952 0.0338180 255 140 0
0.0129997 0.0661198 0.0337345 255 140 0
-0.0755745 0.0669797 0.0338054 255 140 0
-0.0733029 0.0669797 0.0338054 255 140 0
-0.0710313 0.0669797 0.0338054 255 140 0
-0.0687596 0.0669797 0.0338054 255 140 0
-0.0664880 0.0669797 0.0338054 255 140 0
-0.0642164 0.0669797 0.0338054 255 140 0
-0.0619448 0.0669797 0.0338054 255 140 0
-0.0596731 0.0669797 0.0338054 255 140 0
-0.0574015 0.0669797 0.0338054 255 140 0
-0.0551299 0.0669797 0.0338054 255 140 0
-0.0528583 0.0669797 0.0338054 255 140 0
-0.0505866 0.0669797 0.0338054 255 140 0
-0.0483150 0.0669797 0.0338054 255 140 0
-0.0460434 0.0669797 0.0338054 255 140 0
-0.0437718 0.0669797 0.0338054 255 140 0
-0.0415001 0.0669797 0.0338054 255 140 0
-0.0392285 0.0669797 0.0338054 255 140 0
-0.0369569 0.0669797 0.0338054 255 140 0
-0.0346853 0.0669797 0.0338054 255 140 0
-0.0324136 0.0669797 0.0338054 255 140 0
-0.0301420 0.0669797 0.0338054 255 140 0
-0.0278704 0.0669797 0.0338054 255 140 0
-0.0255987 0.0669797 0.0338054 255 140 0
-0.0233271 0.0669797 0.0338054 255 140 0
-0.0210555 0.0669797 0.0338054 255 140 0
-0.0187839 0.0669797 0.0338054 255 140 0
-0.0165123 0.0669797 0.0338054 255 140 0
-0.0142406 0.0669796 0.0338054 255 140 0
-0.0119690 0.0669795 0.0338054 255 140 0
-0.0096974 0.0669795 0.0338054 255 140 0
-0.0074258 0.0669794 0.0338054 255 140 0
-0.0051541 0.0669792 0.0338054 255 140 0
-0.0028825 0.0669791 0.0338054 255 140 0
-0.0006109 0.0669789 0.0338054 255 140 0
0.0016607 0.0669786 0.0338053 255 140 0
0.0039322 0.0669780 0.0338053 255 140 0
0.0062036 0.0669772 0.0338053 255 140 0
0.0084740 0.0669770 0.0338050 255 140 0
0.0107411 0.0668055 0.0338106 255 140 0
0.0129950 0.0677072 0.0337680 255 140 0
-0.0755745 0.0692513 0.0338054 255 140 0
-0.0733029 0.0692513 0.0338054 255 140 0
-0.0710313 0.0692513 0.0338054 255 140 0
-0.0687596 0.0692513 0.0338054 255 140 0
-0.0664880 0.0692513 0.0338054 255 140 0
-0.0642164 0.0692513 0.0338054 255 140 0
-0.0619448 0.0692513 0.0338054 255 140 0
-0.0596731 0.0692513 0.0338054 255 140 0
-0.0574015 0.0692513 0.0338054 255 140 0
-0.0551299 0.0692513 0.0338054 255 140 0
-0.0528583 0.0692513 0.0338054 255 140 0
-0.0505866 0.0692513 0.0338054 255 140 0
-0.0483150 0.0692513 0.0338054 255 140 0
-0.0460434 0.0692513 0.0338054 255 140 0
-0.0437718 0.0692513 0.0338054 255 140 0
-0.0415001 0.0692513 0.0338054 255 140 0
-0.0392285 0.0692513 0.0338054 255 140 0
-0.0369569 0.0692513 0.0338054 255 140 0
-0.0346853 0.0692513 0.0338054 255 140 0
-0.0324136 0.0692513 0.0338054 255 140 0
-0.0301420 0.0692513 0.0338054 255 140 0
-0.0278704 0.0692513 0.0338054 255 140 0
-0.0255987 0.0692513 0.0338054 255 140 0
-0.0233271 0.0692513 0.0338054 255 140 0
-0.0210555 0.0692513 0.0338054 255 140 0
-0.0187839 0.0692513 0.0338054 255 140 0
-0.0165123 0.0692513 0.0338054 255 140 0
-0.0142406 0.0692512 0.0338054 255 140 0
-0.0119690 0.0692512 0.0338054 255 140 0
-0.0096974 0.0692511 0.0338054 255 140 0
-0.0074258 0.0692511 0.0338054 255 140 0
-0.0051541 0.0692511 0.0338054 255 140 0
-0.0028825 0.0692510 0.0338054 255 140 0
-0.0006109 0.0692508 0.0338054 255 140 0
0.0016607 0.0692510 0.0338054 255 140 0
0.0039323 0.0692518 0.0338053 255 140 0
0.0062034 0.0692547 0.0338051 255 140 0
0.0084742 0.0692634 0.0338046 255 140 0
0.0107450 0.0692575 0.0338046 255 140 0
0.0130181 0.0693555 0.0337998 255 140 0
0.0152906 0.0693936 0.0337986 255 140 0
-0.0755745 0.0715230 0.0338054 255 140 0
-0.0733029 0.0715230 0.0338054 255 140 0
-0.0710313 0.0715230 0.0338054 255 140 0
-0.0687596 0.0715230 0.0338054 255 140 0
-0.0664880 0.0715230 0.0338054 255 140 0
-0.0642164 0.0715230 0.0338054 255 140 0
-0.0619448 0.0715230 0.0338054 255 140 0
-0.0596731 0.0715230 0.0338054 255 140 0
-0.0574015 0.0715230 0.0338054 255 140 0
-0.0551299 0.0715230 0.0338054 255 140 0
-0.0528583 0.0715230 0.0338054 255 140 0
-0.0505866 0.0715230 0.0338054 255 140 0
-0.0483150 0.0715230 0.0338054 255 140 0
-0.0460434 0.0715230 0.0338054 255 140 0
-0.0437718 0.0715230 0.0338054 255 140 0
-0.0415001 0.0715230 0.0338054 255 140 0
-0.0392285 0.0715230 0.0338054 255 140 0
-0.0369569 0.0715230 0.0338054 255 140 0
-0.0346853 0.0715230 0.0338054 255 140 0
-0.0324136 0.0715230 0.0338054 255 140 0
-0.0301420 0.0715230 0.0338054 255 140 0
-0.0278704 0.0715230 0.0338054 255 140 0
-0.0255987 0.0715230 0.0338054 255 140 0
-0.0233271 0.0715230 0.0338054 255 140 0
-0.0210555 0.0715230 0.0338054 255 140 0
-0.0187839 0.0715229 0.0338054 255 140 0
-0.0165123 0.0715229 0.0338054 255 140 0
-0.0142406 0.0715229 0.0338054 255 140 0
-0.0119690 0.0715228 0.0338054 255 140 0
-0.0096974 0.0715227 0.0338054 255 140 0
-0.0074258 0.0715227 0.0338054 255 140 0
-0.0051541 0.0715227 0.0338054 255 140 0
-0.0028825 0.0715227 0.0338054 255 140 0
-0.0006109 0.0715225 0.0338054 255 140 0
0.0016607 0.0715225 0.0338054 255 140 0
0.0039323 0.0715228 0.0338054 255 140 0
0.0062039 0.0715243 0.0338052 255 140 0
0.0084755 0.0715285 0.0338050 255 140 0
0.0107462 0.0715271 0.0338050 255 140 0
0.0130185 0.0715711 0.0338033 255 140 0
0.0152911 0.0715897 0.0338012 255 140 0
-0.0778461 0.0737946 0.0338054 255 140 0
-0.0755745 0.0737946 0.0338054 255 140 0
-0.0733029 0.0737946 0.0338054 255 140 0
-0.0710313 0.0737946 0.0338054 255 140 0
-0.0687596 0.0737946 0.0338054 255 140 0
-0.0664880 0.0737946 0.0338054 255 140 0
-0.0642164 0.0737946 0.0338054 255 140 0
-0.0619448 0.0737946 0.0338054 255 140 0
-0.0596731 0.0737946 0.0338054 255 140 0
-0.0574015 0.0737946 0.0338054 255 140 0
-0.0551299 0.0737946 0.0338054 255 140 0
-0.0528583 0.0737946 0.0338054 255 140 0
-0.0505866 0.0737946 0.0338054 255 140 0
-0.0483150 0.0737946 0.0338054 255 140 0
-0.0460434 0.0737946 0.0338054 255 140 0
-0.0437718 0.0737946 0.0338054 255 140 0
-0.0415001 0.0737946 0.0338054 255 140 0
-0.0392285 0.0737946 0.0338054 255 140 0
-0.0369569 0.0737946 0.0338054 255 140 0
-0.0346853 0.0737946 0.0338054 255 140 0
-0.0324136 0.0737946 0.0338054 255 140 0
-0.0301420 0.0737946 0.0338054 255 140 0
-0.0278704 0.0737946 0.0338054 255 140 0
-0.0255987 0.0737946 0.0338054 255 140 0
-0.0233271 0.0737946 0.0338054 255 140 0
-0.0210555 0.0737946 0.0338054 255 140 0
-0.0187839 0.0737945 0.0338054 255 140 0
-0.0165123 0.0737945 0.0338054 255 140 0
-0.0142406 0.0737945 0.0338054 255 140 0
-0.0119690 0.0737944 0.0338054 255 140 0
-0.0096974 0.0737944 0.0338054 255 140 0
-0.0074258 0.0737944 0.0338054 255 140 0
-0.0051541 0.0737943 0.0338054 255 140 0
-0.0028825 0.0737943 0.0338054 255 140 0
-0.0006109 0.0737943 0.0338054 255 140 0
0.0016607 0.0737943 0.0338054 255 140 0
0.0039324 0.0737943 0.0338054 255 140 0
0.0062040 0.0737950 0.0338053 255 140 0
0.0084758 0.0737969 0.0338052 255 140 0
0.0107467 0.0737934 0.0338052 255 140 0
0.0130194 0.0738083 0.0338048 255 140 0
0.0152909 0.0738133 0.0338046 255 140 0
0.0175626 0.0738048 0.0338050 255 140 0
-0.0778461 0.0760662 0.0338054 255 140 0
-0.0755745 0.0760662 0.0338054 255 140 0
-0.0733029 0.0760662 0.0338054 255 140 0
-0.0710313 0.0760662 0.0338054 255 140 0
-0.0687596 0.0760662 0.0338054 255 140 0
-0.0664880 0.0760662 0.0338054 255 140 0
-0.0642164 0.0760662 0.0338054 255 140 0
-0.0619448 0.0760662 0.0338054 255 140 0
-0.0596731 0.0760662 0.0338054 255 140 0
-0.0574015 0.0760662 0.0338054 255 140 0
-0.0551299 0.0760662 0.0338054 255 140 0
-0.0528583 0.0760662 0.0338054 255 140 0
-0.0505866 0.0760662 0.0338054 255 140 0
-0.0483150 0.0760662 0.0338054 255 140 0
-0.0460434 0.0760662 0.0338054 255 140 0
-0.0437718 0.0760662 0.0338054 255 140 0
-0.0415001 0.0760662 0.0338054 255 140 0
-0.0392285 0.0760662 0.0338054 255 140 0
-0.0369569 0.0760662 0.0338054 255 140 0
-0.0346853 0.0760662 0.0338054 255 140 0
-0.0324136 0.0760662 0.0338054 255 140 0
-0.0301420 0.0760662 0.0338054 255 140 0
-0.0278704 0.0760662 0.0338054 255 140 0
-0.0255987 0.0760662 0.0338054 255 140 0
-0.0233271 0.0760662 0.0338054 255 140 0
-0.0210555 0.0760662 0.0338054 255 140 0
-0.0187839 0.0760661 0.0338054 255 140 0
-0.0165123 0.0760661 0.0338054 255 140 0
-0.0142406 0.0760661 0.0338054 255 140 0
-0.0119690 0.0760661 0.0338054 255 140 0
-0.0096974 0.0760660 0.0338054 255 140 0
-0.0074258 0.0760660 0.0338054 255 140 0
-0.0051541 0.0760660 0.0338054 255 140 0
-0.0028825 0.0760660 0.0338054 255 140 0
-0.0006109 0.0760660 0.0338054 255 140 0
0.0016607 0.0760659 0.0338054 255 140 0
0.0039324 0.0760659 0.0338054 255 140 0
0.0062040 0.0760662 0.0338054 255 140 0
0.0084757 0.0760674 0.0338053 255 140 0
0.0107474 0.0760681 0.0338053 255 140 0
0.0130191 0.0760729 0.0338051 255 140 0
0.0152908 0.0760753 0.0338050 255 140 0
0.0175624 0.0760715 0.0338051 255 140 0
-0.0801177 0.0783378 0.0338054 255 140 0
-0.0778461 0.0783378 0.0338054 255 140 0
-0.0755745 0.0783378 0.0338054 255 140 0
-0.0733029 0.0783378 0.0338054 255 140 0
-0.0710313 0.0783378 0.0338054 255 140 0
-0.0687596 0.0783378 0.0338054 255 140 0
-0.0664880 0.0783378 0.0338054 255 140 0
-0.0642164 0.0783378 0.0338054 255 140 0
-0.0619448 0.0783378 0.0338054 255 140 0
-0.0596731 0.0783378 0.0338054 255 140 0
-0.0574015 0.0783378 0.0338054 255 140 0
-0.0551299 0.0783378 0.0338054 255 140 0
-0.0528583 0.0783378 0.0338054 255 140 0
-0.0505866 0.0783378 0.0338054 255 140 0
-0.0483150 0.0783378 0.0338054 255 140 0
-0.0460434 0.0783378 0.0338054 255 140 0
-0.0437718 0.0783378 0.0338054 255 140 0
-0.0415001 0.0783378 0.0338054 255 140 0
-0.0392285 0.0783378 0.0338054 255 140 0
-0.0369569 0.0783378 0.0338054 255 140 0
-0.0346853 0.0783378 0.0338054 255 140 0
-0.0324136 0.0783378 0.0338054 255 140 0
-0.0301420 0.0783378 0.0338054 255 140 0
-0.0278704 0.0783378 0.0338054 255 140 0
-0.0255987 0.0783378 0.0338054 255 140 0
-0.0233271 0.0783378 0.0338054 255 140 0
-0.0210555 0.0783378 0.0338054 255 140 0
-0.0187839 0.0783377 0.0338054 255 140 0
-0.0165123 0.0783377 0.0338054 255 140 0
-0.0142406 0.0783377 0.0338054 255 140 0
-0.0119690 0.0783377 0.0338054 255 140 0
-0.0096974 0.0783377 0.0338054 255 140 0
-0.0074258 0.0783376 0.0338054 255 140 0
-0.0051541 0.0783376 0.0338054 255 140 0
-0.0028825 0.0783376 0.0338054 255 140 0
-0.0006109 0.0783376 0.0338054 255 140 0
0.0016607 0.0783376 0.0338054 255 140 0
0.0039324 0.0783375 0.0338054 255 140 0
0.0062040 0.0783376 0.0338054 255 140 0
0.0084757 0.0783382 0.0338054 255 140 0
0.0107473 0.0783384 0.0338054 255 140 0
0.0130190 0.0783402 0.0338053 255 140 0
0.0152906 0.0783412 0.0338052 255 140 0
0.0175622 0.0783400 0.0338053 255 140 0
-0.0801177 0.0806094 0.0338054 255 140 0
-0.0778461 0.0806094 0.0338054 255 140 0
-0.0755745 0.0806094 0.0338054 255 140 0
-0.0733029 0.0806094 0.0338054 255 140 0
-0.0710313 0.0806094 0.0338054 255 140 0
-0.0687596 0.0806094 0.0338054 255 140 0
-0.0664880 0.0806094 0.0338054 255 140 0
-0.0642164 0.0806094 0.0338054 255 140 0
-0.0619448 0.0806094 0.0338054 255 140 0
-0.0596731 0.0806094 0.0338054 255 140 0
-0.0574015 0.0806094 0.0338054 255 140 0
-0.0551299 0.0806094 0.0338054 255 140 0
-0.0528583 0.0806094 0.0338054 255 140 0
-0.0505866 0.0806094 0.0338054 255 140 0
-0.0483150 0.0806094 0.0338054 255 140 0
-0.0460434 0.0806094 0.0338054 255 140 0
-0.0437718 0.0806094 0.0338054 255 140 0
-0.0415001 0.0806094 0.0338054 255 140 0
-0.0392285 0.0806094 0.0338054 255 140 0
-0.0369569 0.0806094 0.0338054 255 140 0
-0.0346853 0.0806094 0.0338054 255 140 0
-0.0324136 0.0806094 0.0338054 255 140 0
-0.0301420 0.0806094 0.0338054 255 140 0
-0.0278704 0.0806094 0.0338054 255 140 0
-0.0255987 0.0806094 0.0338054 255 140 0
-0.0233271 0.0806094 0.0338054 255 140 0
-0.0210555 0.0806094 0.0338054 255 140 0
-0.0187839 0.0806094 0.0338054 255 140 0
-0.0165123 0.0806093 0.0338054 255 140 0
-0.0142406 0.0806093 0.0338054 255 140 0
-0.0119690 0.0806093 0.0338054 255 140 0
-0.0096974 0.0806093 0.0338054 255 140 0
-0.0074258 0.0806093 0.0338054 255 140 0
-0.0051541 0.0806093 0.0338054 255 140 0
-0.0028825 0.0806093 0.0338054 255 140 0
-0.0006109 0.0806093 0.0338054 255 140 0
0.0016607 0.0806093 0.0338054 255 140 0
0.0039324 0.0806092 0.0338054 255 140 0
0.0062040 0.0806091 0.0338054 255 140 0
0.0084756 0.0806094 0.0338054 255 140 0
0.0107473 0.0806095 0.0338054 255 140 0
0.0130189 0.0806104 0.0338053 255 140 0
0.0152906 0.0806108 0.0338053 255 140 0
0.0175622 0.0806103 0.0338053 255 140 0
-0.0801177 0.0828811 0.0338054 255 140 0
-0.0778461 0.0828811 0.0338054 255 140 0
-0.0755745 0.0828811 0.0338054 255 140 0
-0.0733029 0.0828811 0.0338054 255 140 0
-0.0710313 0.0828811 0.0338054 255 140 0
-0.0687596 0.0828811 0.0338054 255 140 0
-0.0664880 0.0828811 0.0338054 255 140 0
-0.0642164 0.0828811 0.0338054 255 140 0
-0.0619448 0.0828811 0.0338054 255 140 0
-0.0596731 0.0828811 0.0338054 255 140 0
-0.0574015 0.0828811 0.0338054 255 140 0
-0.0551299 0.0828811 0.0338054 255 140 0
-0.0528583 0.0828811 0.0338054 255 140 0
-0.0505866 0.0828811 0.0338054 255 140 0
-0.0483150 0.0828811 0.0338054 255 140 0
-0.0460434 0.0828811 0.0338054 255 140 0
-0.0437718 0.0828811 0.0338054 255 140 0
-0.0415001 0.0828811 0.0338054 255 140 0
-0.0392285 0.0828811 0.0338054 255 140 0
-0.0369569 0.0828811 0.0338054 255 140 0
-0.0346853 0.0828811 0.0338054 255 140 0
-0.0324136 0.0828811 0.0338054 255 140 0
-0.0301420 0.0828811 0.0338054 255 140 0
-0.0278704 0.0828811 0.0338054 255 140 0
-0.0255987 0.0828811 0.0338054 255 140 0
-0.0233271 0.0828811 0.0338054 255 140 0
-0.0210555 0.0828810 0.0338054 255 140 0
-0.0187839 0.0828810 0.0338054 255 140 0
-0.0165123 0.0828810 0.0338054 255 140 0
-0.0142406 0.0828810 0.0338054 255 140 0
-0.0119690 0.0828809 0.0338054 255 140 0
-0.0096974 0.0828809 0.0338054 255 140 0
-0.0074258 0.0828809 0.0338054 255 140 0
-0.0051541 0.0828809 0.0338054 255 140 0
-0.0028825 0.0828809 0.0338054 255 140 0
-0.0006109 0.0828810 0.0338054 255 140 0
0.0016607 0.0828810 0.0338054 255 140 0
0.0039324 0.0828810 0.0338054 255 140 0
0.0062040 0.0828809 0.0338054 255 140 0
0.0084756 0.0828809 0.0338054 255 140 0
0.0107473 0.0828809 0.0338054 255 140 0
0.0130189 0.0828812 0.0338054 255 140 0
0.0152905 0.0828814 0.0338054 255 140 0
0.0175622 0.0828812 0.0338054 255 140 0
-0.0823894 0.0851527 0.0338054 255 140 0
-0.0801177 0.0851527 0.0338054 255 140 0
-0.0778461 0.0851527 0.0338054 255 140 0
-0.0755745 0.0851527 0.0338054 255 140 0
-0.0733029 0.0851527 0.0338054 255 140 0
-0.0710313 0.0851527 0.0338054 255 140 0
-0.0687596 0.0851527 0.0338054 255 140 0
-0.0664880 0.0851527 0.0338054 255 140 0
-0.0642164 0.0851527 0.0338054 255 140 0
-0.0619448 0.0851527 0.0338054 255 140 0
-0.0596731 0.0851527 0.0338054 255 140 0
-0.0574015 0.0851527 0.0338054 255 140 0
-0.0551299 0.0851527 0.0338054 255 140 0
-0.0528583 0.0851527 0.0338054 255 140 0
-0.0505866 0.0851527 0.0338054 255 140 0
-0.0483150 0.0851527 0.0338054 255 140 0
-0.0460434 0.0851527 0.0338054 255 140 0
-0.0437718 0.0851527 0.0338054 255 140 0
-0.0415001 0.0851527 0.0338054 255 140 0
-0.0392285 0.0851527 0.0338054 255 140 0
-0.0369569 0.0851527 0.0338054 255 140 0
-0.0346853 0.0851527 0.0338054 255 140 0
-0.0324136 0.0851527 0.0338054 255 140 0
