ply
format ascii 1.0
element vertex 1142
property float x
property float y
property float z
property uchar red
property uchar green
property uchar blue
end_header
-0.0733915 0.1041492 -0.0392083 255 140 0
-0.0711037 0.1041582 -0.0391603 255 140 0
-0.0688293 0.1041259 -0.0391267 255 140 0
-0.0665558 0.1041002 -0.0391050 255 140 0
-0.0642826 0.1040839 -0.0390909 255 140 0
-0.0620174 0.1040946 -0.0390818 255 140 0
-0.0597475 0.1041038 -0.0390747 255 140 0
-0.0574704 0.1041122 -0.0390724 255 140 0
-0.0551905 0.1041184 -0.0390695 255 140 0
-0.0529173 0.1041263 -0.0390666 255 140 0
-0.0506444 0.1041304 -0.0390655 255 140 0
-0.0483716 0.1041337 -0.0390646 255 140 0
-0.0460986 0.1041368 -0.0390641 255 140 0
-0.0438238 0.1041386 -0.0390639 255 140 0
-0.0415535 0.1041392 -0.0390647 255 140 0
-0.0392809 0.1041389 -0.0390660 255 140 0
-0.0370179 0.1041448 -0.0390644 255 140 0
-0.0347480 0.1041481 -0.0390636 255 140 0
-0.0324683 0.1041460 -0.0390647 255 140 0
-0.0301931 0.1041460 -0.0390651 255 140 0
-0.0279202 0.1041493 -0.0390648 255 140 0
-0.0256474 0.1041503 -0.0390647 255 140 0
-0.0233722 0.1041501 -0.0390649 255 140 0
-0.0210992 0.1041511 -0.0390646 255 140 0
-0.0188259 0.1041521 -0.0390644 255 140 0
-0.0165534 0.1041515 -0.0390651 255 140 0
-0.0142798 0.1041496 -0.0390663 255 140 0
-0.0120161 0.1041534 -0.0390650 255 140 0
-0.0097473 0.1041546 -0.0390646 255 140 0
-0.0074666 0.1041491 -0.0390665 255 140 0
-0.0051899 0.1041381 -0.0390696 255 140 0
-0.0029160 0.1041272 -0.0390745 255 140 0
-0.0006423 0.1041165 -0.0390787 255 140 0
0.0016316 0.1041092 -0.0390838 255 140 0
0.0039063 0.1041077 -0.0390896 255 140 0
0.0061802 0.1041231 -0.0391010 255 140 0
0.0084537 0.1041711 -0.0391269 255 140 0
0.0107303 0.1042027 -0.0391639 255 140 0
0.0129964 0.1042530 -0.0392045 255 140 0
0.0152735 0.1042472 -0.0392459 255 140 0
0.0175666 0.1040803 -0.0393101 255 140 0
-0.0756757 0.1062907 -0.0393235 255 140 0
-0.0733928 0.1064131 -0.0392344 255 140 0
-0.0711084 0.1064473 -0.0391777 255 140 0
-0.0688291 0.1064212 -0.0391370 255 140 0
-0.0665557 0.1063927 -0.0391091 255 140 0
-0.0642825 0.1063665 -0.0390900 255 140 0
-0.0620173 0.1063750 -0.0390800 255 140 0
-0.0597499 0.1063827 -0.0390730 255 140 0
-0.0574705 0.1063915 -0.0390715 255 140 0
-0.0551904 0.1063979 -0.0390696 255 140 0
-0.0529173 0.1064065 -0.0390662 255 140 0
-0.0506444 0.1064137 -0.0390640 255 140 0
-0.0483716 0.1064170 -0.0390637 255 140 0
-0.0460985 0.1064207 -0.0390628 255 140 0
-0.0438238 0.1064233 -0.0390628 255 140 0
-0.0415532 0.1064249 -0.0390633 255 140 0
-0.0392799 0.1064263 -0.0390640 255 140 0
-0.0370179 0.1064340 -0.0390620 255 140 0
-0.0347478 0.1064386 -0.0390614 255 140 0
-0.0324678 0.1064371 -0.0390623 255 140 0
-0.0301928 0.1064373 -0.0390623 255 140 0
-0.0279200 0.1064396 -0.0390607 255 140 0
-0.0256464 0.1064404 -0.0390601 255 140 0
-0.0233720 0.1064406 -0.0390601 255 140 0
-0.0210989 0.1064413 -0.0390597 255 140 0
-0.0188253 0.1064418 -0.0390595 255 140 0
-0.0165530 0.1064416 -0.0390600 255 140 0
-0.0142794 0.1064404 -0.0390611 255 140 0
-0.0120157 0.1064467 -0.0390592 255 140 0
-0.0097471 0.1064464 -0.0390593 255 140 0
-0.0074663 0.1064412 -0.0390618 255 140 0
-0.0051893 0.1064333 -0.0390650 255 140 0
-0.0029159 0.1064217 -0.0390689 255 140 0
-0.0006421 0.1064119 -0.0390732 255 140 0
0.0016319 0.1064059 -0.0390777 255 140 0
0.0039066 0.1064060 -0.0390838 255 140 0
0.0061810 0.1064200 -0.0390972 255 140 0
0.0084548 0.1064692 -0.0391259 255 140 0
0.0107329 0.1064963 -0.0391651 255 140 0
0.0129961 0.1065228 -0.0392083 255 140 0
0.0152738 0.1064921 -0.0392480 255 140 0
0.0175724 0.1062541 -0.0393368 255 140 0
-0.0756879 0.1085091 -0.0393574 255 140 0
-0.0733948 0.1086694 -0.0392668 255 140 0
-0.0711078 0.1087246 -0.0392013 255 140 0
-0.0688292 0.1087133 -0.0391550 255 140 0
-0.0665554 0.1086832 -0.0391219 255 140 0
-0.0642822 0.1086508 -0.0390982 255 140 0
-0.0620167 0.1086570 -0.0390860 255 140 0
-0.0597460 0.1086632 -0.0390778 255 140 0
-0.0574699 0.1086696 -0.0390761 255 140 0
-0.0551898 0.1086789 -0.0390734 255 140 0
-0.0529170 0.1086889 -0.0390695 255 140 0
-0.0506442 0.1087023 -0.0390661 255 140 0
-0.0483711 0.1087094 -0.0390649 255 140 0
-0.0460981 0.1087153 -0.0390636 255 140 0
-0.0438247 0.1087214 -0.0390622 255 140 0
-0.0415530 0.1087264 -0.0390622 255 140 0
-0.0392807 0.1087302 -0.0390626 255 140 0
-0.0370170 0.1087372 -0.0390610 255 140 0
-0.0347456 0.1087419 -0.0390594 255 140 0
-0.0324655 0.1087422 -0.0390595 255 140 0
-0.0301921 0.1087445 -0.0390590 255 140 0
-0.0279191 0.1087520 -0.0390568 255 140 0
-0.0256458 0.1087566 -0.0390556 255 140 0
-0.0233709 0.1087594 -0.0390551 255 140 0
-0.0210978 0.1087613 -0.0390544 255 140 0
-0.0188246 0.1087630 -0.0390538 255 140 0
-0.0165520 0.1087651 -0.0390537 255 140 0
-0.0142786 0.1087660 -0.0390547 255 140 0
-0.0120132 0.1087708 -0.0390533 255 140 0
-0.0097440 0.1087714 -0.0390529 255 140 0
-0.0074644 0.1087667 -0.0390560 255 140 0
-0.0051881 0.1087594 -0.0390594 255 140 0
-0.0029150 0.1087519 -0.0390611 255 140 0
-0.0006411 0.1087447 -0.0390651 255 140 0
0.0016327 0.1087416 -0.0390699 255 140 0
0.0039068 0.1087465 -0.0390772 255 140 0
0.0061813 0.1087673 -0.0390935 255 140 0
0.0084555 0.1088254 -0.0391274 255 140 0
0.0107340 0.1088783 -0.0391713 255 140 0
0.0129991 0.1088623 -0.0392179 255 140 0
0.0152770 0.1088285 -0.0392594 255 140 0
-0.0733993 0.1109151 -0.0392945 255 140 0
-0.0711100 0.1110123 -0.0392193 255 140 0
-0.0688291 0.1110232 -0.0391677 255 140 0
-0.0665551 0.1109967 -0.0391278 255 140 0
-0.0642816 0.1109598 -0.0390981 255 140 0
-0.0620162 0.1109602 -0.0390828 255 140 0
-0.0597446 0.1109656 -0.0390727 255 140 0
-0.0574691 0.1109704 -0.0390717 255 140 0
-0.0551893 0.1109800 -0.0390688 255 140 0
-0.0529163 0.1109928 -0.0390649 255 140 0
-0.0506435 0.1110054 -0.0390619 255 140 0
-0.0483707 0.1110178 -0.0390589 255 140 0
-0.0460979 0.1110277 -0.0390570 255 140 0
-0.0438247 0.1110367 -0.0390556 255 140 0
-0.0415525 0.1110472 -0.0390532 255 140 0
-0.0392802 0.1110545 -0.0390524 255 140 0
-0.0370121 0.1110645 -0.0390501 255 140 0
-0.0347447 0.1110719 -0.0390477 255 140 0
-0.0324645 0.1110749 -0.0390466 255 140 0
-0.0301910 0.1110796 -0.0390448 255 140 0
-0.0279180 0.1110907 -0.0390404 255 140 0
-0.0256444 0.1110982 -0.0390378 255 140 0
-0.0233696 0.1111049 -0.0390359 255 140 0
-0.0210966 0.1111100 -0.0390344 255 140 0
-0.0188235 0.1111145 -0.0390330 255 140 0
-0.0165508 0.1111206 -0.0390320 255 140 0
-0.0142776 0.1111255 -0.0390316 255 140 0
-0.0120110 0.1111314 -0.0390291 255 140 0
-0.0097406 0.1111319 -0.0390297 255 140 0
-0.0074624 0.1111285 -0.0390323 255 140 0
-0.0051865 0.1111244 -0.0390340 255 140 0
-0.0029135 0.1111175 -0.0390354 255 140 0
-0.0006397 0.1111163 -0.0390369 255 140 0
0.0016339 0.1111134 -0.0390414 255 140 0
0.0039081 0.1111243 -0.0390488 255 140 0
0.0061820 0.1111518 -0.0390669 255 140 0
0.0084572 0.1112037 -0.0391033 255 140 0
0.0107370 0.1112641 -0.0391464 255 140 0
0.0129995 0.1111640 -0.0391950 255 140 0
0.0152769 0.1111005 -0.0392329 255 140 0
-0.0733993 0.1132756 -0.0393134 255 140 0
-0.0711166 0.1134105 -0.0392247 255 140 0
-0.0688278 0.1134427 -0.0391665 255 140 0
-0.0665535 0.1134160 -0.0391170 255 140 0
-0.0642799 0.1133731 -0.0390788 255 140 0
-0.0620146 0.1133603 -0.0390606 255 140 0
-0.0597419 0.1133541 -0.0390493 255 140 0
-0.0574644 0.1133544 -0.0390497 255 140 0
-0.0551878 0.1133603 -0.0390481 255 140 0
-0.0529148 0.1133662 -0.0390469 255 140 0
-0.0506419 0.1133784 -0.0390433 255 254 0
-0.0483691 0.1133893 -0.0390404 255 252 0
-0.0460963 0.1134071 -0.0390367 255 251 0
-0.0438235 0.1134204 -0.0390336 255 249 0
-0.0415513 0.1134347 -0.0390294 255 248 0
-0.0392789 0.1134452 -0.0390278 255 246 0
-0.0370095 0.1134572 -0.0390251 255 245 0
-0.0347426 0.1134666 -0.0390222 255 243 0
-0.0324626 0.1134743 -0.0390193 255 242 0
-0.0301890 0.1134823 -0.0390149 255 240 0
-0.0279156 0.1134919 -0.0390068 255 238 0
-0.0256404 0.1135027 -0.0390010 255 237 0
-0.0233676 0.1135133 -0.0389973 255 235 0
-0.0210946 0.1135220 -0.0389939 255 234 0
-0.0188216 0.1135308 -0.0389906 255 233 0
-0.0165487 0.1135405 -0.0389880 255 231 0
-0.0142754 0.1135469 -0.0389877 255 230 0
-0.0120074 0.1135540 -0.0389860 255 229 0
-0.0097367 0.1135602 -0.0389853 255 228 0
-0.0074600 0.1135561 -0.0389872 255 228 0
-0.0051842 0.1135561 -0.0389874 255 227 0
-0.0029113 0.1135560 -0.0389869 255 226 0
-0.0006378 0.1135535 -0.0389889 255 225 0
0.0016358 0.1135574 -0.0389902 255 225 0
0.0039097 0.1135739 -0.0389985 255 225 0
0.0061839 0.1135999 -0.0390180 255 226 0
0.0084592 0.1136296 -0.0390549 255 229 0
0.0107407 0.1136925 -0.0390873 255 231 0
0.0129991 0.1135314 -0.0391423 255 237 0
-0.0711165 0.1157626 -0.0392161 255 140 0
-0.0688264 0.1158486 -0.0391444 255 248 0
-0.0665514 0.1158487 -0.0390814 255 240 0
-0.0642776 0.1158246 -0.0390290 255 234 0
-0.0620111 0.1158159 -0.0390031 255 230 0
-0.0597383 0.1158111 -0.0389873 255 227 0
-0.0574589 0.1158200 -0.0389838 255 226 0
-0.0551842 0.1158303 -0.0389815 255 224 0
-0.0529109 0.1158476 -0.0389765 255 222 0
-0.0506379 0.1158631 -0.0389721 255 220 0
-0.0483651 0.1158833 -0.0389660 255 219 0
-0.0460923 0.1159006 -0.0389612 255 217 0
-0.0438195 0.1159205 -0.0389549 255 215 0
-0.0415473 0.1159359 -0.0389510 255 213 0
-0.0392750 0.1159486 -0.0389473 255 212 0
-0.0370038 0.1159640 -0.0389428 255 210 0
-0.0347335 0.1159787 -0.0389372 255 208 0
-0.0324582 0.1159860 -0.0389338 255 207 0
-0.0301847 0.1159999 -0.0389266 255 205 0
-0.0279088 0.1160182 -0.0389146 255 202 0
-0.0256358 0.1160339 -0.0389065 255 200 0
-0.0233629 0.1160495 -0.0389008 255 199 0
-0.0210900 0.1160630 -0.0388956 255 197 0
-0.0188171 0.1160745 -0.0388917 255 196 0
-0.0165441 0.1160856 -0.0388894 255 194 0
-0.0142710 0.1160952 -0.0388874 255 193 0
-0.0120022 0.1161049 -0.0388874 255 192 0
-0.0097310 0.1161135 -0.0388860 255 191 0
-0.0074550 0.1161151 -0.0388851 255 190 0
-0.0051805 0.1161151 -0.0388849 255 189 0
-0.0029069 0.1161181 -0.0388835 255 188 0
-0.0006336 0.1161230 -0.0388824 255 187 0
0.0016399 0.1161303 -0.0388825 255 187 0
0.0039134 0.1161361 -0.0388906 255 187 0
0.0061880 0.1161484 -0.0389070 255 188 0
0.0084634 0.1161530 -0.0389437 255 191 0
0.0107469 0.1163080 -0.0389352 255 187 0
0.0129878 0.1153990 -0.0391925 255 223 0
-0.0711137 0.1181636 -0.0391523 255 226 0
-0.0688252 0.1183084 -0.0390716 255 215 0
-0.0665469 0.1183512 -0.0389933 255 205 0
-0.0642724 0.1183575 -0.0389278 255 197 0
-0.0619990 0.1183595 -0.0388935 255 192 0
-0.0597263 0.1183675 -0.0388703 255 188 0
-0.0574511 0.1183845 -0.0388657 255 187 0
-0.0551775 0.1184034 -0.0388607 255 185 0
-0.0529042 0.1184289 -0.0388537 255 183 0
-0.0506312 0.1184532 -0.0388479 255 181 0
-0.0483583 0.1184808 -0.0388410 255 178 0
-0.0460857 0.1185066 -0.0388346 255 176 0
-0.0438132 0.1185284 -0.0388289 255 175 0
-0.0415410 0.1185507 -0.0388216 255 172 0
-0.0392687 0.1185691 -0.0388151 255 171 0
-0.0369966 0.1185891 -0.0388087 255 169 0
-0.0347240 0.1186080 -0.0388017 255 167 0
-0.0324509 0.1186231 -0.0387947 255 165 0
-0.0301768 0.1186440 -0.0387845 255 162 0
-0.0279015 0.1186711 -0.0387703 255 160 0
-0.0256284 0.1186945 -0.0387600 255 157 0
-0.0233556 0.1187122 -0.0387538 255 156 0
-0.0210828 0.1187287 -0.0387492 255 154 0
-0.0188100 0.1187435 -0.0387459 255 153 0
-0.0165374 0.1187547 -0.0387425 255 151 0
-0.0142655 0.1187655 -0.0387400 255 150 0
-0.0119931 0.1187821 -0.0387383 255 149 0
-0.0097203 0.1187944 -0.0387356 255 147 0
-0.0074468 0.1187995 -0.0387322 255 146 0
-0.0051738 0.1188061 -0.0387289 255 145 0
-0.0028999 0.1188169 -0.0387259 255 144 0
-0.0006269 0.1188262 -0.0387245 255 143 0
0.0016465 0.1188400 -0.0387244 255 142 0
0.0039193 0.1188518 -0.0387299 255 142 0
0.0061933 0.1188536 -0.0387468 255 143 0
0.0084687 0.1188345 -0.0387810 255 146 0
0.0107548 0.1190612 -0.0386831 255 133 0
0.0129730 0.1175436 -0.0390674 255 187 0
-0.0688291 0.1208773 -0.0389922 255 180 0
-0.0665403 0.1209634 -0.0388975 255 168 0
-0.0642650 0.1210015 -0.0388172 255 158 0
-0.0619914 0.1210175 -0.0387790 255 152 0
-0.0597176 0.1210387 -0.0387529 255 148 0
-0.0574438 0.1210594 -0.0387471 255 147 0
-0.0551703 0.1210822 -0.0387415 255 145 0
-0.0528970 0.1211064 -0.0387360 255 144 0
-0.0506239 0.1211345 -0.0387295 255 143 0
-0.0483511 0.1211638 -0.0387234 255 141 0
-0.0460784 0.1211927 -0.0387172 255 140 0
-0.0438060 0.1212202 -0.0387108 255 138 0
-0.0415338 0.1212452 -0.0387043 255 137 0
-0.0392614 0.1212685 -0.0386975 255 136 0
-0.0369890 0.1212966 -0.0386905 255 134 0
-0.0347163 0.1213222 -0.0386828 255 133 0
-0.0324433 0.1213385 -0.0386753 255 132 0
-0.0301698 0.1213607 -0.0386664 255 130 0
-0.0278960 0.1213906 -0.0386556 255 128 0
-0.0256229 0.1214147 -0.0386474 255 127 0
-0.0233505 0.1214349 -0.0386413 255 126 0
-0.0210778 0.1214536 -0.0386373 255 125 0
-0.0188052 0.1214708 -0.0386331 255 124 0
-0.0165322 0.1214827 -0.0386283 255 123 0
-0.0142580 0.1214919 -0.0386237 255 123 0
-0.0119847 0.1215056 -0.0386226 255 122 0
-0.0097116 0.1215174 -0.0386212 255 122 1
-0.0074390 0.1215226 -0.0386192 255 121 1
-0.0051662 0.1215309 -0.0386172 255 120 1
-0.0028931 0.1215441 -0.0386150 255 120 1
-0.0006199 0.1215539 -0.0386148 255 120 1
0.0016531 0.1215579 -0.0386189 255 120 1
0.0039256 0.1215572 -0.0386304 255 121 1
0.0061986 0.1215530 -0.0386590 255 123 0
0.0084736 0.1215437 -0.0387182 255 129 0
0.0107592 0.1219511 -0.0387781 255 135 0
-0.0688272 0.1234325 -0.0389497 255 155 0
-0.0665346 0.1236032 -0.0388413 255 143 0
-0.0642581 0.1236978 -0.0387521 255 133 0
-0.0619846 0.1237382 -0.0387116 255 128 0
-0.0597109 0.1237681 -0.0386879 255 125 0
-0.0574372 0.1237802 -0.0386840 255 124 0
-0.0551635 0.1237945 -0.0386809 255 124 0
-0.0528898 0.1238184 -0.0386782 255 124 0
-0.0506163 0.1238435 -0.0386762 255 123 0
-0.0483434 0.1238714 -0.0386744 255 123 0
-0.0460708 0.1239007 -0.0386719 255 123 0
-0.0437984 0.1239329 -0.0386685 255 123 0
-0.0415259 0.1239674 -0.0386641 255 122 0
-0.0392535 0.1239964 -0.0386583 255 122 1
-0.0369810 0.1240443 -0.0386457 255 120 1
-0.0347083 0.1240727 -0.0386361 255 119 1
-0.0324357 0.1240769 -0.0386318 255 119 1
-0.0301624 0.1240917 -0.0386274 255 118 1
-0.0278886 0.1241078 -0.0386232 255 118 1
-0.0256156 0.1241251 -0.0386198 255 118 1
-0.0233429 0.1241378 -0.0386191 255 118 1
-0.0210701 0.1241523 -0.0386166 255 117 1
-0.0187974 0.1241655 -0.0386140 255 117 1
-0.0165246 0.1241720 -0.0386107 255 117 2
-0.0142515 0.1241761 -0.0386077 255 116 2
-0.0119771 0.1241913 -0.0386055 255 116 2
-0.0097041 0.1242063 -0.0386036 255 116 2
-0.0074317 0.1242088 -0.0386013 255 116 2
-0.0051595 0.1242203 -0.0385997 255 116 2
-0.0028862 0.1242394 -0.0385979 255 115 2
-0.0006131 0.1242506 -0.0386004 255 116 2
0.0016597 0.1242528 -0.0386080 255 116 2
0.0039320 0.1242459 -0.0386310 255 119 1
0.0062049 0.1242492 -0.0386757 255 123 0
0.0084778 0.1242670 -0.0387638 255 132 0
0.0107568 0.1244802 -0.0389690 255 153 0
-0.0665249 0.1263075 -0.0387305 255 129 0
-0.0642479 0.1263908 -0.0386734 255 123 0
-0.0619733 0.1264234 -0.0386149 255 117 1
-0.0596989 0.1264505 -0.0385780 255 113 2
-0.0574254 0.1264663 -0.0385712 255 113 2
-0.0551522 0.1264836 -0.0385648 255 112 2
-0.0528789 0.1265000 -0.0385589 255 112 3
-0.0506058 0.1265188 -0.0385539 255 111 3
-0.0483332 0.1265388 -0.0385499 255 111 3
-0.0460609 0.1265535 -0.0385470 255 110 3
-0.0437888 0.1265689 -0.0385434 255 110 3
-0.0415166 0.1265912 -0.0385394 255 110 3
-0.0392444 0.1266113 -0.0385358 255 109 3
-0.0369720 0.1266307 -0.0385305 255 109 3
-0.0346996 0.1266526 -0.0385262 255 108 3
-0.0324275 0.1266622 -0.0385238 255 108 3
-0.0301540 0.1266685 -0.0385242 255 108 3
-0.0278801 0.1266831 -0.0385192 255 107 3
-0.0256076 0.1266988 -0.0385159 255 107 3
-0.0233351 0.1267168 -0.0385138 255 107 4
-0.0210623 0.1267333 -0.0385122 255 107 4
-0.0187896 0.1267477 -0.0385097 255 106 4
-0.0165171 0.1267562 -0.0385070 255 106 4
-0.0142445 0.1267614 -0.0385044 255 106 4
-0.0119701 0.1267778 -0.0385050 255 106 4
-0.0096972 0.1267935 -0.0385035 255 106 4
-0.0074254 0.1268009 -0.0385016 255 106 4
-0.0051528 0.1268125 -0.0385019 255 106 4
-0.0028802 0.1268283 -0.0385038 255 106 4
-0.0006076 0.1268449 -0.0385119 255 107 4
0.0016647 0.1268601 -0.0385273 255 108 3
0.0039362 0.1268639 -0.0385567 255 111 3
0.0062064 0.1268227 -0.0385915 255 115 2
0.0084721 0.1266989 -0.0386140 255 117 1
-0.0642398 0.1289808 -0.0386478 255 121 1
-0.0619647 0.1290192 -0.0385769 255 113 2
-0.0596901 0.1290479 -0.0385311 255 109 3
-0.0574168 0.1290655 -0.0385191 255 107 3
-0.0551440 0.1290797 -0.0385083 255 106 4
-0.0528713 0.1290919 -0.0384999 255 105 4
-0.0505984 0.1291056 -0.0384951 255 105 4
-0.0483261 0.1291223 -0.0384916 255 105 4
-0.0460540 0.1291343 -0.0384881 255 104 4
-0.0437819 0.1291452 -0.0384849 255 104 4
-0.0415099 0.1291608 -0.0384822 255 104 4
-0.0392378 0.1291784 -0.0384800 255 103 4
-0.0369657 0.1292034 -0.0384781 255 103 4
-0.0346932 0.1292249 -0.0384766 255 103 4
-0.0324204 0.1292395 -0.0384756 255 103 4
-0.0301474 0.1292521 -0.0384745 255 103 4
-0.0278745 0.1292580 -0.0384735 255 103 4
-0.0256017 0.1292686 -0.0384739 255 103 4
-0.0233289 0.1292868 -0.0384734 255 103 4
-0.0210564 0.1293035 -0.0384726 255 103 4
-0.0187839 0.1293173 -0.0384718 255 103 4
-0.0165116 0.1293259 -0.0384712 255 103 4
-0.0142392 0.1293359 -0.0384715 255 103 4
-0.0119650 0.1293549 -0.0384710 255 103 4
-0.0096920 0.1293729 -0.0384729 255 103 4
-0.0074202 0.1293841 -0.0384756 255 103 4
-0.0051483 0.1293982 -0.0384829 255 104 4
-0.0028758 0.1294129 -0.0384937 255 105 4
-0.0006034 0.1294267 -0.0385102 255 107 4
0.0016684 0.1294315 -0.0385326 255 109 3
0.0039392 0.1293964 -0.0385616 255 112 3
-0.0642370 0.1314721 -0.0386720 255 140 0
-0.0619613 0.1314644 -0.0385597 255 140 0
-0.0596863 0.1314629 -0.0384865 255 140 0
-0.0574134 0.1314625 -0.0384778 255 140 0
-0.0551383 0.1314713 -0.0384756 255 140 0
-0.0528628 0.1315227 -0.0384671 255 140 0
-0.0505897 0.1315625 -0.0384608 255 140 0
-0.0483175 0.1315784 -0.0384506 255 140 0
-0.0460455 0.1315947 -0.0384435 255 140 0
-0.0437733 0.1316122 -0.0384405 255 140 0
-0.0415013 0.1316299 -0.0384390 255 140 0
-0.0392293 0.1316473 -0.0384386 255 140 0
-0.0369571 0.1316791 -0.0384413 255 140 0
-0.0346848 0.1317081 -0.0384436 255 140 0
-0.0324118 0.1317286 -0.0384455 255 140 0
-0.0301389 0.1317457 -0.0384444 255 140 0
-0.0278661 0.1317679 -0.0384451 255 140 0
-0.0255935 0.1317901 -0.0384455 255 140 0
-0.0233211 0.1318082 -0.0384434 255 140 0
-0.0210486 0.1318271 -0.0384432 255 140 0
-0.0187761 0.1318427 -0.0384422 255 140 0
-0.0165038 0.1318653 -0.0384436 255 140 0
-0.0142313 0.1318926 -0.0384488 255 140 0
-0.0119586 0.1319122 -0.0384529 255 140 0
-0.0096848 0.1319328 -0.0384574 255 140 0
-0.0074139 0.1319587 -0.0384676 255 140 0
-0.0051419 0.1319762 -0.0384797 255 140 0
-0.0028698 0.1319941 -0.0384965 255 140 0
-0.0005972 0.1320121 -0.0385203 255 140 0
0.0016759 0.1320223 -0.0385516 255 140 0
-0.0596774 0.1343446 -0.0386123 255 140 0
-0.0574049 0.1343552 -0.0385598 255 140 0
-0.0551305 0.1343574 -0.0385187 255 140 0
-0.0528559 0.1343558 -0.0384866 255 140 0
-0.0505833 0.1343624 -0.0384667 255 140 0
-0.0483112 0.1343744 -0.0384570 255 140 0
-0.0460393 0.1343823 -0.0384501 255 140 0
-0.0437674 0.1343875 -0.0384450 255 140 0
-0.0414956 0.1343917 -0.0384403 255 140 0
-0.0392235 0.1343971 -0.0384363 255 140 0
-0.0369516 0.1344103 -0.0384342 255 140 0
-0.0346794 0.1344218 -0.0384322 255 140 0
-0.0324069 0.1344328 -0.0384310 255 140 0
-0.0301340 0.1344420 -0.0384291 255 140 0
-0.0278611 0.1344489 -0.0384261 255 140 0
-0.0255883 0.1344602 -0.0384236 255 140 0
-0.0233155 0.1344732 -0.0384215 255 140 0
-0.0210430 0.1344823 -0.0384192 255 140 0
-0.0187707 0.1344894 -0.0384169 255 140 0
-0.0164983 0.1345005 -0.0384151 255 140 0
-0.0142259 0.1345150 -0.0384163 255 140 0
-0.0119534 0.1345388 -0.0384183 255 140 0
-0.0096811 0.1345620 -0.0384270 255 140 0
-0.0074089 0.1345883 -0.0384432 255 140 0
-0.0051360 0.1346052 -0.0384621 255 140 0
-0.0028639 0.1346195 -0.0384837 255 140 0
-0.0005921 0.1345942 -0.0384994 255 140 0
-0.0551261 0.1369283 -0.0384920 255 140 0
-0.0528537 0.1369604 -0.0384902 255 140 0
-0.0505813 0.1369826 -0.0384815 255 140 0
-0.0483090 0.1369932 -0.0384677 255 140 0
-0.0460370 0.1369873 -0.0384549 255 140 0
-0.0437649 0.1369697 -0.0384452 255 140 0
-0.0414932 0.1369620 -0.0384382 255 140 0
-0.0392215 0.1369599 -0.0384335 255 140 0
-0.0369497 0.1369676 -0.0384315 255 140 0
-0.0346776 0.1369751 -0.0384307 255 140 0
-0.0324052 0.1369820 -0.0384292 255 140 0
-0.0301326 0.1369883 -0.0384282 255 140 0
-0.0278599 0.1369791 -0.0384273 255 140 0
-0.0255869 0.1369867 -0.0384250 255 140 0
-0.0233138 0.1370029 -0.0384244 255 140 0
-0.0210413 0.1370018 -0.0384246 255 140 0
-0.0187691 0.1369932 -0.0384237 255 140 0
-0.0164966 0.1369980 -0.0384235 255 140 0
-0.0142242 0.1370007 -0.0384205 255 140 0
-0.0119522 0.1370134 -0.0384194 255 140 0
-0.0096801 0.1370210 -0.0384228 255 140 0
-0.0074078 0.1370193 -0.0384323 255 140 0
-0.0051351 0.1369951 -0.0384340 255 140 0
-0.0505809 0.1393476 -0.0385297 255 140 0
-0.0483085 0.1393087 -0.0384888 255 140 0
-0.0460360 0.1392861 -0.0384633 255 140 0
-0.0437635 0.1392806 -0.0384491 255 140 0
-0.0414918 0.1392898 -0.0384412 255 140 0
-0.0392201 0.1393039 -0.0384367 255 140 0
-0.0369486 0.1393202 -0.0384373 255 140 0
-0.0346766 0.1393298 -0.0384371 255 140 0
-0.0324038 0.1393355 -0.0384365 255 140 0
-0.0301311 0.1393313 -0.0384338 255 140 0
-0.0278586 0.1393168 -0.0384291 255 140 0
-0.0255861 0.1393044 -0.0384232 255 140 0
-0.0233134 0.1392957 -0.0384168 255 140 0
-0.0210409 0.1392940 -0.0384136 255 140 0
-0.0187683 0.1392967 -0.0384156 255 140 0
-0.0164957 0.1393149 -0.0384262 255 140 0
-0.0142227 0.1393364 -0.0384408 255 140 0
-0.0119506 0.1393836 -0.0384511 255 140 0
-0.0096784 0.1394000 -0.0384624 255 140 0
-0.0074056 0.1394013 -0.0384801 255 140 0
-0.0460390 0.1411828 -0.0384006 255 140 0
-0.0437652 0.1413764 -0.0384182 255 140 0
-0.0414921 0.1415463 -0.0384412 255 140 0
-0.0392195 0.1416478 -0.0384547 255 140 0
-0.0369476 0.1416893 -0.0384584 255 140 0
-0.0346754 0.1417019 -0.0384570 255 140 0
-0.0324024 0.1416944 -0.0384540 255 140 0
-0.0301296 0.1416927 -0.0384523 255 140 0
-0.0278573 0.1416772 -0.0384482 255 140 0
-0.0255855 0.1416048 -0.0384285 255 140 0
-0.0233139 0.1414692 -0.0383902 255 140 0
-0.0210415 0.1414063 -0.0383550 255 140 0
-0.0187670 0.1414721 -0.0383573 255 140 0
-0.0164903 0.1415312 -0.0383811 255 140 0
-0.0142139 0.1415770 -0.0384101 255 140 0
-0.0119459 0.1415827 -0.0384337 255 140 0
-0.0414929 0.1437492 -0.0384018 255 140 0
-0.0392224 0.1435865 -0.0383711 255 140 0
-0.0369514 0.1435339 -0.0383591 255 140 0
-0.0346795 0.1435167 -0.0383547 255 140 0
-0.0324063 0.1435462 -0.0383594 255 140 0
-0.0301332 0.1435630 -0.0383615 255 140 0
-0.0278606 0.1435672 -0.0383618 255 140 0
-0.0255865 0.1436695 -0.0383798 255 140 0
-0.0233132 0.1439729 -0.0384217 255 140 0
-0.0302342 0.0369736 -0.0385508 255 140 0
-0.0393212 0.0392982 -0.0384696 255 140 0
-0.0370533 0.0393030 -0.0384607 255 140 0
-0.0347808 0.0393059 -0.0384546 255 140 0
-0.0325079 0.0393066 -0.0384474 255 140 0
-0.0302305 0.0393020 -0.0384531 255 140 0
-0.0279552 0.0392912 -0.0384700 255 140 0
-0.0256823 0.0392819 -0.0384839 255 140 0
-0.0234097 0.0392746 -0.0384935 255 140 0
-0.0211343 0.0392685 -0.0385020 255 140 0
-0.0484148 0.0416077 -0.0384307 255 140 0
-0.0461394 0.0416388 -0.0383807 255 140 0
-0.0438628 0.0416621 -0.0383443 255 140 0
-0.0415906 0.0416654 -0.0383454 255 140 0
-0.0393186 0.0416595 -0.0383560 255 140 0
-0.0370507 0.0416570 -0.0383601 255 140 0
-0.0347780 0.0416590 -0.0383554 255 140 0
-0.0325004 0.0416723 -0.0383281 255 140 0
-0.0302274 0.0416735 -0.0383226 255 140 0
-0.0279549 0.0416559 -0.0383522 255 140 0
-0.0256802 0.0416431 -0.0383728 255 140 0
-0.0234078 0.0416296 -0.0383928 255 140 0
-0.0211328 0.0416157 -0.0384112 255 140 0
-0.0188597 0.0415991 -0.0384338 255 140 0
-0.0165866 0.0415831 -0.0384550 255 140 0
-0.0143116 0.0415473 -0.0385094 255 140 0
-0.0529736 0.0437969 -0.0385448 255 140 0
-0.0506955 0.0438129 -0.0385234 255 140 0
-0.0484168 0.0438435 -0.0384798 255 140 0
-0.0461430 0.0438727 -0.0384379 255 140 0
-0.0438648 0.0438949 -0.0384049 255 140 0
-0.0415922 0.0439105 -0.0383875 255 140 0
-0.0393196 0.0439212 -0.0383730 255 140 0
-0.0370514 0.0439217 -0.0383717 255 140 0
-0.0347784 0.0439266 -0.0383625 255 140 0
-0.0325002 0.0439463 -0.0383264 255 140 0
-0.0302271 0.0439503 -0.0383166 255 140 0
-0.0279547 0.0439409 -0.0383340 255 140 0
-0.0256823 0.0439265 -0.0383562 255 140 0
-0.0234076 0.0439129 -0.0383765 255 140 0
-0.0211350 0.0438965 -0.0384007 255 140 0
-0.0188599 0.0438745 -0.0384279 255 140 0
-0.0165866 0.0438502 -0.0384621 255 140 0
-0.0143086 0.0438243 -0.0384937 255 140 0
-0.0120462 0.0438133 -0.0385280 255 140 0
-0.0097757 0.0438062 -0.0385491 255 140 0
-0.0074872 0.0438142 -0.0385380 255 140 0
-0.0552408 0.0461255 -0.0384545 255 140 0
-0.0529615 0.0461548 -0.0384065 255 140 0
-0.0506870 0.0461844 -0.0383613 255 140 0
-0.0484126 0.0462061 -0.0383266 255 140 0
-0.0461353 0.0462273 -0.0382940 255 140 0
-0.0438622 0.0462417 -0.0382727 255 140 0
-0.0415898 0.0462469 -0.0382633 255 140 0
-0.0393175 0.0462497 -0.0382568 255 140 0
-0.0370448 0.0462543 -0.0382535 255 140 0
-0.0347754 0.0462618 -0.0382449 255 140 0
-0.0324990 0.0462761 -0.0382224 255 140 0
-0.0302260 0.0462811 -0.0382132 255 140 0
-0.0279527 0.0462719 -0.0382250 255 140 0
-0.0256782 0.0462610 -0.0382373 255 140 0
-0.0234056 0.0462480 -0.0382531 255 140 0
-0.0211328 0.0462384 -0.0382669 255 140 0
-0.0188598 0.0462265 -0.0382867 255 140 0
-0.0165866 0.0462107 -0.0383128 255 140 0
-0.0143110 0.0461925 -0.0383394 255 140 0
-0.0120437 0.0461800 -0.0383748 255 140 0
-0.0097720 0.0461666 -0.0384066 255 140 0
-0.0074916 0.0461528 -0.0384255 255 140 0
-0.0052114 0.0461369 -0.0384488 255 140 0
-0.0575162 0.0483790 -0.0384688 255 140 0
-0.0552414 0.0483974 -0.0384413 255 140 0
-0.0529613 0.0484504 -0.0383623 255 140 0
-0.0506821 0.0484871 -0.0383077 255 140 0
-0.0484085 0.0485090 -0.0382745 255 140 0
-0.0461351 0.0485249 -0.0382513 255 140 0
-0.0438623 0.0485341 -0.0382388 255 140 0
-0.0415899 0.0485351 -0.0382346 255 140 0
-0.0393175 0.0485328 -0.0382343 255 140 0
-0.0370453 0.0485396 -0.0382295 255 140 0
-0.0347728 0.0485452 -0.0382249 255 140 0
-0.0324999 0.0485492 -0.0382181 255 140 0
-0.0302270 0.0485493 -0.0382170 255 140 0
-0.0279518 0.0485448 -0.0382198 255 140 0
-0.0256786 0.0485386 -0.0382252 255 140 0
-0.0234057 0.0485314 -0.0382310 255 140 0
-0.0211328 0.0485248 -0.0382402 255 140 0
-0.0188597 0.0485176 -0.0382532 255 140 0
-0.0165872 0.0485069 -0.0382722 255 140 0
-0.0143136 0.0484915 -0.0382969 255 140 0
-0.0120435 0.0484677 -0.0383432 255 140 0
-0.0097717 0.0484438 -0.0383841 255 140 0
-0.0074952 0.0484224 -0.0384108 255 140 0
-0.0052182 0.0483976 -0.0384453 255 140 0
-0.0029407 0.0483643 -0.0384942 255 140 0
-0.0006610 0.0483468 -0.0385246 255 140 0
-0.0620602 0.0506760 -0.0384408 255 140 0
-0.0597848 0.0507148 -0.0383903 255 140 0
-0.0575099 0.0507294 -0.0383651 255 140 0
-0.0552349 0.0507557 -0.0383250 255 140 0
-0.0529601 0.0507899 -0.0382783 255 140 0
-0.0506828 0.0508182 -0.0382396 255 140 0
-0.0484076 0.0508359 -0.0382158 255 140 0
-0.0461343 0.0508499 -0.0381982 255 140 0
-0.0438613 0.0508590 -0.0381883 255 140 0
-0.0415889 0.0508614 -0.0381857 255 140 0
-0.0393165 0.0508620 -0.0381841 255 140 0
-0.0370444 0.0508656 -0.0381814 255 140 0
-0.0347719 0.0508700 -0.0381768 255 140 0
-0.0324990 0.0508662 -0.0381808 255 140 0
-0.0302261 0.0508658 -0.0381792 255 140 0
-0.0279508 0.0508643 -0.0381791 255 140 0
-0.0256778 0.0508620 -0.0381790 255 140 0
-0.0234049 0.0508566 -0.0381827 255 140 0
-0.0211320 0.0508512 -0.0381875 255 140 0
-0.0188589 0.0508440 -0.0381966 255 140 0
-0.0165856 0.0508346 -0.0382089 255 140 0
-0.0143120 0.0508238 -0.0382240 255 140 0
-0.0120408 0.0507974 -0.0382603 255 140 0
-0.0097684 0.0507752 -0.0382915 255 140 0
-0.0074933 0.0507617 -0.0383139 255 140 0
-0.0052186 0.0507419 -0.0383426 255 140 0
-0.0029446 0.0507133 -0.0383859 255 140 0
-0.0006682 0.0506871 -0.0384261 255 140 0
0.0016104 0.0506606 -0.0384704 255 140 0
-0.0643411 0.0528823 -0.0385046 255 140 0
-0.0620600 0.0529519 -0.0384318 255 140 0
-0.0597817 0.0530045 -0.0383712 255 140 0
-0.0575093 0.0530319 -0.0383252 255 140 0
-0.0552346 0.0530566 -0.0382889 255 140 0
-0.0529598 0.0530790 -0.0382622 255 140 0
-0.0506835 0.0530966 -0.0382409 255 140 0
-0.0484082 0.0531073 -0.0382262 255 140 0
-0.0461349 0.0531178 -0.0382140 255 140 0
-0.0438620 0.0531241 -0.0382067 255 140 0
-0.0415896 0.0531283 -0.0382029 255 140 0
-0.0393173 0.0531294 -0.0382018 255 140 0
-0.0370450 0.0531323 -0.0381977 255 140 0
-0.0347727 0.0531338 -0.0381950 255 140 0
-0.0324995 0.0531298 -0.0381993 255 140 0
-0.0302258 0.0531276 -0.0382008 255 140 0
-0.0279517 0.0531278 -0.0381986 255 140 0
-0.0256783 0.0531277 -0.0381963 255 140 0
-0.0234055 0.0531254 -0.0381965 255 140 0
-0.0211326 0.0531205 -0.0382007 255 140 0
-0.0188594 0.0531144 -0.0382059 255 140 0
-0.0165859 0.0531069 -0.0382139 255 140 0
-0.0143117 0.0530985 -0.0382246 255 140 0
-0.0120402 0.0530839 -0.0382410 255 140 0
-0.0097677 0.0530675 -0.0382619 255 140 0
-0.0074930 0.0530571 -0.0382798 255 140 0
-0.0052189 0.0530413 -0.0383050 255 140 0
-0.0029464 0.0530178 -0.0383377 255 140 0
-0.0006719 0.0529868 -0.0383830 255 140 0
0.0016045 0.0529488 -0.0384395 255 140 0
0.0038827 0.0529184 -0.0384837 255 140 0
0.0061623 0.0528951 -0.0385192 255 140 0
-0.0688879 0.0551598 -0.0385160 255 140 0
-0.0666037 0.0551874 -0.0384683 255 140 0
-0.0643294 0.0552108 -0.0384266 255 140 0
-0.0620567 0.0552783 -0.0383372 255 140 0
-0.0597801 0.0553322 -0.0382673 255 140 0
-0.0575064 0.0553561 -0.0382361 255 140 0
-0.0552319 0.0553798 -0.0382080 255 140 0
-0.0529565 0.0553993 -0.0381893 255 140 0
-0.0506802 0.0554135 -0.0381746 255 140 0
-0.0484064 0.0554216 -0.0381636 255 140 0
-0.0461332 0.0554292 -0.0381546 255 140 0
-0.0438604 0.0554339 -0.0381482 255 140 0
-0.0415881 0.0554364 -0.0381455 255 140 0
-0.0393158 0.0554387 -0.0381429 255 140 0
-0.0370436 0.0554410 -0.0381400 255 140 0
-0.0347715 0.0554429 -0.0381363 255 140 0
-0.0324980 0.0554381 -0.0381417 255 140 0
-0.0302239 0.0554385 -0.0381393 255 140 0
-0.0279503 0.0554389 -0.0381368 255 140 0
-0.0256771 0.0554384 -0.0381347 255 140 0
-0.0234043 0.0554355 -0.0381356 255 140 0
-0.0211313 0.0554314 -0.0381385 255 140 0
-0.0188581 0.0554272 -0.0381412 255 140 0
-0.0165846 0.0554209 -0.0381467 255 140 0
-0.0143104 0.0554147 -0.0381542 255 140 0
-0.0120394 0.0554062 -0.0381620 255 140 0
-0.0097668 0.0553972 -0.0381719 255 140 0
-0.0074916 0.0553857 -0.0381904 255 140 0
-0.0052168 0.0553691 -0.0382117 255 140 0
-0.0029428 0.0553444 -0.0382409 255 140 0
-0.0006687 0.0553133 -0.0382840 255 140 0
0.0016056 0.0552763 -0.0383408 255 140 0
0.0038820 0.0552377 -0.0383988 255 140 0
0.0061597 0.0552027 -0.0384571 255 140 0
-0.0711640 0.0574332 -0.0385679 255 140 0
-0.0688879 0.0574543 -0.0385166 255 140 0
-0.0666029 0.0574834 -0.0384579 255 140 0
-0.0643278 0.0575121 -0.0384074 255 140 0
-0.0620561 0.0575718 -0.0383261 255 140 0
-0.0597813 0.0576154 -0.0382708 255 140 0
-0.0575070 0.0576335 -0.0382517 255 140 0
-0.0552328 0.0576485 -0.0382379 255 140 0
-0.0529549 0.0576614 -0.0382281 255 140 0
-0.0506809 0.0576721 -0.0382184 255 140 0
-0.0484077 0.0576759 -0.0382139 255 140 0
-0.0461345 0.0576788 -0.0382106 255 140 0
-0.0438616 0.0576823 -0.0382062 255 140 0
-0.0415892 0.0576832 -0.0382054 255 140 0
-0.0393167 0.0576832 -0.0382052 255 140 0
-0.0370448 0.0576858 -0.0382006 255 140 0
-0.0347730 0.0576858 -0.0381993 255 140 0
-0.0324993 0.0576843 -0.0382002 255 140 0
-0.0302257 0.0576831 -0.0382003 255 140 0
-0.0279516 0.0576822 -0.0381994 255 140 0
-0.0256780 0.0576824 -0.0381962 255 140 0
-0.0234050 0.0576805 -0.0381960 255 140 0
-0.0211318 0.0576779 -0.0381965 255 140 0
-0.0188585 0.0576745 -0.0381984 255 140 0
-0.0165851 0.0576707 -0.0382016 255 140 0
-0.0143114 0.0576659 -0.0382067 255 140 0
-0.0120403 0.0576644 -0.0382049 255 140 0
-0.0097678 0.0576592 -0.0382086 255 140 0
-0.0074922 0.0576523 -0.0382187 255 140 0
-0.0052169 0.0576401 -0.0382337 255 140 0
-0.0029421 0.0576227 -0.0382527 255 140 0
-0.0006677 0.0575982 -0.0382843 255 140 0
0.0016060 0.0575635 -0.0383336 255 140 0
0.0038813 0.0575253 -0.0383937 255 140 0
0.0061578 0.0574827 -0.0384637 255 140 0
0.0084349 0.0574474 -0.0385275 255 140 0
-0.0711615 0.0597887 -0.0384867 255 140 0
-0.0688750 0.0598159 -0.0384225 255 140 0
-0.0665996 0.0598494 -0.0383560 255 140 0
-0.0643246 0.0598801 -0.0382960 255 140 0
-0.0620512 0.0599384 -0.0382344 255 140 0
-0.0597764 0.0599812 -0.0381900 255 140 0
-0.0575021 0.0599901 -0.0381839 255 140 0
-0.0552265 0.0600005 -0.0381761 255 140 0
-0.0529526 0.0600082 -0.0381704 255 140 0
-0.0506791 0.0600129 -0.0381668 255 140 0
-0.0484058 0.0600126 -0.0381683 255 140 0
-0.0461328 0.0600115 -0.0381703 255 140 0
-0.0438599 0.0600105 -0.0381718 255 140 0
-0.0415875 0.0600086 -0.0381744 255 140 0
-0.0393149 0.0600087 -0.0381745 255 140 0
-0.0370435 0.0600060 -0.0381755 255 140 0
-0.0347719 0.0600051 -0.0381747 255 140 0
-0.0324980 0.0600028 -0.0381769 255 140 0
-0.0302247 0.0600013 -0.0381777 255 140 0
-0.0279507 0.0599986 -0.0381789 255 140 0
-0.0256768 0.0599977 -0.0381778 255 140 0
-0.0234038 0.0599962 -0.0381781 255 140 0
-0.0211305 0.0599943 -0.0381776 255 140 0
-0.0188571 0.0599939 -0.0381764 255 140 0
-0.0165837 0.0599909 -0.0381777 255 140 0
-0.0143102 0.0599892 -0.0381784 255 140 0
-0.0120391 0.0599874 -0.0381764 255 140 0
-0.0097665 0.0599851 -0.0381768 255 140 0
-0.0074911 0.0599812 -0.0381832 255 140 0
-0.0052161 0.0599742 -0.0381912 255 140 0
-0.0029417 0.0599630 -0.0382023 255 140 0
-0.0006670 0.0599417 -0.0382255 255 140 0
0.0016075 0.0599114 -0.0382597 255 140 0
0.0038816 0.0598749 -0.0383110 255 140 0
0.0061565 0.0598342 -0.0383787 255 140 0
0.0084338 0.0597874 -0.0384632 255 140 0
0.0107216 0.0597100 -0.0385576 255 140 0
-0.0734438 0.0621798 -0.0385721 255 140 0
-0.0711589 0.0622109 -0.0384918 255 140 0
-0.0688724 0.0622686 -0.0384311 255 140 0
-0.0665972 0.0623039 -0.0383806 255 140 0
-0.0643223 0.0623336 -0.0383372 255 140 0
-0.0620512 0.0623741 -0.0383035 255 140 0
-0.0597758 0.0624038 -0.0382793 255 140 0
-0.0574993 0.0624065 -0.0382767 255 140 0
-0.0552248 0.0624093 -0.0382759 255 140 0
-0.0529507 0.0624126 -0.0382706 255 140 0
-0.0506773 0.0624136 -0.0382654 255 140 0
-0.0484043 0.0624116 -0.0382647 255 140 0
-0.0461343 0.0623089 -0.0383452 255 140 0
-0.0438615 0.0623061 -0.0383500 255 140 0
-0.0415892 0.0623060 -0.0383520 255 140 0
-0.0393168 0.0623083 -0.0383514 255 140 0
-0.0370452 0.0623073 -0.0383522 255 140 0
-0.0347740 0.0623080 -0.0383517 255 140 0
-0.0324996 0.0623056 -0.0383552 255 140 0
-0.0302262 0.0623050 -0.0383562 255 140 0
-0.0279527 0.0623028 -0.0383586 255 140 0
-0.0256782 0.0623027 -0.0383588 255 140 0
-0.0234049 0.0623010 -0.0383608 255 140 0
-0.0211317 0.0623023 -0.0383593 255 140 0
-0.0188583 0.0623019 -0.0383594 255 140 0
-0.0165848 0.0623022 -0.0383593 255 140 0
-0.0143110 0.0623018 -0.0383609 255 140 0
-0.0120406 0.0623016 -0.0383593 255 140 0
-0.0097684 0.0622998 -0.0383605 255 140 0
-0.0074925 0.0622971 -0.0383652 255 140 0
-0.0052172 0.0622944 -0.0383685 255 140 0
-0.0029428 0.0622898 -0.0383742 255 140 0
-0.0006679 0.0622756 -0.0383860 255 140 0
0.0016072 0.0622549 -0.0384053 255 140 0
0.0038816 0.0622309 -0.0384391 255 140 0
0.0061563 0.0621948 -0.0384928 255 140 0
0.0084332 0.0621434 -0.0385715 255 140 0
0.0107223 0.0620775 -0.0386316 255 140 0
0.0129576 0.0621254 -0.0387988 255 140 0
-0.0734366 0.0645461 -0.0387003 255 140 0
-0.0711598 0.0645638 -0.0386399 255 140 0
-0.0688742 0.0645892 -0.0385937 255 140 0
-0.0665996 0.0646153 -0.0385494 255 140 0
-0.0643251 0.0646388 -0.0385104 255 140 0
-0.0620561 0.0646636 -0.0384879 255 140 0
-0.0597820 0.0646870 -0.0384735 255 140 0
-0.0575057 0.0646904 -0.0384765 255 140 0
-0.0552281 0.0646963 -0.0384764 255 140 0
-0.0529541 0.0647015 -0.0384763 255 140 0
-0.0506804 0.0647069 -0.0384754 255 140 0
-0.0484071 0.0647143 -0.0384740 255 140 0
-0.0461340 0.0647189 -0.0384738 255 140 0
-0.0438612 0.0647259 -0.0384731 255 140 0
-0.0415889 0.0647296 -0.0384734 255 140 0
-0.0393164 0.0647358 -0.0384740 255 140 0
-0.0370447 0.0647356 -0.0384744 255 140 0
-0.0347764 0.0647396 -0.0384763 255 140 0
-0.0324983 0.0647426 -0.0384803 255 140 0
-0.0302248 0.0647449 -0.0384836 255 140 0
-0.0279513 0.0647448 -0.0384850 255 140 0
-0.0256767 0.0647488 -0.0384879 255 140 0
-0.0234036 0.0647521 -0.0384909 255 140 0
-0.0211302 0.0647541 -0.0384939 255 140 0
-0.0188565 0.0647587 -0.0384966 255 140 0
-0.0165829 0.0647594 -0.0384993 255 140 0
-0.0143088 0.0647637 -0.0385018 255 140 0
-0.0120389 0.0647667 -0.0385032 255 140 0
-0.0097671 0.0647684 -0.0385034 255 140 0
-0.0074909 0.0647657 -0.0385065 255 140 0
-0.0052154 0.0647619 -0.0385075 255 140 0
-0.0029404 0.0647564 -0.0385065 255 140 0
-0.0006655 0.0647445 -0.0385065 255 140 0
0.0016097 0.0647289 -0.0385087 255 140 0
0.0038845 0.0647103 -0.0385257 255 140 0
0.0061595 0.0646806 -0.0385630 255 140 0
0.0084356 0.0646354 -0.0386244 255 140 0
0.0107208 0.0645867 -0.0386696 255 140 0
0.0129700 0.0645741 -0.0388182 255 140 0
-0.0757308 0.0670013 -0.0388209 255 140 0
-0.0734349 0.0670320 -0.0387457 255 140 0
-0.0711565 0.0670640 -0.0386670 255 140 0
-0.0688717 0.0670922 -0.0385915 255 140 0
-0.0665967 0.0671181 -0.0385344 255 140 0
-0.0643221 0.0671422 -0.0384911 255 140 0
-0.0620513 0.0671636 -0.0384909 255 140 0
-0.0597766 0.0671826 -0.0384923 255 140 0
-0.0574983 0.0671888 -0.0384979 255 140 0
-0.0552239 0.0671981 -0.0385020 255 140 0
-0.0529501 0.0672078 -0.0385038 255 140 0
-0.0506766 0.0672192 -0.0385043 255 140 0
-0.0484032 0.0672301 -0.0385058 255 140 0
-0.0461300 0.0672385 -0.0385047 255 140 0
-0.0438573 0.0672450 -0.0385027 255 140 0
-0.0415849 0.0672498 -0.0385014 255 140 0
-0.0393125 0.0672517 -0.0385016 255 140 0
-0.0370409 0.0672554 -0.0385012 255 140 0
-0.0347706 0.0672599 -0.0384989 255 140 0
-0.0324945 0.0672629 -0.0384993 255 140 0
-0.0302210 0.0672658 -0.0384987 255 140 0
-0.0279474 0.0672641 -0.0384969 255 140 0
-0.0256735 0.0672668 -0.0384958 255 140 0
-0.0233990 0.0672692 -0.0384964 255 140 0
-0.0211255 0.0672735 -0.0384966 255 140 0
-0.0188519 0.0672767 -0.0384965 255 140 0
-0.0165783 0.0672784 -0.0384965 255 140 0
-0.0143044 0.0672788 -0.0384970 255 140 0
-0.0120346 0.0672822 -0.0384952 255 140 0
-0.0097626 0.0672862 -0.0384934 255 140 0
-0.0074859 0.0672801 -0.0384934 255 140 0
-0.0052105 0.0672769 -0.0384922 255 140 0
-0.0029363 0.0672731 -0.0384893 255 140 0
-0.0006615 0.0672666 -0.0384866 255 140 0
0.0016134 0.0672596 -0.0384871 255 140 0
0.0038882 0.0672491 -0.0384967 255 140 0
0.0061633 0.0672226 -0.0385238 255 140 0
0.0084382 0.0671792 -0.0385748 255 140 0
0.0107186 0.0671515 -0.0386106 255 140 0
0.0129785 0.0670553 -0.0387804 255 140 0
0.0152533 0.0670139 -0.0388685 255 140 0
-0.0757329 0.0693945 -0.0389001 255 140 0
-0.0734352 0.0694993 -0.0388051 255 140 0
-0.0711536 0.0695598 -0.0387165 255 140 0
-0.0688714 0.0695964 -0.0386340 255 140 0
-0.0665960 0.0696113 -0.0385799 255 140 0
-0.0643216 0.0696238 -0.0385441 255 140 0
-0.0620509 0.0696406 -0.0385537 255 140 0
-0.0597770 0.0696533 -0.0385608 255 140 0
-0.0574982 0.0696630 -0.0385621 255 140 0
-0.0552236 0.0696710 -0.0385645 255 140 0
-0.0529501 0.0696804 -0.0385660 255 140 0
-0.0506767 0.0696890 -0.0385669 255 140 0
-0.0484034 0.0696973 -0.0385670 255 140 0
-0.0461303 0.0697018 -0.0385665 255 140 0
-0.0438573 0.0697067 -0.0385643 255 140 0
-0.0415849 0.0697046 -0.0385637 255 140 0
-0.0393124 0.0697001 -0.0385637 255 140 0
-0.0370411 0.0697057 -0.0385622 255 140 0
-0.0347716 0.0697091 -0.0385609 255 140 0
-0.0324943 0.0697104 -0.0385623 255 140 0
-0.0302205 0.0697088 -0.0385628 255 140 0
-0.0279467 0.0697062 -0.0385607 255 140 0
-0.0256728 0.0697063 -0.0385600 255 140 0
-0.0233979 0.0697129 -0.0385589 255 140 0
-0.0211240 0.0697168 -0.0385594 255 140 0
-0.0188503 0.0697212 -0.0385586 255 140 0
-0.0165767 0.0697186 -0.0385602 255 140 0
-0.0143029 0.0697123 -0.0385614 255 140 0
-0.0120330 0.0697178 -0.0385618 255 140 0
-0.0097610 0.0697194 -0.0385611 255 140 0
-0.0074839 0.0697085 -0.0385624 255 140 0
-0.0052083 0.0697007 -0.0385613 255 140 0
-0.0029341 0.0696948 -0.0385587 255 140 0
-0.0006593 0.0696906 -0.0385570 255 140 0
0.0016159 0.0696884 -0.0385549 255 140 0
0.0038909 0.0696721 -0.0385595 255 140 0
0.0061662 0.0696499 -0.0385734 255 140 0
0.0084408 0.0696151 -0.0386074 255 140 0
0.0107185 0.0695977 -0.0386308 255 140 0
0.0129843 0.0694439 -0.0387963 255 140 0
0.0152612 0.0693616 -0.0388819 255 140 0
-0.0757201 0.0718156 -0.0388163 255 140 0
-0.0734331 0.0718690 -0.0387280 255 140 0
-0.0711461 0.0719090 -0.0386493 255 140 0
-0.0688701 0.0719345 -0.0385864 255 140 0
-0.0665956 0.0719544 -0.0385563 255 140 0
-0.0643211 0.0719670 -0.0385433 255 140 0
-0.0620507 0.0719773 -0.0385521 255 140 0
-0.0597778 0.0719885 -0.0385561 255 140 0
-0.0574987 0.0719831 -0.0385605 255 140 0
-0.0552240 0.0719878 -0.0385615 255 140 0
-0.0529500 0.0719890 -0.0385646 255 140 0
-0.0506762 0.0720000 -0.0385629 255 140 0
-0.0484028 0.0720019 -0.0385642 255 140 0
-0.0461296 0.0720099 -0.0385621 255 140 0
-0.0438569 0.0720096 -0.0385621 255 140 0
-0.0415846 0.0720086 -0.0385625 255 140 0
-0.0393120 0.0720075 -0.0385624 255 140 0
-0.0370406 0.0720119 -0.0385614 255 140 0
-0.0347711 0.0720167 -0.0385595 255 140 0
-0.0324943 0.0720080 -0.0385620 255 140 0
-0.0302204 0.0720075 -0.0385612 255 140 0
-0.0279465 0.0720077 -0.0385602 255 140 0
-0.0256727 0.0720123 -0.0385585 255 140 0
-0.0233990 0.0720148 -0.0385585 255 140 0
-0.0211240 0.0720171 -0.0385571 255 140 0
-0.0188503 0.0720146 -0.0385569 255 140 0
-0.0165766 0.0720165 -0.0385562 255 140 0
-0.0143028 0.0720149 -0.0385567 255 140 0
-0.0120326 0.0720212 -0.0385574 255 140 0
-0.0097605 0.0720228 -0.0385572 255 140 0
-0.0074838 0.0720106 -0.0385592 255 140 0
-0.0052087 0.0720048 -0.0385578 255 140 0
-0.0029343 0.0719985 -0.0385566 255 140 0
-0.0006596 0.0719984 -0.0385526 255 140 0
0.0016155 0.0719938 -0.0385494 255 140 0
0.0038904 0.0719886 -0.0385461 255 140 0
0.0061657 0.0719745 -0.0385487 255 140 0
0.0084402 0.0719479 -0.0385628 255 140 0
0.0107176 0.0719283 -0.0385756 255 140 0
0.0129851 0.0718644 -0.0387033 255 140 0
0.0152609 0.0718311 -0.0387784 255 140 0
0.0175564 0.0718395 -0.0387830 255 140 0
-0.0780085 0.0740656 -0.0388985 255 140 0
-0.0757190 0.0740894 -0.0388132 255 140 0
-0.0734335 0.0741300 -0.0387320 255 140 0
-0.0711471 0.0741673 -0.0386645 255 140 0
-0.0688716 0.0741874 -0.0386170 255 140 0
-0.0665966 0.0742095 -0.0385956 255 140 0
-0.0643222 0.0742225 -0.0385898 255 140 0
-0.0620531 0.0742399 -0.0385904 255 140 0
-0.0597797 0.0742511 -0.0385915 255 140 0
-0.0574999 0.0742490 -0.0385921 255 140 0
-0.0552251 0.0742504 -0.0385926 255 140 0
-0.0529509 0.0742567 -0.0385929 255 140 0
-0.0506772 0.0742651 -0.0385915 255 140 0
-0.0484036 0.0742752 -0.0385888 255 140 0
-0.0461304 0.0742821 -0.0385860 255 140 0
-0.0438573 0.0742877 -0.0385841 255 140 0
-0.0415850 0.0742908 -0.0385837 255 140 0
-0.0393125 0.0742925 -0.0385836 255 140 0
-0.0370412 0.0742935 -0.0385841 255 140 0
-0.0347734 0.0742941 -0.0385838 255 140 0
-0.0324949 0.0742898 -0.0385830 255 140 0
-0.0302211 0.0742882 -0.0385826 255 140 0
-0.0279474 0.0742925 -0.0385812 255 140 0
-0.0256736 0.0742965 -0.0385807 255 140 0
-0.0233994 0.0743008 -0.0385800 255 140 0
-0.0211248 0.0742989 -0.0385796 255 140 0
-0.0188511 0.0742926 -0.0385803 255 140 0
-0.0165773 0.0742918 -0.0385807 255 140 0
-0.0143032 0.0742910 -0.0385813 255 140 0
-0.0120336 0.0742932 -0.0385832 255 140 0
-0.0097618 0.0742906 -0.0385853 255 140 0
-0.0074849 0.0742815 -0.0385869 255 140 0
-0.0052093 0.0742747 -0.0385880 255 140 0
-0.0029352 0.0742728 -0.0385876 255 140 0
-0.0006604 0.0742677 -0.0385865 255 140 0
0.0016145 0.0742601 -0.0385846 255 140 0
0.0038894 0.0742527 -0.0385823 255 140 0
0.0061647 0.0742472 -0.0385808 255 140 0
0.0084395 0.0742344 -0.0385842 255 140 0
0.0107168 0.0742117 -0.0385938 255 140 0
0.0129853 0.0742109 -0.0386840 255 140 0
0.0152602 0.0742080 -0.0387458 255 140 0
0.0175523 0.0741450 -0.0387931 255 140 0
-0.0780043 0.0763513 -0.0388750 255 140 0
-0.0757119 0.0763882 -0.0387938 255 140 0
-0.0734329 0.0764410 -0.0387113 255 140 0
-0.0711459 0.0764791 -0.0386472 255 140 0
-0.0688704 0.0765025 -0.0386026 255 140 0
-0.0665958 0.0765214 -0.0385814 255 140 0
-0.0643211 0.0765303 -0.0385740 255 140 0
-0.0620512 0.0765479 -0.0385722 255 140 0
-0.0597777 0.0765631 -0.0385703 255 140 0
-0.0574986 0.0765624 -0.0385722 255 140 0
-0.0552234 0.0765686 -0.0385718 255 140 0
-0.0529496 0.0765750 -0.0385725 255 140 0
-0.0506760 0.0765869 -0.0385696 255 140 0
-0.0484025 0.0765961 -0.0385669 255 140 0
-0.0461294 0.0766005 -0.0385645 255 140 0
-0.0438564 0.0766013 -0.0385631 255 140 0
-0.0415842 0.0766044 -0.0385626 255 140 0
-0.0393118 0.0766105 -0.0385615 255 140 0
-0.0370405 0.0766083 -0.0385628 255 140 0
-0.0347724 0.0766126 -0.0385612 255 140 0
-0.0324941 0.0766115 -0.0385615 255 140 0
-0.0302203 0.0766147 -0.0385596 255 140 0
-0.0279466 0.0766118 -0.0385591 255 140 0
-0.0256725 0.0766161 -0.0385570 255 140 0
-0.0233975 0.0766190 -0.0385570 255 140 0
-0.0211240 0.0766197 -0.0385569 255 140 0
-0.0188505 0.0766156 -0.0385583 255 140 0
-0.0165767 0.0766128 -0.0385584 255 140 0
-0.0143026 0.0766109 -0.0385578 255 140 0
-0.0120334 0.0766129 -0.0385595 255 140 0
-0.0097615 0.0766140 -0.0385606 255 140 0
-0.0074843 0.0766025 -0.0385634 255 140 0
-0.0052082 0.0765980 -0.0385637 255 140 0
-0.0029343 0.0765918 -0.0385656 255 140 0
-0.0006596 0.0765886 -0.0385644 255 140 0
0.0016150 0.0765821 -0.0385636 255 140 0
0.0038902 0.0765791 -0.0385614 255 140 0
0.0061648 0.0765762 -0.0385602 255 140 0
0.0084394 0.0765682 -0.0385629 255 140 0
0.0107165 0.0765507 -0.0385701 255 140 0
0.0129855 0.0765391 -0.0386545 255 140 0
0.0152610 0.0765321 -0.0387150 255 140 0
0.0175508 0.0764708 -0.0387645 255 140 0
-0.0780000 0.0785580 -0.0388926 255 140 0
-0.0757141 0.0786122 -0.0388087 255 140 0
-0.0734351 0.0786685 -0.0387256 255 140 0
-0.0711485 0.0787113 -0.0386658 255 140 0
-0.0688720 0.0787289 -0.0386313 255 140 0
-0.0665973 0.0787397 -0.0386160 255 140 0
-0.0643229 0.0787495 -0.0386099 255 140 0
-0.0620531 0.0787600 -0.0386094 255 140 0
-0.0597799 0.0787701 -0.0386088 255 140 0
-0.0575016 0.0787773 -0.0386083 255 140 0
-0.0552249 0.0787833 -0.0386082 255 140 0
-0.0529513 0.0787929 -0.0386066 255 140 0
-0.0506777 0.0788024 -0.0386039 255 140 0
-0.0484044 0.0788084 -0.0386028 255 140 0
-0.0461312 0.0788074 -0.0386025 255 140 0
-0.0438580 0.0788071 -0.0386011 255 140 0
-0.0415857 0.0788073 -0.0386010 255 140 0
-0.0393132 0.0788089 -0.0386009 255 140 0
-0.0370422 0.0788116 -0.0386001 255 140 0
-0.0347741 0.0788145 -0.0385990 255 140 0
-0.0324956 0.0788214 -0.0385974 255 140 0
-0.0302217 0.0788231 -0.0385967 255 140 0
-0.0279481 0.0788205 -0.0385956 255 140 0
-0.0256739 0.0788237 -0.0385933 255 140 0
-0.0233987 0.0788299 -0.0385911 255 140 0
-0.0211249 0.0788329 -0.0385906 255 140 0
-0.0188513 0.0788323 -0.0385912 255 140 0
-0.0165775 0.0788299 -0.0385913 255 140 0
-0.0143036 0.0788260 -0.0385917 255 140 0
-0.0120346 0.0788261 -0.0385923 255 140 0
-0.0097627 0.0788286 -0.0385919 255 140 0
-0.0074852 0.0788209 -0.0385945 255 140 0
-0.0052090 0.0788170 -0.0385949 255 140 0
-0.0029346 0.0788153 -0.0385944 255 140 0
-0.0006600 0.0788122 -0.0385933 255 140 0
0.0016148 0.0788074 -0.0385920 255 140 0
0.0038899 0.0788085 -0.0385892 255 140 0
0.0061645 0.0788075 -0.0385881 255 140 0
0.0084390 0.0788017 -0.0385899 255 140 0
0.0107155 0.0787829 -0.0385993 255 140 0
0.0129853 0.0787766 -0.0386732 255 140 0
0.0152610 0.0787647 -0.0387325 255 140 0
0.0175501 0.0786956 -0.0387912 255 140 0
0.0198400 0.0786763 -0.0388300 255 140 0
-0.0802883 0.0808393 -0.0389302 255 140 0
-0.0779969 0.0809236 -0.0388316 255 140 0
-0.0757113 0.0809907 -0.0387437 255 140 0
-0.0734329 0.0810391 -0.0386653 255 140 0
-0.0711474 0.0810762 -0.0386129 255 140 0
