ply
format ascii 1.0
element vertex 1144
property float x
property float y
property float z
property uchar red
property uchar green
property uchar blue
end_header
-0.0051612 0.0667035 -0.0279457 255 140 0
-0.0028894 0.0667032 -0.0279474 255 140 0
-0.0006175 0.0667021 -0.0279492 255 140 0
0.0016542 0.0667006 -0.0279511 255 140 0
0.0039260 0.0666994 -0.0279528 255 140 0
0.0061979 0.0666986 -0.0279539 255 140 0
0.0084697 0.0666985 -0.0279540 255 140 0
0.0107416 0.0667031 -0.0279468 255 140 0
0.0130139 0.0667186 -0.0279241 255 140 0
0.0152860 0.0667378 -0.0278954 255 140 0
0.0175578 0.0667683 -0.0278491 255 140 0
-0.0801247 0.0690967 -0.0277625 255 140 0
-0.0778552 0.0690457 -0.0278395 255 140 0
-0.0755854 0.0690063 -0.0278984 255 140 0
-0.0733149 0.0689795 -0.0279382 255 140 0
-0.0710438 0.0689651 -0.0279597 255 140 0
-0.0687724 0.0689590 -0.0279687 255 140 0
-0.0665006 0.0689553 -0.0279743 255 140 0
-0.0642288 0.0689530 -0.0279781 255 140 0
-0.0619569 0.0689517 -0.0279805 255 140 0
-0.0596849 0.0689496 -0.0279825 255 140 0
-0.0574133 0.0689482 -0.0279841 255 140 0
-0.0551416 0.0689467 -0.0279858 255 140 0
-0.0528698 0.0689455 -0.0279876 255 140 0
-0.0505981 0.0689438 -0.0279892 255 140 0
-0.0483263 0.0689422 -0.0279906 255 140 0
-0.0460546 0.0689409 -0.0279916 255 140 0
-0.0437829 0.0689403 -0.0279928 255 140 0
-0.0415111 0.0689392 -0.0279945 255 140 0
-0.0392394 0.0689381 -0.0279963 255 140 0
-0.0369673 0.0689368 -0.0279980 255 140 0
-0.0346955 0.0689358 -0.0279996 255 140 0
-0.0324239 0.0689350 -0.0280009 255 140 0
-0.0301523 0.0689342 -0.0280022 255 140 0
-0.0278806 0.0689332 -0.0280037 255 140 0
-0.0256089 0.0689323 -0.0280051 255 140 0
-0.0233371 0.0689314 -0.0280065 255 140 0
-0.0210654 0.0689306 -0.0280078 255 140 0
-0.0187936 0.0689299 -0.0280092 255 140 0
-0.0165217 0.0689289 -0.0280108 255 140 0
-0.0142500 0.0689279 -0.0280126 255 140 0
-0.0119778 0.0689287 -0.0280142 255 140 0
-0.0097057 0.0689290 -0.0280154 255 140 0
-0.0074342 0.0689283 -0.0280166 255 140 0
-0.0051624 0.0689279 -0.0280178 255 140 0
-0.0028906 0.0689276 -0.0280188 255 140 0
-0.0006186 0.0689277 -0.0280203 255 140 0
0.0016531 0.0689269 -0.0280215 255 140 0
0.0039250 0.0689259 -0.0280229 255 140 0
0.0061968 0.0689251 -0.0280238 255 140 0
0.0084688 0.0689249 -0.0280241 255 140 0
0.0107407 0.0689308 -0.0280152 255 140 0
0.0130130 0.0689379 -0.0280053 255 140 0
0.0152851 0.0689551 -0.0279796 255 140 0
0.0175569 0.0689931 -0.0279224 255 140 0
0.0198286 0.0690237 -0.0278754 255 140 0
-0.0801253 0.0713459 -0.0277989 255 140 0
-0.0778566 0.0712947 -0.0278766 255 140 0
-0.0755866 0.0712603 -0.0279284 255 140 0
-0.0733156 0.0712420 -0.0279555 255 140 0
-0.0710442 0.0712323 -0.0279700 255 140 0
-0.0687726 0.0712283 -0.0279759 255 140 0
-0.0665008 0.0712257 -0.0279799 255 140 0
-0.0642289 0.0712241 -0.0279827 255 140 0
-0.0619568 0.0712233 -0.0279843 255 140 0
-0.0596848 0.0712211 -0.0279859 255 140 0
-0.0574131 0.0712201 -0.0279872 255 140 0
-0.0551414 0.0712190 -0.0279886 255 140 0
-0.0528695 0.0712178 -0.0279899 255 140 0
-0.0505977 0.0712162 -0.0279911 255 140 0
-0.0483260 0.0712147 -0.0279922 255 140 0
-0.0460543 0.0712139 -0.0279933 255 140 0
-0.0437827 0.0712131 -0.0279943 255 140 0
-0.0415109 0.0712122 -0.0279956 255 140 0
-0.0392392 0.0712114 -0.0279970 255 140 0
-0.0369671 0.0712107 -0.0279980 255 140 0
-0.0346952 0.0712098 -0.0279990 255 140 0
-0.0324238 0.0712092 -0.0279999 255 140 0
-0.0301521 0.0712086 -0.0280008 255 140 0
-0.0278804 0.0712080 -0.0280017 255 140 0
-0.0256086 0.0712077 -0.0280025 255 140 0
-0.0233369 0.0712071 -0.0280033 255 140 0
-0.0210652 0.0712066 -0.0280041 255 140 0
-0.0187934 0.0712060 -0.0280049 255 140 0
-0.0165216 0.0712052 -0.0280061 255 140 0
-0.0142498 0.0712044 -0.0280074 255 140 0
-0.0119775 0.0712050 -0.0280081 255 140 0
-0.0097055 0.0712061 -0.0280088 255 140 0
-0.0074339 0.0712057 -0.0280098 255 140 0
-0.0051623 0.0712054 -0.0280106 255 140 0
-0.0028904 0.0712051 -0.0280113 255 140 0
-0.0006185 0.0712055 -0.0280121 255 140 0
0.0016533 0.0712052 -0.0280128 255 140 0
0.0039251 0.0712045 -0.0280136 255 140 0
0.0061970 0.0712041 -0.0280139 255 140 0
0.0084689 0.0712043 -0.0280136 255 140 0
0.0107408 0.0712097 -0.0280053 255 140 0
0.0130132 0.0712118 -0.0280022 255 140 0
0.0152852 0.0712256 -0.0279815 255 140 0
0.0175568 0.0712577 -0.0279330 255 140 0
0.0198285 0.0712883 -0.0278865 255 140 0
-0.0823962 0.0736394 -0.0277658 255 140 0
-0.0801266 0.0735919 -0.0278393 255 140 0
-0.0778576 0.0735435 -0.0279130 255 140 0
-0.0755872 0.0735142 -0.0279574 255 140 0
-0.0733161 0.0735022 -0.0279748 255 140 0
-0.0710446 0.0734959 -0.0279839 255 140 0
-0.0687728 0.0734936 -0.0279876 255 140 0
-0.0665011 0.0734922 -0.0279904 255 140 0
-0.0642293 0.0734909 -0.0279923 255 140 0
-0.0619571 0.0734903 -0.0279933 255 140 0
-0.0596850 0.0734887 -0.0279943 255 140 0
-0.0574134 0.0734876 -0.0279954 255 140 0
-0.0551417 0.0734867 -0.0279964 255 140 0
-0.0528698 0.0734860 -0.0279973 255 140 0
-0.0505980 0.0734841 -0.0279984 255 140 0
-0.0483261 0.0734830 -0.0279994 255 140 0
-0.0460544 0.0734825 -0.0280002 255 140 0
-0.0437826 0.0734818 -0.0280009 255 140 0
-0.0415109 0.0734810 -0.0280020 255 140 0
-0.0392391 0.0734804 -0.0280030 255 140 0
-0.0369669 0.0734801 -0.0280035 255 140 0
-0.0346950 0.0734797 -0.0280039 255 140 0
-0.0324236 0.0734793 -0.0280045 255 140 0
-0.0301521 0.0734789 -0.0280050 255 140 0
-0.0278804 0.0734785 -0.0280055 255 140 0
-0.0256087 0.0734781 -0.0280060 255 140 0
-0.0233370 0.0734778 -0.0280063 255 140 0
-0.0210652 0.0734774 -0.0280067 255 140 0
-0.0187935 0.0734770 -0.0280072 255 140 0
-0.0165216 0.0734764 -0.0280080 255 140 0
-0.0142498 0.0734761 -0.0280089 255 140 0
-0.0119774 0.0734764 -0.0280089 255 140 0
-0.0097053 0.0734776 -0.0280091 255 140 0
-0.0074339 0.0734773 -0.0280098 255 140 0
-0.0051622 0.0734771 -0.0280103 255 140 0
-0.0028904 0.0734772 -0.0280108 255 140 0
-0.0006184 0.0734773 -0.0280112 255 140 0
0.0016533 0.0734779 -0.0280116 255 140 0
0.0039252 0.0734775 -0.0280119 255 140 0
0.0061970 0.0734774 -0.0280120 255 140 0
0.0084690 0.0734778 -0.0280112 255 140 0
0.0107409 0.0734826 -0.0280037 255 140 0
0.0130133 0.0734820 -0.0280044 255 140 0
0.0152854 0.0734932 -0.0279870 255 140 0
0.0175568 0.0735196 -0.0279473 255 140 0
0.0198284 0.0735497 -0.0279017 255 140 0
0.0221001 0.0735857 -0.0278462 255 140 0
-0.0823974 0.0758788 -0.0278160 255 140 0
-0.0801280 0.0758316 -0.0278886 255 140 0
-0.0778585 0.0757907 -0.0279507 255 140 0
-0.0755884 0.0757668 -0.0279867 255 140 0
-0.0733170 0.0757581 -0.0279990 255 140 0
-0.0710453 0.0757535 -0.0280054 255 140 0
-0.0687736 0.0757516 -0.0280079 255 140 0
-0.0665017 0.0757506 -0.0280098 255 140 0
-0.0642297 0.0757498 -0.0280110 255 140 0
-0.0619573 0.0757491 -0.0280113 255 140 0
-0.0596852 0.0757482 -0.0280119 255 140 0
-0.0574136 0.0757476 -0.0280127 255 140 0
-0.0551419 0.0757470 -0.0280134 255 140 0
-0.0528701 0.0757458 -0.0280141 255 140 0
-0.0505983 0.0757444 -0.0280147 255 140 0
-0.0483265 0.0757438 -0.0280152 255 140 0
-0.0460548 0.0757435 -0.0280155 255 140 0
-0.0437830 0.0757432 -0.0280160 255 140 0
-0.0415112 0.0757424 -0.0280167 255 140 0
-0.0392395 0.0757419 -0.0280174 255 140 0
-0.0369672 0.0757419 -0.0280174 255 140 0
-0.0346953 0.0757417 -0.0280175 255 140 0
-0.0324239 0.0757414 -0.0280179 255 140 0
-0.0301523 0.0757411 -0.0280182 255 140 0
-0.0278806 0.0757408 -0.0280184 255 140 0
-0.0256089 0.0757406 -0.0280186 255 140 0
-0.0233371 0.0757403 -0.0280188 255 140 0
-0.0210654 0.0757400 -0.0280190 255 140 0
-0.0187937 0.0757396 -0.0280194 255 140 0
-0.0165219 0.0757391 -0.0280200 255 140 0
-0.0142500 0.0757388 -0.0280207 255 140 0
-0.0119775 0.0757391 -0.0280207 255 140 0
-0.0097054 0.0757402 -0.0280206 255 140 0
-0.0074340 0.0757406 -0.0280210 255 140 0
-0.0051624 0.0757406 -0.0280214 255 140 0
-0.0028906 0.0757404 -0.0280218 255 140 0
-0.0006186 0.0757409 -0.0280220 255 140 0
0.0016532 0.0757415 -0.0280224 255 140 0
0.0039250 0.0757414 -0.0280225 255 140 0
0.0061968 0.0757413 -0.0280225 255 140 0
0.0084688 0.0757416 -0.0280219 255 140 0
0.0107407 0.0757452 -0.0280162 255 140 0
0.0130132 0.0757457 -0.0280153 255 140 0
0.0152853 0.0757563 -0.0279990 255 140 0
0.0175566 0.0757754 -0.0279705 255 140 0
0.0198281 0.0758042 -0.0279268 255 140 0
0.0220997 0.0758458 -0.0278624 255 140 0
-0.0823987 0.0781194 -0.0278638 255 140 0
-0.0801292 0.0780754 -0.0279314 255 140 0
-0.0778594 0.0780426 -0.0279807 255 140 0
-0.0755887 0.0780238 -0.0280083 255 140 0
-0.0733173 0.0780175 -0.0280168 255 140 0
-0.0710457 0.0780144 -0.0280211 255 140 0
-0.0687740 0.0780132 -0.0280228 255 140 0
-0.0665022 0.0780124 -0.0280242 255 140 0
-0.0642303 0.0780119 -0.0280250 255 140 0
-0.0619576 0.0780110 -0.0280247 255 140 0
-0.0596853 0.0780107 -0.0280250 255 140 0
-0.0574138 0.0780101 -0.0280255 255 140 0
-0.0551421 0.0780093 -0.0280259 255 140 0
-0.0528703 0.0780075 -0.0280263 255 140 0
-0.0505984 0.0780072 -0.0280267 255 140 0
-0.0483267 0.0780069 -0.0280269 255 140 0
-0.0460550 0.0780068 -0.0280270 255 140 0
-0.0437833 0.0780065 -0.0280273 255 140 0
-0.0415115 0.0780062 -0.0280278 255 140 0
-0.0392397 0.0780055 -0.0280284 255 140 0
-0.0369674 0.0780055 -0.0280281 255 140 0
-0.0346953 0.0780056 -0.0280280 255 140 0
-0.0324239 0.0780053 -0.0280282 255 140 0
-0.0301526 0.0780051 -0.0280284 255 140 0
-0.0278808 0.0780048 -0.0280283 255 140 0
-0.0256091 0.0780047 -0.0280284 255 140 0
-0.0233373 0.0780044 -0.0280284 255 140 0
-0.0210657 0.0780042 -0.0280285 255 140 0
-0.0187939 0.0780038 -0.0280287 255 140 0
-0.0165220 0.0780036 -0.0280291 255 140 0
-0.0142502 0.0780031 -0.0280296 255 140 0
-0.0119776 0.0780033 -0.0280295 255 140 0
-0.0097055 0.0780036 -0.0280293 255 140 0
-0.0074341 0.0780043 -0.0280296 255 140 0
-0.0051625 0.0780048 -0.0280299 255 140 0
-0.0028907 0.0780049 -0.0280302 255 140 0
-0.0006187 0.0780051 -0.0280302 255 140 0
0.0016532 0.0780058 -0.0280304 255 140 0
0.0039248 0.0780066 -0.0280305 255 140 0
0.0061967 0.0780066 -0.0280303 255 140 0
0.0084687 0.0780069 -0.0280300 255 140 0
0.0107406 0.0780098 -0.0280255 255 140 0
0.0130132 0.0780106 -0.0280236 255 140 0
0.0152853 0.0780205 -0.0280084 255 140 0
0.0175565 0.0780344 -0.0279879 255 140 0
0.0198279 0.0780621 -0.0279461 255 140 0
0.0220995 0.0781072 -0.0278767 255 140 0
-0.0823999 0.0803604 -0.0279098 255 140 0
-0.0801305 0.0803231 -0.0279667 255 140 0
-0.0778602 0.0802998 -0.0280010 255 140 0
-0.0755894 0.0802865 -0.0280202 255 140 0
-0.0733179 0.0802819 -0.0280262 255 140 0
-0.0710463 0.0802796 -0.0280293 255 140 0
-0.0687742 0.0802787 -0.0280305 255 140 0
-0.0665020 0.0802782 -0.0280313 255 140 0
-0.0642300 0.0802779 -0.0280321 255 140 0
-0.0619578 0.0802769 -0.0280317 255 140 0
-0.0596855 0.0802766 -0.0280316 255 140 0
-0.0574139 0.0802761 -0.0280320 255 140 0
-0.0551422 0.0802753 -0.0280324 255 140 0
-0.0528704 0.0802737 -0.0280327 255 140 0
-0.0505986 0.0802736 -0.0280329 255 140 0
-0.0483268 0.0802734 -0.0280329 255 140 0
-0.0460551 0.0802731 -0.0280330 255 140 0
-0.0437834 0.0802729 -0.0280332 255 140 0
-0.0415116 0.0802724 -0.0280337 255 140 0
-0.0392399 0.0802720 -0.0280342 255 140 0
-0.0369674 0.0802721 -0.0280336 255 140 0
-0.0346954 0.0802718 -0.0280333 255 140 0
-0.0324241 0.0802715 -0.0280335 255 140 0
-0.0301527 0.0802713 -0.0280337 255 140 0
-0.0278809 0.0802711 -0.0280336 255 140 0
-0.0256092 0.0802710 -0.0280336 255 140 0
-0.0233375 0.0802710 -0.0280335 255 140 0
-0.0210658 0.0802708 -0.0280335 255 140 0
-0.0187940 0.0802705 -0.0280336 255 140 0
-0.0165222 0.0802700 -0.0280339 255 140 0
-0.0142503 0.0802696 -0.0280344 255 140 0
-0.0119777 0.0802699 -0.0280342 255 140 0
-0.0097055 0.0802698 -0.0280341 255 140 0
-0.0074341 0.0802702 -0.0280342 255 140 0
-0.0051626 0.0802714 -0.0280342 255 140 0
-0.0028908 0.0802714 -0.0280344 255 140 0
-0.0006188 0.0802718 -0.0280344 255 140 0
0.0016531 0.0802722 -0.0280345 255 140 0
0.0039248 0.0802732 -0.0280345 255 140 0
0.0061966 0.0802734 -0.0280343 255 140 0
0.0084686 0.0802735 -0.0280340 255 140 0
0.0107405 0.0802759 -0.0280303 255 140 0
0.0130133 0.0802772 -0.0280282 255 140 0
0.0152854 0.0802864 -0.0280138 255 140 0
0.0175565 0.0802977 -0.0279971 255 140 0
0.0198278 0.0803242 -0.0279569 255 140 0
0.0220994 0.0803696 -0.0278876 255 140 0
-0.0846691 0.0826629 -0.0278599 255 140 0
-0.0824007 0.0826121 -0.0279383 255 140 0
-0.0801314 0.0825771 -0.0279909 255 140 0
-0.0778606 0.0825607 -0.0280146 255 140 0
-0.0755895 0.0825511 -0.0280279 255 140 0
-0.0733180 0.0825477 -0.0280324 255 140 0
-0.0710463 0.0825460 -0.0280345 255 140 0
-0.0687744 0.0825454 -0.0280354 255 140 0
-0.0665024 0.0825451 -0.0280360 255 140 0
-0.0642306 0.0825448 -0.0280367 255 140 0
-0.0619578 0.0825436 -0.0280360 255 140 0
-0.0596855 0.0825434 -0.0280357 255 140 0
-0.0574141 0.0825429 -0.0280362 255 140 0
-0.0551426 0.0825417 -0.0280366 255 140 0
-0.0528707 0.0825405 -0.0280367 255 140 0
-0.0505987 0.0825402 -0.0280367 255 140 0
-0.0483270 0.0825401 -0.0280366 255 140 0
-0.0460553 0.0825400 -0.0280367 255 140 0
-0.0437836 0.0825396 -0.0280369 255 140 0
-0.0415118 0.0825395 -0.0280372 255 140 0
-0.0392400 0.0825390 -0.0280376 255 140 0
-0.0369675 0.0825392 -0.0280369 255 140 0
-0.0346955 0.0825393 -0.0280365 255 140 0
-0.0324242 0.0825392 -0.0280367 255 140 0
-0.0301527 0.0825388 -0.0280367 255 140 0
-0.0278810 0.0825387 -0.0280367 255 140 0
-0.0256093 0.0825385 -0.0280365 255 140 0
-0.0233375 0.0825382 -0.0280365 255 140 0
-0.0210659 0.0825380 -0.0280364 255 140 0
-0.0187942 0.0825377 -0.0280365 255 140 0
-0.0165222 0.0825371 -0.0280368 255 140 0
-0.0142504 0.0825366 -0.0280372 255 140 0
-0.0119776 0.0825368 -0.0280369 255 140 0
-0.0097054 0.0825371 -0.0280367 255 140 0
-0.0074342 0.0825371 -0.0280369 255 140 0
-0.0051626 0.0825386 -0.0280369 255 140 0
-0.0028908 0.0825388 -0.0280370 255 140 0
-0.0006188 0.0825388 -0.0280371 255 140 0
0.0016530 0.0825395 -0.0280370 255 140 0
0.0039247 0.0825401 -0.0280371 255 140 0
0.0061965 0.0825407 -0.0280368 255 140 0
0.0084686 0.0825408 -0.0280366 255 140 0
0.0107405 0.0825427 -0.0280337 255 140 0
0.0130134 0.0825440 -0.0280314 255 140 0
0.0152855 0.0825520 -0.0280188 255 140 0
0.0175565 0.0825605 -0.0280064 255 140 0
0.0198277 0.0825842 -0.0279709 255 140 0
0.0220990 0.0826254 -0.0279082 255 140 0
0.0243703 0.0826596 -0.0278565 255 140 0
-0.0846693 0.0849316 -0.0278620 255 140 0
-0.0824009 0.0848753 -0.0279481 255 140 0
-0.0801318 0.0848390 -0.0280025 255 140 0
-0.0778611 0.0848258 -0.0280203 255 140 0
-0.0755898 0.0848183 -0.0280305 255 140 0
-0.0733182 0.0848154 -0.0280341 255 140 0
-0.0710467 0.0848140 -0.0280359 255 140 0
-0.0687750 0.0848135 -0.0280364 255 140 0
-0.0665027 0.0848132 -0.0280369 255 140 0
-0.0642305 0.0848128 -0.0280376 255 140 0
-0.0619577 0.0848116 -0.0280368 255 140 0
-0.0596854 0.0848114 -0.0280365 255 140 0
-0.0574140 0.0848105 -0.0280370 255 140 0
-0.0551425 0.0848094 -0.0280373 255 140 0
-0.0528705 0.0848085 -0.0280374 255 140 0
-0.0505988 0.0848082 -0.0280372 255 140 0
-0.0483271 0.0848082 -0.0280371 255 140 0
-0.0460554 0.0848082 -0.0280371 255 140 0
-0.0437836 0.0848082 -0.0280372 255 140 0
-0.0415118 0.0848076 -0.0280375 255 140 0
-0.0392400 0.0848073 -0.0280379 255 140 0
-0.0369675 0.0848075 -0.0280369 255 140 0
-0.0346951 0.0848077 -0.0280364 255 140 0
-0.0324240 0.0848075 -0.0280365 255 140 0
-0.0301527 0.0848072 -0.0280366 255 140 0
-0.0278810 0.0848070 -0.0280364 255 140 0
-0.0256092 0.0848069 -0.0280362 255 140 0
-0.0233375 0.0848067 -0.0280362 255 140 0
-0.0210658 0.0848064 -0.0280362 255 140 0
-0.0187941 0.0848061 -0.0280363 255 140 0
-0.0165222 0.0848058 -0.0280366 255 140 0
-0.0142504 0.0848053 -0.0280370 255 140 0
-0.0119776 0.0848052 -0.0280364 255 140 0
-0.0097053 0.0848054 -0.0280363 255 140 0
-0.0074341 0.0848053 -0.0280365 255 140 0
-0.0051626 0.0848066 -0.0280366 255 140 0
-0.0028908 0.0848070 -0.0280367 255 140 0
-0.0006188 0.0848073 -0.0280368 255 140 0
0.0016530 0.0848076 -0.0280367 255 140 0
0.0039247 0.0848085 -0.0280367 255 140 0
0.0061965 0.0848091 -0.0280366 255 140 0
0.0084685 0.0848091 -0.0280364 255 140 0
0.0107405 0.0848104 -0.0280345 255 140 0
0.0130134 0.0848117 -0.0280321 255 140 0
0.0152856 0.0848181 -0.0280222 255 140 0
0.0175565 0.0848240 -0.0280138 255 140 0
0.0198275 0.0848432 -0.0279854 255 140 0
0.0220986 0.0848773 -0.0279343 255 140 0
0.0243697 0.0849117 -0.0278831 255 140 0
-0.0846691 0.0872053 -0.0278551 255 140 0
-0.0824005 0.0871454 -0.0279459 255 140 0
-0.0801316 0.0871077 -0.0280017 255 140 0
-0.0778607 0.0870966 -0.0280166 255 140 0
-0.0755894 0.0870901 -0.0280256 255 140 0
-0.0733177 0.0870869 -0.0280297 255 140 0
-0.0710461 0.0870853 -0.0280315 255 140 0
-0.0687745 0.0870847 -0.0280322 255 140 0
-0.0665025 0.0870843 -0.0280326 255 140 0
-0.0642303 0.0870837 -0.0280331 255 140 0
-0.0619575 0.0870827 -0.0280323 255 140 0
-0.0596853 0.0870824 -0.0280318 255 140 0
-0.0574139 0.0870819 -0.0280322 255 140 0
-0.0551423 0.0870805 -0.0280325 255 140 0
-0.0528705 0.0870797 -0.0280324 255 140 0
-0.0505988 0.0870798 -0.0280321 255 140 0
-0.0483270 0.0870793 -0.0280321 255 140 0
-0.0460554 0.0870792 -0.0280319 255 140 0
-0.0437837 0.0870792 -0.0280319 255 140 0
-0.0415118 0.0870789 -0.0280322 255 140 0
-0.0392400 0.0870786 -0.0280325 255 140 0
-0.0369674 0.0870788 -0.0280316 255 140 0
-0.0346950 0.0870790 -0.0280310 255 140 0
-0.0324239 0.0870788 -0.0280310 255 140 0
-0.0301525 0.0870787 -0.0280309 255 140 0
-0.0278809 0.0870786 -0.0280306 255 140 0
-0.0256091 0.0870784 -0.0280305 255 140 0
-0.0233375 0.0870781 -0.0280304 255 140 0
-0.0210658 0.0870779 -0.0280304 255 140 0
-0.0187941 0.0870774 -0.0280304 255 140 0
-0.0165222 0.0870769 -0.0280307 255 140 0
-0.0142503 0.0870765 -0.0280310 255 140 0
-0.0119774 0.0870768 -0.0280304 255 140 0
-0.0097051 0.0870770 -0.0280303 255 140 0
-0.0074340 0.0870771 -0.0280305 255 140 0
-0.0051625 0.0870779 -0.0280305 255 140 0
-0.0028907 0.0870785 -0.0280305 255 140 0
-0.0006187 0.0870786 -0.0280307 255 140 0
0.0016531 0.0870791 -0.0280307 255 140 0
0.0039248 0.0870795 -0.0280306 255 140 0
0.0061966 0.0870804 -0.0280306 255 140 0
0.0084686 0.0870803 -0.0280305 255 140 0
0.0107405 0.0870813 -0.0280292 255 140 0
0.0130136 0.0870826 -0.0280268 255 140 0
0.0152858 0.0870880 -0.0280186 255 140 0
0.0175567 0.0870924 -0.0280127 255 140 0
0.0198275 0.0871091 -0.0279882 255 140 0
0.0220984 0.0871391 -0.0279436 255 140 0
0.0243693 0.0871732 -0.0278932 255 140 0
-0.0846676 0.0894979 -0.0278186 255 140 0
-0.0823992 0.0894330 -0.0279156 255 140 0
-0.0801307 0.0893927 -0.0279749 255 140 0
-0.0778601 0.0893815 -0.0279909 255 140 0
-0.0755888 0.0893740 -0.0280010 255 140 0
-0.0733173 0.0893702 -0.0280060 255 140 0
-0.0710456 0.0893683 -0.0280084 255 140 0
-0.0687737 0.0893677 -0.0280091 255 140 0
-0.0665018 0.0893673 -0.0280094 255 140 0
-0.0642299 0.0893668 -0.0280097 255 140 0
-0.0619567 0.0893657 -0.0280086 255 140 0
-0.0596842 0.0893655 -0.0280078 255 140 0
-0.0574130 0.0893654 -0.0280080 255 140 0
-0.0551415 0.0893642 -0.0280081 255 140 0
-0.0528695 0.0893635 -0.0280077 255 140 0
-0.0505978 0.0893633 -0.0280073 255 140 0
-0.0483261 0.0893633 -0.0280071 255 140 0
-0.0460546 0.0893631 -0.0280068 255 140 0
-0.0437830 0.0893630 -0.0280066 255 140 0
-0.0415112 0.0893628 -0.0280066 255 140 0
-0.0392394 0.0893625 -0.0280067 255 140 0
-0.0369667 0.0893628 -0.0280057 255 140 0
-0.0346943 0.0893630 -0.0280050 255 140 0
-0.0324233 0.0893629 -0.0280049 255 140 0
-0.0301519 0.0893629 -0.0280046 255 140 0
-0.0278802 0.0893629 -0.0280041 255 140 0
-0.0256086 0.0893627 -0.0280039 255 140 0
-0.0233369 0.0893623 -0.0280039 255 140 0
-0.0210653 0.0893620 -0.0280039 255 140 0
-0.0187936 0.0893616 -0.0280040 255 140 0
-0.0165217 0.0893611 -0.0280042 255 140 0
-0.0142498 0.0893608 -0.0280045 255 140 0
-0.0119768 0.0893612 -0.0280040 255 140 0
-0.0097045 0.0893612 -0.0280038 255 140 0
-0.0074334 0.0893616 -0.0280040 255 140 0
-0.0051620 0.0893626 -0.0280041 255 140 0
-0.0028902 0.0893630 -0.0280041 255 140 0
-0.0006183 0.0893630 -0.0280043 255 140 0
0.0016535 0.0893631 -0.0280045 255 140 0
0.0039251 0.0893637 -0.0280044 255 140 0
0.0061969 0.0893646 -0.0280045 255 140 0
0.0084689 0.0893644 -0.0280046 255 140 0
0.0107408 0.0893650 -0.0280037 255 140 0
0.0130139 0.0893661 -0.0280017 255 140 0
0.0152862 0.0893712 -0.0279942 255 140 0
0.0175569 0.0893751 -0.0279891 255 140 0
0.0198277 0.0893909 -0.0279663 255 140 0
0.0220984 0.0894193 -0.0279247 255 140 0
0.0243693 0.0894525 -0.0278764 255 140 0
-0.0846694 0.0917241 -0.0278837 255 140 0
-0.0824010 0.0916646 -0.0279709 255 140 0
-0.0801317 0.0916273 -0.0280251 255 140 0
-0.0778611 0.0916158 -0.0280408 255 140 0
-0.0755901 0.0916079 -0.0280512 255 140 0
-0.0733187 0.0916033 -0.0280570 255 140 0
-0.0710472 0.0916010 -0.0280601 255 140 0
-0.0687753 0.0916000 -0.0280616 255 140 0
-0.0665032 0.0915990 -0.0280625 255 140 0
-0.0642311 0.0915979 -0.0280634 255 140 0
-0.0619583 0.0915964 -0.0280630 255 140 0
-0.0596856 0.0915955 -0.0280628 255 140 0
-0.0574146 0.0915949 -0.0280633 255 140 0
-0.0551430 0.0915935 -0.0280638 255 140 0
-0.0528711 0.0915927 -0.0280639 255 140 0
-0.0505993 0.0915922 -0.0280640 255 140 0
-0.0483275 0.0915919 -0.0280640 255 140 0
-0.0460558 0.0915918 -0.0280640 255 140 0
-0.0437844 0.0915913 -0.0280641 255 140 0
-0.0415123 0.0915909 -0.0280646 255 140 0
-0.0392405 0.0915905 -0.0280650 255 140 0
-0.0369678 0.0915906 -0.0280644 255 140 0
-0.0346955 0.0915906 -0.0280641 255 140 0
-0.0324246 0.0915902 -0.0280642 255 140 0
-0.0301533 0.0915899 -0.0280643 255 140 0
-0.0278816 0.0915897 -0.0280642 255 140 0
-0.0256099 0.0915895 -0.0280641 255 140 0
-0.0233382 0.0915893 -0.0280639 255 140 0
-0.0210665 0.0915891 -0.0280637 255 140 0
-0.0187948 0.0915888 -0.0280635 255 140 0
-0.0165229 0.0915885 -0.0280636 255 140 0
-0.0142510 0.0915881 -0.0280638 255 140 0
-0.0119779 0.0915885 -0.0280631 255 140 0
-0.0097054 0.0915887 -0.0280627 255 140 0
-0.0074344 0.0915890 -0.0280630 255 140 0
-0.0051630 0.0915890 -0.0280630 255 140 0
-0.0028912 0.0915903 -0.0280629 255 140 0
-0.0006192 0.0915908 -0.0280628 255 140 0
0.0016527 0.0915909 -0.0280628 255 140 0
0.0039243 0.0915917 -0.0280625 255 140 0
0.0061961 0.0915930 -0.0280624 255 140 0
0.0084681 0.0915931 -0.0280620 255 140 0
0.0107401 0.0915939 -0.0280608 255 140 0
0.0130134 0.0915956 -0.0280581 255 140 0
0.0152857 0.0916014 -0.0280499 255 140 0
0.0175564 0.0916050 -0.0280452 255 140 0
0.0198270 0.0916223 -0.0280209 255 140 0
0.0220976 0.0916535 -0.0279756 255 140 0
0.0243682 0.0916906 -0.0279218 255 140 0
-0.0846697 0.0939728 -0.0279143 255 140 0
-0.0824019 0.0939148 -0.0279973 255 140 0
-0.0801326 0.0938779 -0.0280498 255 140 0
-0.0778623 0.0938649 -0.0280677 255 140 0
-0.0755913 0.0938563 -0.0280795 255 140 0
-0.0733196 0.0938512 -0.0280860 255 140 0
-0.0710477 0.0938486 -0.0280896 255 140 0
-0.0687759 0.0938473 -0.0280916 255 140 0
-0.0665038 0.0938462 -0.0280931 255 140 0
-0.0642319 0.0938443 -0.0280944 255 140 0
-0.0619594 0.0938429 -0.0280945 255 140 0
-0.0596865 0.0938422 -0.0280951 255 140 0
-0.0574155 0.0938411 -0.0280959 255 140 0
-0.0551439 0.0938395 -0.0280964 255 140 0
-0.0528720 0.0938381 -0.0280969 255 140 0
-0.0506003 0.0938377 -0.0280974 255 140 0
-0.0483285 0.0938372 -0.0280978 255 140 0
-0.0460569 0.0938370 -0.0280981 255 140 0
-0.0437853 0.0938368 -0.0280983 255 140 0
-0.0415133 0.0938362 -0.0280988 255 140 0
-0.0392416 0.0938355 -0.0280995 255 140 0
-0.0369687 0.0938355 -0.0280990 255 140 0
-0.0346962 0.0938357 -0.0280988 255 140 0
-0.0324254 0.0938351 -0.0280992 255 140 0
-0.0301540 0.0938347 -0.0280995 255 140 0
-0.0278823 0.0938343 -0.0280998 255 140 0
-0.0256106 0.0938340 -0.0280997 255 140 0
-0.0233389 0.0938340 -0.0280994 255 140 0
-0.0210673 0.0938340 -0.0280991 255 140 0
-0.0187956 0.0938340 -0.0280989 255 140 0
-0.0165237 0.0938337 -0.0280989 255 140 0
-0.0142517 0.0938334 -0.0280991 255 140 0
-0.0119784 0.0938336 -0.0280980 255 140 0
-0.0097059 0.0938342 -0.0280973 255 140 0
-0.0074350 0.0938341 -0.0280976 255 140 0
-0.0051636 0.0938346 -0.0280978 255 140 0
-0.0028917 0.0938360 -0.0280979 255 140 0
-0.0006197 0.0938361 -0.0280975 255 140 0
0.0016522 0.0938362 -0.0280972 255 140 0
0.0039237 0.0938367 -0.0280966 255 140 0
0.0061955 0.0938374 -0.0280961 255 140 0
0.0084677 0.0938382 -0.0280955 255 140 0
0.0107396 0.0938393 -0.0280937 255 140 0
0.0130131 0.0938413 -0.0280905 255 140 0
0.0152854 0.0938483 -0.0280811 255 140 0
0.0175561 0.0938524 -0.0280757 255 140 0
0.0198266 0.0938720 -0.0280485 255 140 0
0.0220972 0.0939074 -0.0279979 255 140 0
0.0243679 0.0939479 -0.0279398 255 140 0
-0.0846676 0.0963039 -0.0278242 255 140 0
-0.0823989 0.0962349 -0.0279233 255 140 0
-0.0801299 0.0961868 -0.0279909 255 140 0
-0.0778605 0.0961645 -0.0280224 255 140 0
-0.0755895 0.0961506 -0.0280415 255 140 0
-0.0733181 0.0961444 -0.0280496 255 140 0
-0.0710466 0.0961408 -0.0280539 255 140 0
-0.0687750 0.0961395 -0.0280559 255 140 0
-0.0665027 0.0961382 -0.0280571 255 140 0
-0.0642307 0.0961367 -0.0280582 255 140 0
-0.0619581 0.0961354 -0.0280578 255 140 0
-0.0596852 0.0961348 -0.0280578 255 140 0
-0.0574144 0.0961341 -0.0280583 255 140 0
-0.0551428 0.0961327 -0.0280587 255 140 0
-0.0528709 0.0961316 -0.0280588 255 140 0
-0.0505991 0.0961314 -0.0280589 255 140 0
-0.0483272 0.0961312 -0.0280589 255 140 0
-0.0460557 0.0961311 -0.0280589 255 140 0
-0.0437842 0.0961307 -0.0280588 255 140 0
-0.0415123 0.0961304 -0.0280591 255 140 0
-0.0392405 0.0961299 -0.0280595 255 140 0
-0.0369675 0.0961302 -0.0280587 255 140 0
-0.0346951 0.0961302 -0.0280583 255 140 0
-0.0324246 0.0961300 -0.0280584 255 140 0
-0.0301531 0.0961296 -0.0280585 255 140 0
-0.0278814 0.0961294 -0.0280584 255 140 0
-0.0256097 0.0961292 -0.0280583 255 140 0
-0.0233380 0.0961289 -0.0280582 255 140 0
-0.0210665 0.0961287 -0.0280580 255 140 0
-0.0187948 0.0961285 -0.0280578 255 140 0
-0.0165229 0.0961281 -0.0280579 255 140 0
-0.0142509 0.0961277 -0.0280581 255 140 0
-0.0119776 0.0961285 -0.0280573 255 140 0
-0.0097051 0.0961286 -0.0280568 255 140 0
-0.0074342 0.0961287 -0.0280571 255 140 0
-0.0051629 0.0961291 -0.0280573 255 140 0
-0.0028911 0.0961302 -0.0280572 255 140 0
-0.0006191 0.0961306 -0.0280570 255 140 0
0.0016527 0.0961308 -0.0280569 255 140 0
0.0039243 0.0961316 -0.0280564 255 140 0
0.0061961 0.0961327 -0.0280562 255 140 0
0.0084682 0.0961334 -0.0280556 255 140 0
0.0107401 0.0961345 -0.0280539 255 140 0
0.0130135 0.0961368 -0.0280508 255 140 0
0.0152859 0.0961438 -0.0280414 255 140 0
0.0175564 0.0961487 -0.0280351 255 140 0
0.0198268 0.0961682 -0.0280076 255 140 0
0.0220975 0.0962039 -0.0279573 255 140 0
0.0243682 0.0962441 -0.0279002 255 140 0
-0.0846658 0.0986127 -0.0277679 255 140 0
-0.0823972 0.0985374 -0.0278752 255 140 0
-0.0801285 0.0984826 -0.0279524 255 140 0
-0.0778598 0.0984530 -0.0279941 255 140 0
-0.0755889 0.0984351 -0.0280187 255 140 0
-0.0733176 0.0984281 -0.0280280 255 140 0
-0.0710459 0.0984240 -0.0280330 255 140 0
-0.0687743 0.0984222 -0.0280351 255 140 0
-0.0665025 0.0984209 -0.0280363 255 140 0
-0.0642305 0.0984199 -0.0280373 255 140 0
-0.0619575 0.0984185 -0.0280365 255 140 0
-0.0596847 0.0984179 -0.0280361 255 140 0
-0.0574140 0.0984175 -0.0280365 255 140 0
-0.0551424 0.0984168 -0.0280368 255 140 0
-0.0528705 0.0984155 -0.0280369 255 140 0
-0.0505987 0.0984152 -0.0280366 255 140 0
-0.0483269 0.0984150 -0.0280363 255 140 0
-0.0460552 0.0984152 -0.0280360 255 140 0
-0.0437837 0.0984152 -0.0280359 255 140 0
-0.0415117 0.0984148 -0.0280360 255 140 0
-0.0392399 0.0984143 -0.0280363 255 140 0
-0.0369668 0.0984145 -0.0280353 255 140 0
-0.0346942 0.0984147 -0.0280347 255 140 0
-0.0324238 0.0984145 -0.0280347 255 140 0
-0.0301526 0.0984142 -0.0280346 255 140 0
-0.0278808 0.0984142 -0.0280344 255 140 0
-0.0256091 0.0984139 -0.0280342 255 140 0
-0.0233375 0.0984136 -0.0280341 255 140 0
-0.0210661 0.0984133 -0.0280339 255 140 0
-0.0187944 0.0984133 -0.0280338 255 140 0
-0.0165225 0.0984131 -0.0280338 255 140 0
-0.0142505 0.0984126 -0.0280340 255 140 0
-0.0119771 0.0984128 -0.0280334 255 140 0
-0.0097045 0.0984134 -0.0280330 255 140 0
-0.0074338 0.0984132 -0.0280332 255 140 0
-0.0051625 0.0984143 -0.0280333 255 140 0
-0.0028907 0.0984146 -0.0280332 255 140 0
-0.0006187 0.0984152 -0.0280330 255 140 0
0.0016530 0.0984156 -0.0280331 255 140 0
0.0039246 0.0984165 -0.0280326 255 140 0
0.0061963 0.0984178 -0.0280324 255 140 0
0.0084685 0.0984182 -0.0280318 255 140 0
0.0107403 0.0984201 -0.0280297 255 140 0
0.0130138 0.0984228 -0.0280265 255 140 0
0.0152862 0.0984304 -0.0280160 255 140 0
0.0175566 0.0984367 -0.0280074 255 140 0
0.0198270 0.0984582 -0.0279776 255 140 0
0.0220975 0.0984960 -0.0279244 255 140 0
0.0243682 0.0985358 -0.0278687 255 140 0
-0.0823967 0.1008130 -0.0278660 255 140 0
-0.0801275 0.1007567 -0.0279457 255 140 0
-0.0778595 0.1007226 -0.0279933 255 140 0
-0.0755886 0.1007029 -0.0280208 255 140 0
-0.0733173 0.1006956 -0.0280305 255 140 0
-0.0710459 0.1006915 -0.0280358 255 140 0
-0.0687741 0.1006891 -0.0280383 255 140 0
-0.0665022 0.1006878 -0.0280397 255 140 0
-0.0642302 0.1006868 -0.0280408 255 140 0
-0.0619574 0.1006859 -0.0280401 255 140 0
-0.0596845 0.1006851 -0.0280399 255 140 0
-0.0574139 0.1006847 -0.0280403 255 140 0
-0.0551424 0.1006842 -0.0280407 255 140 0
-0.0528705 0.1006828 -0.0280407 255 140 0
-0.0505987 0.1006821 -0.0280405 255 140 0
-0.0483269 0.1006822 -0.0280402 255 140 0
-0.0460553 0.1006821 -0.0280400 255 140 0
-0.0437837 0.1006818 -0.0280400 255 140 0
-0.0415118 0.1006815 -0.0280401 255 140 0
-0.0392400 0.1006811 -0.0280404 255 140 0
-0.0369668 0.1006814 -0.0280394 255 140 0
-0.0346943 0.1006815 -0.0280387 255 140 0
-0.0324240 0.1006812 -0.0280388 255 140 0
-0.0301526 0.1006811 -0.0280387 255 140 0
-0.0278809 0.1006809 -0.0280385 255 140 0
-0.0256093 0.1006807 -0.0280382 255 140 0
-0.0233376 0.1006807 -0.0280380 255 140 0
-0.0210662 0.1006806 -0.0280377 255 140 0
-0.0187945 0.1006802 -0.0280375 255 140 0
-0.0165226 0.1006798 -0.0280375 255 140 0
-0.0142506 0.1006792 -0.0280377 255 140 0
-0.0119771 0.1006800 -0.0280368 255 140 0
-0.0097045 0.1006799 -0.0280364 255 140 0
-0.0074337 0.1006802 -0.0280366 255 140 0
-0.0051625 0.1006815 -0.0280366 255 140 0
-0.0028908 0.1006817 -0.0280363 255 140 0
-0.0006188 0.1006819 -0.0280361 255 140 0
0.0016530 0.1006826 -0.0280359 255 140 0
0.0039245 0.1006834 -0.0280356 255 140 0
0.0061963 0.1006847 -0.0280351 255 140 0
0.0084684 0.1006854 -0.0280343 255 140 0
0.0107402 0.1006882 -0.0280310 255 140 0
0.0130138 0.1006914 -0.0280271 255 140 0
0.0152860 0.1007014 -0.0280135 255 140 0
0.0175561 0.1007110 -0.0280001 255 140 0
0.0198264 0.1007378 -0.0279633 255 140 0
0.0220970 0.1007843 -0.0278994 255 140 0
0.0243681 0.1008240 -0.0278444 255 140 0
-0.0823959 0.1030924 -0.0278528 255 140 0
-0.0801267 0.1030347 -0.0279345 255 140 0
-0.0778586 0.1029962 -0.0279885 255 140 0
-0.0755889 0.1029735 -0.0280196 255 140 0
-0.0733176 0.1029654 -0.0280304 255 140 0
-0.0710462 0.1029607 -0.0280364 255 140 0
-0.0687744 0.1029581 -0.0280392 255 140 0
-0.0665022 0.1029567 -0.0280409 255 140 0
-0.0642305 0.1029557 -0.0280421 255 140 0
-0.0619573 0.1029546 -0.0280414 255 140 0
-0.0596845 0.1029539 -0.0280412 255 140 0
-0.0574140 0.1029534 -0.0280417 255 140 0
-0.0551424 0.1029528 -0.0280419 255 140 0
-0.0528706 0.1029519 -0.0280421 255 140 0
-0.0505987 0.1029510 -0.0280419 255 140 0
-0.0483270 0.1029507 -0.0280416 255 140 0
-0.0460555 0.1029507 -0.0280413 255 140 0
-0.0437839 0.1029505 -0.0280412 255 140 0
-0.0415119 0.1029502 -0.0280413 255 140 0
-0.0392400 0.1029499 -0.0280414 255 140 0
-0.0369666 0.1029500 -0.0280402 255 140 0
-0.0346942 0.1029503 -0.0280395 255 140 0
-0.0324240 0.1029500 -0.0280397 255 140 0
-0.0301527 0.1029498 -0.0280396 255 140 0
-0.0278810 0.1029496 -0.0280392 255 140 0
-0.0256093 0.1029495 -0.0280389 255 140 0
-0.0233376 0.1029494 -0.0280386 255 140 0
-0.0210663 0.1029493 -0.0280382 255 140 0
-0.0187946 0.1029493 -0.0280379 255 140 0
-0.0165226 0.1029493 -0.0280379 255 140 0
-0.0142506 0.1029489 -0.0280379 255 140 0
-0.0119770 0.1029494 -0.0280369 255 140 0
-0.0097044 0.1029500 -0.0280363 255 140 0
-0.0074337 0.1029511 -0.0280364 255 140 0
-0.0051625 0.1029513 -0.0280362 255 140 0
-0.0028908 0.1029517 -0.0280360 255 140 0
-0.0006188 0.1029521 -0.0280358 255 140 0
0.0016529 0.1029527 -0.0280353 255 140 0
0.0039245 0.1029537 -0.0280349 255 140 0
0.0061962 0.1029551 -0.0280341 255 140 0
0.0084684 0.1029561 -0.0280330 255 140 0
0.0107402 0.1029598 -0.0280283 255 140 0
0.0130138 0.1029633 -0.0280242 255 140 0
0.0152860 0.1029751 -0.0280080 255 140 0
0.0175559 0.1029889 -0.0279888 255 140 0
0.0198262 0.1030193 -0.0279472 255 140 0
0.0220968 0.1030698 -0.0278782 255 140 0
0.0243677 0.1031075 -0.0278262 255 140 0
-0.0823952 0.1053754 -0.0278364 255 140 0
-0.0801262 0.1053162 -0.0279193 255 140 0
-0.0778574 0.1052734 -0.0279792 255 140 0
-0.0755883 0.1052484 -0.0280140 255 140 0
-0.0733171 0.1052390 -0.0280266 255 140 0
-0.0710459 0.1052336 -0.0280335 255 140 0
-0.0687743 0.1052309 -0.0280365 255 140 0
-0.0665024 0.1052293 -0.0280385 255 140 0
-0.0642304 0.1052281 -0.0280396 255 140 0
-0.0619572 0.1052271 -0.0280389 255 140 0
-0.0596843 0.1052268 -0.0280386 255 140 0
-0.0574139 0.1052261 -0.0280390 255 140 0
-0.0551424 0.1052256 -0.0280393 255 140 0
-0.0528705 0.1052255 -0.0280394 255 140 0
-0.0505987 0.1052245 -0.0280392 255 140 0
-0.0483270 0.1052237 -0.0280388 255 140 0
-0.0460554 0.1052238 -0.0280383 255 140 0
-0.0437838 0.1052236 -0.0280380 255 140 0
-0.0415118 0.1052234 -0.0280380 255 140 0
-0.0392400 0.1052231 -0.0280380 255 140 0
-0.0369666 0.1052237 -0.0280367 255 140 0
-0.0346940 0.1052239 -0.0280359 255 140 0
-0.0324238 0.1052236 -0.0280360 255 140 0
-0.0301526 0.1052235 -0.0280359 255 140 0
-0.0278808 0.1052234 -0.0280355 255 140 0
-0.0256092 0.1052234 -0.0280351 255 140 0
-0.0233375 0.1052233 -0.0280347 255 140 0
-0.0210662 0.1052233 -0.0280343 255 140 0
-0.0187945 0.1052232 -0.0280338 255 140 0
-0.0165226 0.1052230 -0.0280336 255 140 0
-0.0142505 0.1052226 -0.0280334 255 140 0
-0.0119769 0.1052235 -0.0280323 255 140 0
-0.0097042 0.1052254 -0.0280316 255 140 0
-0.0074336 0.1052255 -0.0280315 255 140 0
-0.0051624 0.1052257 -0.0280312 255 140 0
-0.0028907 0.1052259 -0.0280309 255 140 0
-0.0006188 0.1052267 -0.0280307 255 140 0
0.0016530 0.1052274 -0.0280300 255 140 0
0.0039246 0.1052290 -0.0280295 255 140 0
0.0061963 0.1052298 -0.0280286 255 140 0
0.0084684 0.1052312 -0.0280271 255 140 0
0.0107400 0.1052359 -0.0280210 255 140 0
0.0130137 0.1052394 -0.0280169 255 140 0
0.0152859 0.1052524 -0.0279992 255 140 0
0.0175552 0.1052707 -0.0279740 255 140 0
0.0198255 0.1053028 -0.0279299 255 140 0
0.0220965 0.1053523 -0.0278622 255 140 0
-0.0823940 0.1076664 -0.0278075 255 140 0
-0.0801249 0.1076076 -0.0278905 255 140 0
-0.0778562 0.1075574 -0.0279609 255 140 0
-0.0755880 0.1075273 -0.0280026 255 140 0
-0.0733169 0.1075153 -0.0280189 255 140 0
-0.0710456 0.1075084 -0.0280277 255 140 0
-0.0687741 0.1075054 -0.0280313 255 140 0
-0.0665022 0.1075035 -0.0280336 255 140 0
-0.0642303 0.1075024 -0.0280347 255 140 0
-0.0619569 0.1075014 -0.0280340 255 140 0
-0.0596840 0.1075012 -0.0280337 255 140 0
-0.0574137 0.1075003 -0.0280341 255 140 0
-0.0551422 0.1075001 -0.0280342 255 140 0
-0.0528703 0.1074999 -0.0280341 255 140 0
-0.0505986 0.1074996 -0.0280338 255 140 0
-0.0483269 0.1074988 -0.0280331 255 140 0
-0.0460552 0.1074986 -0.0280324 255 140 0
-0.0437836 0.1074988 -0.0280317 255 140 0
-0.0415116 0.1074989 -0.0280311 255 140 0
-0.0392398 0.1074989 -0.0280307 255 140 0
-0.0369665 0.1074995 -0.0280290 255 140 0
-0.0346939 0.1074997 -0.0280278 255 140 0
-0.0324239 0.1074994 -0.0280278 255 140 0
-0.0301523 0.1074991 -0.0280277 255 140 0
-0.0278807 0.1074990 -0.0280273 255 140 0
-0.0256090 0.1074989 -0.0280268 255 140 0
-0.0233373 0.1074989 -0.0280261 255 140 0
-0.0210661 0.1074991 -0.0280255 255 140 0
-0.0187944 0.1074994 -0.0280249 255 140 0
-0.0165224 0.1074995 -0.0280244 255 140 0
-0.0142504 0.1074993 -0.0280240 255 140 0
-0.0119767 0.1075004 -0.0280224 255 140 0
-0.0097040 0.1075023 -0.0280212 255 140 0
-0.0074334 0.1075027 -0.0280210 255 140 0
-0.0051623 0.1075028 -0.0280205 255 140 0
-0.0028905 0.1075033 -0.0280199 255 140 0
-0.0006186 0.1075041 -0.0280194 255 140 0
0.0016531 0.1075049 -0.0280187 255 140 0
0.0039247 0.1075066 -0.0280179 255 140 0
0.0061964 0.1075077 -0.0280166 255 140 0
0.0084685 0.1075097 -0.0280147 255 140 0
0.0107401 0.1075165 -0.0280065 255 140 0
0.0130137 0.1075202 -0.0280022 255 140 0
0.0152857 0.1075351 -0.0279823 255 140 0
0.0175552 0.1075605 -0.0279469 255 140 0
0.0198253 0.1075943 -0.0279004 255 140 0
0.0220957 0.1076391 -0.0278389 255 140 0
-0.0823925 0.1099634 -0.0277697 255 140 0
-0.0801234 0.1099063 -0.0278503 255 140 0
-0.0778547 0.1098482 -0.0279322 255 140 0
-0.0755872 0.1098125 -0.0279827 255 140 0
-0.0733162 0.1097967 -0.0280045 255 140 0
-0.0710452 0.1097880 -0.0280160 255 140 0
-0.0687738 0.1097842 -0.0280207 255 140 0
-0.0665019 0.1097819 -0.0280233 255 140 0
-0.0642299 0.1097804 -0.0280246 255 140 0
-0.0619565 0.1097802 -0.0280238 255 140 0
-0.0596836 0.1097794 -0.0280234 255 140 0
-0.0574134 0.1097790 -0.0280238 255 140 0
-0.0551419 0.1097788 -0.0280237 255 140 0
-0.0528700 0.1097785 -0.0280232 255 140 0
-0.0505981 0.1097788 -0.0280225 255 140 0
-0.0483264 0.1097787 -0.0280218 255 140 0
-0.0460548 0.1097785 -0.0280205 255 140 0
-0.0437833 0.1097788 -0.0280192 255 140 0
-0.0415113 0.1097790 -0.0280179 255 140 0
-0.0392395 0.1097790 -0.0280170 255 140 0
-0.0369659 0.1097802 -0.0280145 255 140 0
-0.0346934 0.1097809 -0.0280129 255 140 0
-0.0324234 0.1097805 -0.0280129 255 140 0
-0.0301520 0.1097800 -0.0280127 255 140 0
-0.0278803 0.1097795 -0.0280126 255 140 0
-0.0256086 0.1097793 -0.0280121 255 140 0
-0.0233370 0.1097793 -0.0280112 255 140 0
-0.0210658 0.1097797 -0.0280101 255 140 0
-0.0187941 0.1097799 -0.0280090 255 140 0
-0.0165222 0.1097804 -0.0280080 255 140 0
-0.0142501 0.1097807 -0.0280072 255 140 0
-0.0119763 0.1097833 -0.0280051 255 140 0
-0.0097036 0.1097842 -0.0280033 255 140 0
-0.0074330 0.1097845 -0.0280028 255 140 0
-0.0051620 0.1097851 -0.0280021 255 140 0
-0.0028902 0.1097857 -0.0280012 255 140 0
-0.0006183 0.1097866 -0.0280000 255 140 0
0.0016534 0.1097881 -0.0279990 255 140 0
0.0039250 0.1097895 -0.0279979 255 140 0
0.0061966 0.1097910 -0.0279963 255 140 0
0.0084687 0.1097932 -0.0279937 255 140 0
0.0107402 0.1098017 -0.0279832 255 140 0
0.0130138 0.1098061 -0.0279779 255 140 0
0.0152855 0.1098229 -0.0279556 255 140 0
0.0175546 0.1098573 -0.0279086 255 140 0
0.0198245 0.1098929 -0.0278608 255 140 0
-0.0823917 0.1122538 -0.0277386 255 140 0
-0.0801221 0.1122026 -0.0278132 255 140 0
-0.0778531 0.1121457 -0.0278934 255 140 0
-0.0755840 0.1121074 -0.0279468 255 140 0
-0.0733154 0.1120873 -0.0279742 255 140 0
-0.0710443 0.1120761 -0.0279892 255 140 0
-0.0687729 0.1120713 -0.0279954 255 140 0
-0.0665011 0.1120684 -0.0279989 255 140 0
-0.0642293 0.1120668 -0.0280006 255 140 0
-0.0619559 0.1120670 -0.0279996 255 140 0
-0.0596828 0.1120661 -0.0279988 255 140 0
-0.0574127 0.1120657 -0.0279990 255 140 0
-0.0551412 0.1120657 -0.0279986 255 140 0
-0.0528694 0.1120658 -0.0279978 255 140 0
-0.0505976 0.1120663 -0.0279969 255 140 0
-0.0483258 0.1120670 -0.0279958 255 140 0
-0.0460542 0.1120679 -0.0279942 255 140 0
-0.0437827 0.1120674 -0.0279923 255 140 0
-0.0415107 0.1120677 -0.0279904 255 140 0
-0.0392388 0.1120682 -0.0279890 255 140 0
-0.0369655 0.1120697 -0.0279859 255 140 0
-0.0346927 0.1120701 -0.0279843 255 140 0
-0.0324228 0.1120694 -0.0279846 255 140 0
-0.0301513 0.1120678 -0.0279853 255 140 0
-0.0278797 0.1120659 -0.0279867 255 140 0
-0.0256080 0.1120652 -0.0279868 255 140 0
-0.0233364 0.1120654 -0.0279857 255 140 0
-0.0210653 0.1120658 -0.0279843 255 140 0
-0.0187936 0.1120665 -0.0279827 255 140 0
-0.0165217 0.1120672 -0.0279811 255 140 0
-0.0142496 0.1120686 -0.0279797 255 140 0
-0.0119758 0.1120714 -0.0279767 255 140 0
-0.0097031 0.1120726 -0.0279743 255 140 0
-0.0074325 0.1120730 -0.0279734 255 140 0
-0.0051615 0.1120740 -0.0279723 255 140 0
-0.0028897 0.1120750 -0.0279709 255 140 0
-0.0006179 0.1120763 -0.0279694 255 140 0
0.0016537 0.1120783 -0.0279681 255 140 0
0.0039253 0.1120795 -0.0279665 255 140 0
0.0061970 0.1120813 -0.0279647 255 140 0
0.0084688 0.1120845 -0.0279613 255 140 0
0.0107405 0.1120932 -0.0279500 255 140 0
0.0130138 0.1121009 -0.0279411 255 140 0
0.0152854 0.1121196 -0.0279176 255 140 0
0.0175547 0.1121571 -0.0278678 255 140 0
0.0198246 0.1121896 -0.0278245 255 140 0
-0.0801212 0.1144912 -0.0277795 255 140 0
-0.0778518 0.1144460 -0.0278472 255 140 0
-0.0755818 0.1144122 -0.0278956 255 140 0
-0.0733136 0.1143902 -0.0279250 255 140 0
-0.0710427 0.1143773 -0.0279423 255 140 0
-0.0687716 0.1143709 -0.0279505 255 140 0
-0.0664999 0.1143668 -0.0279550 255 140 0
-0.0642280 0.1143645 -0.0279575 255 140 0
-0.0619550 0.1143649 -0.0279565 255 140 0
-0.0596817 0.1143644 -0.0279556 255 140 0
-0.0574116 0.1143639 -0.0279555 255 140 0
-0.0551402 0.1143641 -0.0279552 255 140 0
-0.0528684 0.1143642 -0.0279544 255 140 0
-0.0505965 0.1143648 -0.0279533 255 140 0
-0.0483248 0.1143659 -0.0279519 255 140 0
-0.0460531 0.1143669 -0.0279502 255 140 0
-0.0437816 0.1143679 -0.0279482 255 140 0
-0.0415096 0.1143682 -0.0279460 255 140 0
-0.0392378 0.1143685 -0.0279444 255 140 0
-0.0369651 0.1143693 -0.0279411 255 140 0
-0.0346917 0.1143693 -0.0279397 255 140 0
-0.0324217 0.1143678 -0.0279404 255 140 0
-0.0301504 0.1143657 -0.0279423 255 140 0
-0.0278788 0.1143617 -0.0279456 255 140 0
-0.0256071 0.1143602 -0.0279466 255 140 0
-0.0233356 0.1143603 -0.0279456 255 140 0
-0.0210645 0.1143612 -0.0279439 255 140 0
-0.0187928 0.1143625 -0.0279420 255 140 0
-0.0165209 0.1143641 -0.0279399 255 140 0
-0.0142488 0.1143657 -0.0279379 255 140 0
-0.0119750 0.1143681 -0.0279344 255 140 0
-0.0097024 0.1143696 -0.0279317 255 140 0
-0.0074319 0.1143704 -0.0279303 255 140 0
-0.0051608 0.1143714 -0.0279289 255 140 0
-0.0028891 0.1143727 -0.0279271 255 140 0
-0.0006172 0.1143747 -0.0279254 255 140 0
0.0016544 0.1143764 -0.0279237 255 140 0
0.0039259 0.1143778 -0.0279219 255 140 0
0.0061974 0.1143798 -0.0279198 255 140 0
0.0084693 0.1143838 -0.0279158 255 140 0
0.0107407 0.1143924 -0.0279051 255 140 0
0.0130138 0.1144063 -0.0278900 255 140 0
0.0152854 0.1144264 -0.0278656 255 140 0
0.0175549 0.1144598 -0.0278229 255 140 0
0.0198248 0.1144864 -0.0277879 255 140 0
-0.0801193 0.1167860 -0.0277393 255 140 0
-0.0778496 0.1167363 -0.0278039 255 140 0
-0.0755802 0.1167108 -0.0278613 255 140 0
-0.0733129 0.1166736 -0.0279095 255 140 0
-0.0710423 0.1166501 -0.0279397 255 140 0
-0.0687715 0.1166373 -0.0279554 255 140 0
-0.0664999 0.1166310 -0.0279619 255 140 0
-0.0642282 0.1166283 -0.0279638 255 140 0
-0.0619554 0.1166303 -0.0279603 255 140 0
-0.0596817 0.1166320 -0.0279572 255 140 0
-0.0574116 0.1166332 -0.0279555 255 140 0
-0.0551399 0.1166350 -0.0279533 255 140 0
-0.0528680 0.1166364 -0.0279505 255 140 0
-0.0505963 0.1166381 -0.0279478 255 140 0
-0.0483245 0.1166401 -0.0279449 255 140 0
-0.0460529 0.1166419 -0.0279419 255 140 0
-0.0437813 0.1166439 -0.0279388 255 140 0
-0.0415093 0.1166456 -0.0279359 255 140 0
-0.0392374 0.1166467 -0.0279335 255 140 0
-0.0369648 0.1166487 -0.0279293 255 140 0
-0.0346913 0.1166494 -0.0279274 255 140 0
-0.0324215 0.1166479 -0.0279282 255 140 0
-0.0301500 0.1166457 -0.0279305 255 140 0
-0.0278785 0.1166411 -0.0279348 255 140 0
-0.0256069 0.1166391 -0.0279365 255 140 0
-0.0233353 0.1166388 -0.0279358 255 140 0
-0.0210643 0.1166393 -0.0279342 255 140 0
-0.0187926 0.1166404 -0.0279320 255 140 0
-0.0165207 0.1166416 -0.0279295 255 140 0
-0.0142485 0.1166427 -0.0279270 255 140 0
-0.0119747 0.1166451 -0.0279231 255 140 0
-0.0097022 0.1166473 -0.0279199 255 140 0
-0.0074316 0.1166485 -0.0279183 255 140 0
-0.0051605 0.1166504 -0.0279165 255 140 0
-0.0028888 0.1166514 -0.0279143 255 140 0
-0.0006171 0.1166526 -0.0279122 255 140 0
0.0016545 0.1166539 -0.0279103 255 140 0
0.0039260 0.1166554 -0.0279081 255 140 0
0.0061976 0.1166576 -0.0279054 255 140 0
0.0084694 0.1166618 -0.0279012 255 140 0
0.0107407 0.1166707 -0.0278904 255 140 0
0.0130135 0.1166913 -0.0278677 255 140 0
0.0152851 0.1167143 -0.0278406 255 140 0
0.0175540 0.1167485 -0.0277957 255 140 0
-0.0778479 0.1190395 -0.0277654 255 140 0
-0.0755784 0.1190102 -0.0278249 255 140 0
-0.0733091 0.1189654 -0.0278829 255 140 0
-0.0710418 0.1189348 -0.0279213 255 140 0
-0.0687709 0.1189171 -0.0279421 255 140 0
-0.0664994 0.1189088 -0.0279496 255 140 0
-0.0642277 0.1189057 -0.0279508 255 140 0
-0.0619548 0.1189094 -0.0279446 255 140 0
-0.0596809 0.1189125 -0.0279397 255 140 0
-0.0574111 0.1189150 -0.0279370 255 140 0
-0.0551394 0.1189177 -0.0279336 255 140 0
-0.0528675 0.1189208 -0.0279294 255 140 0
-0.0505957 0.1189241 -0.0279254 255 140 0
-0.0483239 0.1189271 -0.0279212 255 140 0
-0.0460521 0.1189292 -0.0279175 255 140 0
-0.0437805 0.1189312 -0.0279140 255 140 0
-0.0415085 0.1189335 -0.0279105 255 140 0
-0.0392367 0.1189354 -0.0279075 255 140 0
-0.0369642 0.1189383 -0.0279028 255 140 0
-0.0346906 0.1189393 -0.0279006 255 140 0
-0.0324209 0.1189381 -0.0279013 255 140 0
-0.0301495 0.1189357 -0.0279038 255 140 0
-0.0278779 0.1189312 -0.0279088 255 140 0
-0.0256062 0.1189287 -0.0279111 255 140 0
-0.0233346 0.1189274 -0.0279111 255 140 0
-0.0210638 0.1189277 -0.0279099 255 140 0
-0.0187921 0.1189287 -0.0279077 255 140 0
-0.0165202 0.1189298 -0.0279052 255 140 0
-0.0142480 0.1189311 -0.0279026 255 140 0
-0.0119742 0.1189336 -0.0278982 255 140 0
-0.0097017 0.1189358 -0.0278949 255 140 0
-0.0074312 0.1189364 -0.0278932 255 140 0
-0.0051601 0.1189373 -0.0278912 255 140 0
-0.0028885 0.1189385 -0.0278888 255 140 0
-0.0006168 0.1189399 -0.0278866 255 140 0
0.0016549 0.1189412 -0.0278844 255 140 0
0.0039264 0.1189428 -0.0278822 255 140 0
0.0061979 0.1189454 -0.0278797 255 140 0
0.0084696 0.1189493 -0.0278756 255 140 0
0.0107407 0.1189577 -0.0278655 255 140 0
0.0130137 0.1189840 -0.0278382 255 140 0
0.0152852 0.1190084 -0.0278101 255 140 0
0.0175541 0.1190386 -0.0277674 255 140 0
-0.0755760 0.1213302 -0.0277497 255 140 0
-0.0733061 0.1212936 -0.0277967 255 140 0
-0.0710388 0.1212644 -0.0278331 255 140 0
-0.0687682 0.1212446 -0.0278580 255 140 0
-0.0664969 0.1212339 -0.0278699 255 140 0
-0.0642253 0.1212286 -0.0278751 255 140 0
-0.0619530 0.1212304 -0.0278709 255 140 0
-0.0596792 0.1212322 -0.0278672 255 140 0
-0.0574092 0.1212337 -0.0278652 255 140 0
-0.0551376 0.1212354 -0.0278626 255 140 0
-0.0528657 0.1212376 -0.0278593 255 140 0
-0.0505939 0.1212397 -0.0278560 255 140 0
-0.0483221 0.1212418 -0.0278528 255 140 0
-0.0460504 0.1212432 -0.0278496 255 140 0
-0.0437787 0.1212447 -0.0278465 255 140 0
-0.0415069 0.1212464 -0.0278434 255 140 0
-0.0392351 0.1212477 -0.0278405 255 140 0
-0.0369627 0.1212503 -0.0278358 255 140 0
-0.0346891 0.1212517 -0.0278329 255 140 0
-0.0324194 0.1212520 -0.0278321 255 140 0
-0.0301479 0.1212513 -0.0278319 255 140 0
-0.0278762 0.1212498 -0.0278323 255 140 0
-0.0256046 0.1212496 -0.0278317 255 140 0
-0.0233330 0.1212502 -0.0278302 255 140 0
-0.0210621 0.1212509 -0.0278283 255 140 0
-0.0187904 0.1212515 -0.0278261 255 140 0
-0.0165186 0.1212527 -0.0278235 255 140 0
-0.0142464 0.1212538 -0.0278210 255 140 0
-0.0119732 0.1212563 -0.0278172 255 140 0
-0.0097004 0.1212581 -0.0278143 255 140 0
-0.0074298 0.1212585 -0.0278127 255 140 0
-0.0051587 0.1212591 -0.0278110 255 140 0
-0.0028871 0.1212601 -0.0278091 255 140 0
-0.0006155 0.1212612 -0.0278073 255 140 0
0.0016561 0.1212622 -0.0278057 255 140 0
0.0039275 0.1212631 -0.0278043 255 140 0
0.0061990 0.1212651 -0.0278023 255 140 0
0.0084707 0.1212683 -0.0277988 255 140 0
0.0107414 0.1212726 -0.0277937 255 140 0
0.0130145 0.1213084 -0.0277577 255 140 0
0.0152860 0.1213337 -0.0277302 255 140 0
0.0175544 0.1213401 -0.0277179 255 140 0
-0.0755745 0.1236341 -0.0277003 255 140 0
-0.0733041 0.1236060 -0.0277360 255 140 0
-0.0710369 0.1235817 -0.0277665 255 140 0
-0.0687663 0.1235626 -0.0277896 255 140 0
-0.0664950 0.1235518 -0.0278022 255 140 0
-0.0642236 0.1235454 -0.0278086 255 140 0
-0.0619514 0.1235468 -0.0278047 255 140 0
