ply
format ascii 1.0
element vertex 1144
property float x
property float y
property float z
property uchar red
property uchar green
property uchar blue
end_header
-0.0165456 0.0573072 -0.0307120 255 140 0
-0.0142729 0.0573058 -0.0307152 255 140 0
-0.0119495 0.0573042 -0.0307153 255 140 0
-0.0096580 0.0573033 -0.0307172 255 140 0
-0.0074185 0.0573014 -0.0307229 255 140 0
-0.0051655 0.0572995 -0.0307272 255 140 0
-0.0028943 0.0573040 -0.0307303 255 140 0
-0.0006265 0.0573109 -0.0307346 255 140 0
0.0016384 0.0573092 -0.0307395 255 140 0
0.0038951 0.0573095 -0.0307472 255 140 0
0.0061414 0.0573275 -0.0307410 255 140 0
0.0083748 0.0573894 -0.0306886 255 140 0
0.0105479 0.0573261 -0.0308335 255 140 0
-0.0732039 0.0597810 -0.0306542 255 140 0
-0.0709953 0.0597074 -0.0306955 255 140 0
-0.0687852 0.0596552 -0.0307228 255 140 0
-0.0665145 0.0596194 -0.0307385 255 140 0
-0.0642432 0.0596025 -0.0307461 255 140 0
-0.0619391 0.0596095 -0.0307404 255 140 0
-0.0596466 0.0596040 -0.0307385 255 140 0
-0.0574091 0.0595994 -0.0307453 255 140 0
-0.0551532 0.0596025 -0.0307484 255 140 0
-0.0528811 0.0596055 -0.0307473 255 140 0
-0.0506091 0.0596079 -0.0307455 255 140 0
-0.0483372 0.0596095 -0.0307429 255 140 0
-0.0460941 0.0596110 -0.0307404 255 140 0
-0.0438234 0.0596118 -0.0307381 255 140 0
-0.0415512 0.0596123 -0.0307363 255 140 0
-0.0392794 0.0596127 -0.0307356 255 140 0
-0.0369465 0.0596137 -0.0307305 255 140 0
-0.0346462 0.0596143 -0.0307282 255 140 0
-0.0324078 0.0596140 -0.0307307 255 140 0
-0.0301618 0.0596139 -0.0307320 255 140 0
-0.0278900 0.0596134 -0.0307318 255 140 0
-0.0256187 0.0596131 -0.0307323 255 140 0
-0.0233492 0.0596126 -0.0307332 255 140 0
-0.0210895 0.0596123 -0.0307345 255 140 0
-0.0188185 0.0596115 -0.0307361 255 140 0
-0.0165456 0.0596102 -0.0307389 255 140 0
-0.0142739 0.0596087 -0.0307420 255 140 0
-0.0119476 0.0596085 -0.0307424 255 140 0
-0.0096564 0.0596074 -0.0307436 255 140 0
-0.0074197 0.0596054 -0.0307476 255 140 0
-0.0051670 0.0596032 -0.0307492 255 140 0
-0.0028960 0.0596110 -0.0307479 255 140 0
-0.0006258 0.0596155 -0.0307466 255 140 0
0.0016421 0.0596131 -0.0307470 255 140 0
0.0039026 0.0596130 -0.0307522 255 140 0
0.0061564 0.0596196 -0.0307560 255 140 0
0.0084054 0.0596519 -0.0307466 255 140 0
0.0106076 0.0596184 -0.0308302 255 140 0
0.0129766 0.0600517 -0.0302307 255 140 0
-0.0732329 0.0620444 -0.0307443 255 140 0
-0.0709972 0.0619944 -0.0307614 255 140 0
-0.0687862 0.0619559 -0.0307622 255 140 0
-0.0665147 0.0619394 -0.0307577 255 140 0
-0.0642426 0.0619346 -0.0307535 255 140 0
-0.0619385 0.0619417 -0.0307482 255 140 0
-0.0596410 0.0619454 -0.0307441 255 140 0
-0.0574156 0.0619504 -0.0307457 255 140 0
-0.0551529 0.0619544 -0.0307446 255 140 0
-0.0528808 0.0619591 -0.0307404 255 140 0
-0.0506089 0.0619641 -0.0307362 255 140 0
-0.0483371 0.0619673 -0.0307325 255 140 0
-0.0460945 0.0619696 -0.0307291 255 140 0
-0.0438230 0.0619715 -0.0307264 255 140 0
-0.0415510 0.0619728 -0.0307246 255 140 0
-0.0392790 0.0619735 -0.0307239 255 140 0
-0.0369459 0.0619746 -0.0307187 255 140 0
-0.0346458 0.0619755 -0.0307162 255 140 0
-0.0324071 0.0619749 -0.0307191 255 140 0
-0.0301613 0.0619749 -0.0307206 255 140 0
-0.0278895 0.0619748 -0.0307207 255 140 0
-0.0256179 0.0619746 -0.0307215 255 140 0
-0.0233486 0.0619742 -0.0307229 255 140 0
-0.0210889 0.0619735 -0.0307245 255 140 0
-0.0188182 0.0619728 -0.0307266 255 140 0
-0.0165450 0.0619714 -0.0307296 255 140 0
-0.0142729 0.0619693 -0.0307339 255 140 0
-0.0119468 0.0619655 -0.0307366 255 140 0
-0.0096534 0.0619624 -0.0307406 255 140 0
-0.0074171 0.0619608 -0.0307474 255 140 0
-0.0051649 0.0619581 -0.0307522 255 140 0
-0.0028935 0.0619552 -0.0307556 255 140 0
-0.0006230 0.0619528 -0.0307583 255 140 0
0.0016458 0.0619508 -0.0307606 255 140 0
0.0039078 0.0619498 -0.0307652 255 140 0
0.0061663 0.0619538 -0.0307726 255 140 0
0.0084242 0.0619680 -0.0307828 255 140 0
0.0106500 0.0619691 -0.0308061 255 140 0
0.0129743 0.0621826 -0.0306146 255 140 0
-0.0754602 0.0644404 -0.0307205 255 140 0
-0.0732654 0.0643997 -0.0307553 255 140 0
-0.0710556 0.0643746 -0.0307604 255 140 0
-0.0687850 0.0643615 -0.0307503 255 140 0
-0.0665133 0.0643290 -0.0307421 255 140 0
-0.0642416 0.0643142 -0.0307372 255 140 0
-0.0619367 0.0643398 -0.0307211 255 140 0
-0.0596443 0.0643513 -0.0307085 255 140 0
-0.0574170 0.0643678 -0.0307015 255 140 0
-0.0551511 0.0643717 -0.0306932 255 140 0
-0.0528797 0.0643769 -0.0306831 255 140 0
-0.0506080 0.0643831 -0.0306762 255 140 0
-0.0483372 0.0643874 -0.0306717 255 140 0
-0.0460879 0.0643893 -0.0306685 255 140 0
-0.0438218 0.0643892 -0.0306662 255 140 0
-0.0415493 0.0643892 -0.0306649 255 140 0
-0.0392744 0.0643904 -0.0306645 255 140 0
-0.0369443 0.0643905 -0.0306601 255 140 0
-0.0346489 0.0643911 -0.0306584 255 140 0
-0.0324078 0.0643907 -0.0306617 255 140 0
-0.0301598 0.0643909 -0.0306637 255 140 0
-0.0278881 0.0643906 -0.0306642 255 140 0
-0.0256163 0.0643900 -0.0306654 255 140 0
-0.0233464 0.0643895 -0.0306670 255 140 0
-0.0210875 0.0643890 -0.0306688 255 140 0
-0.0188173 0.0643892 -0.0306710 255 140 0
-0.0165435 0.0643886 -0.0306748 255 140 0
-0.0142683 0.0643864 -0.0306802 255 140 0
-0.0119446 0.0643832 -0.0306853 255 140 0
-0.0096521 0.0643809 -0.0306929 255 140 0
-0.0074142 0.0643800 -0.0307040 255 140 0
-0.0051604 0.0643779 -0.0307158 255 140 0
-0.0028889 0.0643742 -0.0307280 255 140 0
-0.0006186 0.0643584 -0.0307389 255 140 0
0.0016494 0.0643432 -0.0307478 255 140 0
0.0039118 0.0643330 -0.0307543 255 140 0
0.0061719 0.0643585 -0.0307614 255 140 0
0.0084343 0.0643763 -0.0307708 255 140 0
0.0106768 0.0643840 -0.0307752 255 140 0
0.0129877 0.0645281 -0.0306817 255 140 0
0.0152421 0.0646420 -0.0306006 255 140 0
-0.0777360 0.0668166 -0.0306239 255 140 0
-0.0754789 0.0667553 -0.0307887 255 140 0
-0.0732687 0.0667053 -0.0308442 255 140 0
-0.0710587 0.0666774 -0.0308547 255 140 0
-0.0687878 0.0666675 -0.0308402 255 140 0
-0.0665160 0.0666593 -0.0308314 255 140 0
-0.0642449 0.0666526 -0.0308252 255 140 0
-0.0619386 0.0666605 -0.0308097 255 140 0
-0.0596414 0.0666665 -0.0307991 255 140 0
-0.0574169 0.0666693 -0.0307974 255 140 0
-0.0551531 0.0666726 -0.0307934 255 140 0
-0.0528810 0.0666757 -0.0307867 255 140 0
-0.0506093 0.0666785 -0.0307812 255 140 0
-0.0483379 0.0666814 -0.0307772 255 140 0
-0.0460890 0.0666834 -0.0307737 255 140 0
-0.0438233 0.0666853 -0.0307707 255 140 0
-0.0415510 0.0666866 -0.0307689 255 140 0
-0.0392779 0.0666890 -0.0307685 255 140 0
-0.0369455 0.0666894 -0.0307632 255 140 0
-0.0346467 0.0666897 -0.0307611 255 140 0
-0.0324069 0.0666903 -0.0307643 255 140 0
-0.0301611 0.0666906 -0.0307659 255 140 0
-0.0278892 0.0666906 -0.0307655 255 140 0
-0.0256173 0.0666908 -0.0307657 255 140 0
-0.0233474 0.0666909 -0.0307664 255 140 0
-0.0210884 0.0666911 -0.0307674 255 140 0
-0.0188183 0.0666909 -0.0307687 255 140 0
-0.0165442 0.0666906 -0.0307714 255 140 0
-0.0142703 0.0666903 -0.0307756 255 140 0
-0.0119444 0.0666906 -0.0307776 255 140 0
-0.0096518 0.0666909 -0.0307821 255 140 0
-0.0074147 0.0666914 -0.0307902 255 140 0
-0.0051618 0.0666906 -0.0307980 255 140 0
-0.0028903 0.0666898 -0.0308058 255 140 0
-0.0006197 0.0666879 -0.0308134 255 140 0
0.0016490 0.0666766 -0.0308210 255 140 0
0.0039130 0.0666677 -0.0308266 255 140 0
0.0061753 0.0666775 -0.0308334 255 140 0
0.0084419 0.0666883 -0.0308448 255 140 0
0.0106939 0.0666980 -0.0308414 255 140 0
0.0129977 0.0667943 -0.0308222 255 140 0
0.0152517 0.0668581 -0.0307844 255 140 0
0.0174182 0.0668857 -0.0306873 255 140 0
-0.0777452 0.0691184 -0.0306711 255 140 0
-0.0755332 0.0690378 -0.0308065 255 140 0
-0.0733061 0.0689913 -0.0308580 255 140 0
-0.0710601 0.0689749 -0.0308680 255 140 0
-0.0687890 0.0689777 -0.0308520 255 140 0
-0.0665173 0.0689722 -0.0308415 255 140 0
-0.0642449 0.0689683 -0.0308361 255 140 0
-0.0619393 0.0689710 -0.0308259 255 140 0
-0.0596405 0.0689588 -0.0308233 255 140 0
-0.0574103 0.0689405 -0.0308344 255 140 0
-0.0551540 0.0689391 -0.0308415 255 140 0
-0.0528820 0.0689378 -0.0308436 255 140 0
-0.0506100 0.0689361 -0.0308438 255 140 0
-0.0483382 0.0689364 -0.0308428 255 140 0
-0.0460890 0.0689375 -0.0308405 255 140 0
-0.0438243 0.0689393 -0.0308379 255 140 0
-0.0415519 0.0689408 -0.0308367 255 140 0
-0.0392792 0.0689413 -0.0308366 255 140 0
-0.0369462 0.0689413 -0.0308310 255 140 0
-0.0346464 0.0689417 -0.0308283 255 140 0
-0.0324073 0.0689423 -0.0308315 255 140 0
-0.0301614 0.0689433 -0.0308328 255 140 0
-0.0278896 0.0689438 -0.0308315 255 140 0
-0.0256177 0.0689447 -0.0308308 255 140 0
-0.0233502 0.0689459 -0.0308305 255 140 0
-0.0210886 0.0689469 -0.0308305 255 140 0
-0.0188192 0.0689478 -0.0308307 255 140 0
-0.0165443 0.0689495 -0.0308315 255 140 0
-0.0142718 0.0689507 -0.0308328 255 140 0
-0.0119457 0.0689541 -0.0308291 255 140 0
-0.0096535 0.0689554 -0.0308270 255 140 0
-0.0074177 0.0689584 -0.0308287 255 140 0
-0.0051647 0.0689602 -0.0308284 255 140 0
-0.0028932 0.0689720 -0.0308256 255 140 0
-0.0006220 0.0689849 -0.0308257 255 140 0
0.0016480 0.0689909 -0.0308280 255 140 0
0.0039136 0.0689934 -0.0308318 255 140 0
0.0061789 0.0689939 -0.0308388 255 140 0
0.0084497 0.0689971 -0.0308520 255 140 0
0.0107065 0.0690042 -0.0308500 255 140 0
0.0130085 0.0690217 -0.0308831 255 140 0
0.0152643 0.0690559 -0.0308763 255 140 0
0.0174437 0.0691355 -0.0307909 255 140 0
-0.0800014 0.0714592 -0.0305092 255 140 0
-0.0777511 0.0714273 -0.0307274 255 140 0
-0.0755385 0.0714004 -0.0308475 255 140 0
-0.0733253 0.0713748 -0.0308735 255 140 0
-0.0710591 0.0713565 -0.0308717 255 140 0
-0.0688051 0.0713445 -0.0308547 255 140 0
-0.0665276 0.0713404 -0.0308409 255 140 0
-0.0642487 0.0713393 -0.0308315 255 140 0
-0.0619366 0.0713425 -0.0308150 255 140 0
-0.0596337 0.0713463 -0.0308063 255 140 0
-0.0574072 0.0713476 -0.0308124 255 140 0
-0.0551524 0.0713489 -0.0308148 255 140 0
-0.0528803 0.0713504 -0.0308127 255 140 0
-0.0506084 0.0713524 -0.0308113 255 140 0
-0.0483368 0.0713542 -0.0308100 255 140 0
-0.0460936 0.0713557 -0.0308085 255 140 0
-0.0438230 0.0713569 -0.0308073 255 140 0
-0.0415507 0.0713580 -0.0308069 255 140 0
-0.0392787 0.0713582 -0.0308073 255 140 0
-0.0369387 0.0713591 -0.0308016 255 140 0
-0.0346397 0.0713593 -0.0307989 255 140 0
-0.0324022 0.0713592 -0.0308027 255 140 0
-0.0301602 0.0713592 -0.0308041 255 140 0
-0.0278882 0.0713599 -0.0308029 255 140 0
-0.0256163 0.0713610 -0.0308026 255 140 0
-0.0233497 0.0713624 -0.0308027 255 140 0
-0.0210873 0.0713633 -0.0308029 255 140 0
-0.0188197 0.0713642 -0.0308037 255 140 0
-0.0165443 0.0713650 -0.0308051 255 140 0
-0.0142724 0.0713658 -0.0308073 255 140 0
-0.0119416 0.0713696 -0.0308059 255 140 0
-0.0096449 0.0713708 -0.0308059 255 140 0
-0.0074132 0.0713695 -0.0308091 255 140 0
-0.0051634 0.0713684 -0.0308116 255 140 0
-0.0028919 0.0713691 -0.0308125 255 140 0
-0.0006210 0.0713671 -0.0308155 255 140 0
0.0016484 0.0713663 -0.0308200 255 140 0
0.0039129 0.0713667 -0.0308255 255 140 0
0.0061786 0.0713667 -0.0308332 255 140 0
0.0084520 0.0713693 -0.0308460 255 140 0
0.0107127 0.0713755 -0.0308432 255 140 0
0.0130280 0.0714027 -0.0308887 255 140 0
0.0152878 0.0714258 -0.0308812 255 140 0
0.0174620 0.0714557 -0.0307926 255 140 0
0.0196546 0.0714729 -0.0307015 255 140 0
-0.0800000 0.0737458 -0.0305741 255 140 0
-0.0777666 0.0737348 -0.0307806 255 140 0
-0.0755396 0.0737257 -0.0308782 255 140 0
-0.0733288 0.0737110 -0.0308756 255 140 0
-0.0710584 0.0736963 -0.0308634 255 140 0
-0.0688368 0.0736848 -0.0308465 255 140 0
-0.0665546 0.0736835 -0.0308315 255 140 0
-0.0642828 0.0736858 -0.0308206 255 140 0
-0.0619326 0.0736894 -0.0308010 255 140 0
-0.0596292 0.0736931 -0.0307900 255 140 0
-0.0574065 0.0736928 -0.0307934 255 140 0
-0.0551518 0.0736946 -0.0307935 255 140 0
-0.0528797 0.0736982 -0.0307901 255 140 0
-0.0506077 0.0737012 -0.0307880 255 140 0
-0.0483361 0.0737040 -0.0307874 255 140 0
-0.0460925 0.0737055 -0.0307867 255 140 0
-0.0438223 0.0737065 -0.0307863 255 140 0
-0.0415502 0.0737072 -0.0307863 255 140 0
-0.0392781 0.0737079 -0.0307872 255 140 0
-0.0369377 0.0737090 -0.0307817 255 140 0
-0.0346354 0.0737099 -0.0307794 255 140 0
-0.0324013 0.0737091 -0.0307833 255 140 0
-0.0301594 0.0737093 -0.0307851 255 140 0
-0.0278875 0.0737102 -0.0307842 255 140 0
-0.0256155 0.0737111 -0.0307839 255 140 0
-0.0233497 0.0737124 -0.0307844 255 140 0
-0.0210870 0.0737132 -0.0307847 255 140 0
-0.0188198 0.0737138 -0.0307855 255 140 0
-0.0165450 0.0737147 -0.0307871 255 140 0
-0.0142720 0.0737151 -0.0307898 255 140 0
-0.0119383 0.0737179 -0.0307889 255 140 0
-0.0096416 0.0737187 -0.0307900 255 140 0
-0.0074120 0.0737166 -0.0307939 255 140 0
-0.0051628 0.0737145 -0.0307976 255 140 0
-0.0028914 0.0737148 -0.0308004 255 140 0
-0.0006206 0.0737141 -0.0308043 255 140 0
0.0016485 0.0737132 -0.0308098 255 140 0
0.0039129 0.0737125 -0.0308155 255 140 0
0.0061789 0.0737130 -0.0308232 255 140 0
0.0084555 0.0737147 -0.0308341 255 140 0
0.0107178 0.0737175 -0.0308317 255 140 0
0.0130403 0.0737396 -0.0308767 255 140 0
0.0153057 0.0737542 -0.0308698 255 140 0
0.0174803 0.0737619 -0.0307977 255 140 0
0.0196735 0.0737737 -0.0307087 255 140 0
-0.0800096 0.0760518 -0.0306779 255 140 0
-0.0777978 0.0760340 -0.0308167 255 140 0
-0.0755444 0.0760220 -0.0308728 255 140 0
-0.0733299 0.0760101 -0.0308561 255 140 0
-0.0710593 0.0759981 -0.0308384 255 140 0
-0.0688243 0.0759895 -0.0308215 255 140 0
-0.0665258 0.0759881 -0.0308078 255 140 0
-0.0642444 0.0759889 -0.0307982 255 140 0
-0.0619363 0.0759917 -0.0307810 255 140 0
-0.0596359 0.0759931 -0.0307714 255 140 0
-0.0574089 0.0759952 -0.0307747 255 140 0
-0.0551515 0.0759974 -0.0307755 255 140 0
-0.0528795 0.0760003 -0.0307733 255 140 0
-0.0506076 0.0760035 -0.0307722 255 140 0
-0.0483358 0.0760058 -0.0307718 255 140 0
-0.0460832 0.0760074 -0.0307713 255 140 0
-0.0438223 0.0760080 -0.0307710 255 140 0
-0.0415484 0.0760094 -0.0307711 255 140 0
-0.0392763 0.0760106 -0.0307721 255 140 0
-0.0369419 0.0760113 -0.0307672 255 140 0
-0.0346411 0.0760114 -0.0307652 255 140 0
-0.0324038 0.0760115 -0.0307688 255 140 0
-0.0301594 0.0760119 -0.0307705 255 140 0
-0.0278875 0.0760119 -0.0307696 255 140 0
-0.0256155 0.0760126 -0.0307695 255 140 0
-0.0233484 0.0760133 -0.0307700 255 140 0
-0.0210866 0.0760136 -0.0307704 255 140 0
-0.0188183 0.0760137 -0.0307707 255 140 0
-0.0165427 0.0760138 -0.0307719 255 140 0
-0.0142714 0.0760136 -0.0307735 255 140 0
-0.0119420 0.0760150 -0.0307722 255 140 0
-0.0096474 0.0760152 -0.0307725 255 140 0
-0.0074139 0.0760145 -0.0307762 255 140 0
-0.0051621 0.0760136 -0.0307791 255 140 0
-0.0028911 0.0760141 -0.0307817 255 140 0
-0.0006205 0.0760152 -0.0307849 255 140 0
0.0016486 0.0760148 -0.0307894 255 140 0
0.0039136 0.0760146 -0.0307941 255 140 0
0.0061804 0.0760153 -0.0308004 255 140 0
0.0084583 0.0760159 -0.0308095 255 140 0
0.0107237 0.0760174 -0.0308139 255 140 0
0.0130449 0.0760324 -0.0308419 255 140 0
0.0153134 0.0760433 -0.0308363 255 140 0
0.0175036 0.0760465 -0.0308197 255 140 0
0.0196997 0.0760347 -0.0307499 255 140 0
-0.0822723 0.0783459 -0.0306192 255 140 0
-0.0800195 0.0783284 -0.0307735 255 140 0
-0.0778106 0.0783069 -0.0308551 255 140 0
-0.0755952 0.0782915 -0.0308771 255 140 0
-0.0733305 0.0782806 -0.0308491 255 140 0
-0.0710594 0.0782713 -0.0308268 255 140 0
-0.0688221 0.0782650 -0.0308098 255 140 0
-0.0665198 0.0782645 -0.0307969 255 140 0
-0.0642428 0.0782648 -0.0307882 255 140 0
-0.0619362 0.0782670 -0.0307721 255 140 0
-0.0596417 0.0782678 -0.0307632 255 140 0
-0.0574100 0.0782705 -0.0307669 255 140 0
-0.0551515 0.0782729 -0.0307683 255 140 0
-0.0528795 0.0782757 -0.0307665 255 140 0
-0.0506076 0.0782781 -0.0307657 255 140 0
-0.0483360 0.0782803 -0.0307655 255 140 0
-0.0460778 0.0782811 -0.0307650 255 140 0
-0.0438224 0.0782819 -0.0307648 255 140 0
-0.0415421 0.0782827 -0.0307648 255 140 0
-0.0392694 0.0782837 -0.0307657 255 140 0
-0.0369434 0.0782841 -0.0307612 255 140 0
-0.0346443 0.0782846 -0.0307596 255 140 0
-0.0324058 0.0782850 -0.0307633 255 140 0
-0.0301594 0.0782854 -0.0307649 255 140 0
-0.0278874 0.0782857 -0.0307640 255 140 0
-0.0256155 0.0782861 -0.0307640 255 140 0
-0.0233477 0.0782864 -0.0307643 255 140 0
-0.0210865 0.0782863 -0.0307645 255 140 0
-0.0188179 0.0782864 -0.0307647 255 140 0
-0.0165423 0.0782863 -0.0307655 255 140 0
-0.0142707 0.0782868 -0.0307668 255 140 0
-0.0119439 0.0782867 -0.0307646 255 140 0
-0.0096505 0.0782870 -0.0307644 255 140 0
-0.0074146 0.0782867 -0.0307683 255 140 0
-0.0051620 0.0782866 -0.0307711 255 140 0
-0.0028908 0.0782867 -0.0307732 255 140 0
-0.0006204 0.0782874 -0.0307759 255 140 0
0.0016487 0.0782875 -0.0307797 255 140 0
0.0039140 0.0782879 -0.0307839 255 140 0
0.0061815 0.0782885 -0.0307892 255 140 0
0.0084592 0.0782892 -0.0307972 255 140 0
0.0107274 0.0782903 -0.0308061 255 140 0
0.0130485 0.0783014 -0.0308245 255 140 0
0.0153210 0.0783102 -0.0308212 255 140 0
0.0175210 0.0783180 -0.0308389 255 140 0
0.0197197 0.0783143 -0.0307819 255 140 0
0.0219314 0.0783147 -0.0306233 255 140 0
-0.0822673 0.0806331 -0.0307562 255 140 0
-0.0800404 0.0806203 -0.0308610 255 140 0
-0.0778122 0.0805861 -0.0308932 255 140 0
-0.0756018 0.0805678 -0.0308888 255 140 0
-0.0733311 0.0805722 -0.0308539 255 140 0
-0.0710610 0.0805636 -0.0308286 255 140 0
-0.0688266 0.0805601 -0.0308107 255 140 0
-0.0665200 0.0805612 -0.0307980 255 140 0
-0.0642423 0.0805635 -0.0307902 255 140 0
-0.0619360 0.0805648 -0.0307736 255 140 0
-0.0596410 0.0805645 -0.0307643 255 140 0
-0.0574094 0.0805676 -0.0307691 255 140 0
-0.0551515 0.0805703 -0.0307708 255 140 0
-0.0528795 0.0805733 -0.0307689 255 140 0
-0.0506075 0.0805752 -0.0307677 255 140 0
-0.0483357 0.0805765 -0.0307672 255 140 0
-0.0460767 0.0805770 -0.0307665 255 140 0
-0.0438223 0.0805768 -0.0307659 255 140 0
-0.0415418 0.0805772 -0.0307659 255 140 0
-0.0392695 0.0805777 -0.0307668 255 140 0
-0.0369430 0.0805774 -0.0307620 255 140 0
-0.0346430 0.0805773 -0.0307601 255 140 0
-0.0324052 0.0805781 -0.0307644 255 140 0
-0.0301592 0.0805786 -0.0307662 255 140 0
-0.0278872 0.0805785 -0.0307653 255 140 0
-0.0256153 0.0805781 -0.0307650 255 140 0
-0.0233475 0.0805778 -0.0307652 255 140 0
-0.0210864 0.0805785 -0.0307653 255 140 0
-0.0188177 0.0805789 -0.0307657 255 140 0
-0.0165421 0.0805796 -0.0307665 255 140 0
-0.0142707 0.0805803 -0.0307679 255 140 0
-0.0119434 0.0805780 -0.0307650 255 140 0
-0.0096497 0.0805771 -0.0307647 255 140 0
-0.0074144 0.0805777 -0.0307689 255 140 0
-0.0051619 0.0805776 -0.0307720 255 140 0
-0.0028905 0.0805767 -0.0307736 255 140 0
-0.0006201 0.0805766 -0.0307764 255 140 0
0.0016491 0.0805779 -0.0307797 255 140 0
0.0039144 0.0805780 -0.0307838 255 140 0
0.0061819 0.0805782 -0.0307887 255 140 0
0.0084597 0.0805789 -0.0307957 255 140 0
0.0107290 0.0805798 -0.0308038 255 140 0
0.0130544 0.0805935 -0.0308239 255 140 0
0.0153286 0.0806055 -0.0308238 255 140 0
0.0175288 0.0805962 -0.0308437 255 140 0
0.0197310 0.0805986 -0.0307898 255 140 0
0.0219447 0.0806049 -0.0306409 255 140 0
-0.0822701 0.0828880 -0.0308356 255 140 0
-0.0800572 0.0828676 -0.0309205 255 140 0
-0.0778131 0.0828494 -0.0309177 255 140 0
-0.0756024 0.0828335 -0.0308976 255 140 0
-0.0733313 0.0828196 -0.0308645 255 140 0
-0.0710625 0.0828116 -0.0308402 255 140 0
-0.0688316 0.0828094 -0.0308237 255 140 0
-0.0665200 0.0828105 -0.0308119 255 140 0
-0.0642424 0.0828132 -0.0308044 255 140 0
-0.0619359 0.0828128 -0.0307879 255 140 0
-0.0596402 0.0828141 -0.0307789 255 140 0
-0.0574091 0.0828159 -0.0307838 255 140 0
-0.0551515 0.0828186 -0.0307853 255 140 0
-0.0528796 0.0828214 -0.0307830 255 140 0
-0.0506076 0.0828231 -0.0307815 255 140 0
-0.0483359 0.0828240 -0.0307806 255 140 0
-0.0460769 0.0828243 -0.0307797 255 140 0
-0.0438223 0.0828239 -0.0307791 255 140 0
-0.0415432 0.0828240 -0.0307789 255 140 0
-0.0392717 0.0828243 -0.0307799 255 140 0
-0.0369430 0.0828241 -0.0307749 255 140 0
-0.0346418 0.0828248 -0.0307731 255 140 0
-0.0324048 0.0828257 -0.0307775 255 140 0
-0.0301590 0.0828261 -0.0307796 255 140 0
-0.0278871 0.0828260 -0.0307787 255 140 0
-0.0256152 0.0828255 -0.0307782 255 140 0
-0.0233474 0.0828251 -0.0307783 255 140 0
-0.0210862 0.0828251 -0.0307782 255 140 0
-0.0188175 0.0828256 -0.0307784 255 140 0
-0.0165420 0.0828266 -0.0307792 255 140 0
-0.0142708 0.0828279 -0.0307811 255 140 0
-0.0119429 0.0828251 -0.0307781 255 140 0
-0.0096488 0.0828238 -0.0307778 255 140 0
-0.0074142 0.0828250 -0.0307821 255 140 0
-0.0051623 0.0828250 -0.0307857 255 140 0
-0.0028906 0.0828237 -0.0307869 255 140 0
-0.0006200 0.0828235 -0.0307898 255 140 0
0.0016491 0.0828254 -0.0307930 255 140 0
0.0039143 0.0828266 -0.0307969 255 140 0
0.0061817 0.0828277 -0.0308021 255 140 0
0.0084599 0.0828289 -0.0308089 255 140 0
0.0107306 0.0828307 -0.0308171 255 140 0
0.0130567 0.0828419 -0.0308381 255 140 0
0.0153361 0.0828532 -0.0308431 255 140 0
0.0175394 0.0828653 -0.0308639 255 140 0
0.0197416 0.0828727 -0.0308226 255 140 0
0.0219470 0.0828782 -0.0307062 255 140 0
-0.0822800 0.0851336 -0.0308389 255 140 0
-0.0800703 0.0851285 -0.0309411 255 140 0
-0.0778143 0.0851157 -0.0309194 255 140 0
-0.0756031 0.0851015 -0.0308958 255 140 0
-0.0733314 0.0850875 -0.0308715 255 140 0
-0.0710628 0.0850792 -0.0308522 255 140 0
-0.0688339 0.0850757 -0.0308380 255 140 0
-0.0665199 0.0850756 -0.0308273 255 140 0
-0.0642423 0.0850775 -0.0308208 255 140 0
-0.0619358 0.0850769 -0.0308048 255 140 0
-0.0596398 0.0850779 -0.0307958 255 140 0
-0.0574087 0.0850811 -0.0308002 255 140 0
-0.0551514 0.0850844 -0.0308015 255 140 0
-0.0528793 0.0850872 -0.0307993 255 140 0
-0.0506074 0.0850891 -0.0307977 255 140 0
-0.0483356 0.0850903 -0.0307968 255 140 0
-0.0460785 0.0850904 -0.0307958 255 140 0
-0.0438224 0.0850899 -0.0307950 255 140 0
-0.0415449 0.0850909 -0.0307952 255 140 0
-0.0392736 0.0850917 -0.0307963 255 140 0
-0.0369427 0.0850920 -0.0307908 255 140 0
-0.0346411 0.0850924 -0.0307889 255 140 0
-0.0324049 0.0850942 -0.0307931 255 140 0
-0.0301591 0.0850949 -0.0307952 255 140 0
-0.0278871 0.0850951 -0.0307946 255 140 0
-0.0256154 0.0850948 -0.0307941 255 140 0
-0.0233480 0.0850946 -0.0307938 255 140 0
-0.0210863 0.0850945 -0.0307935 255 140 0
-0.0188178 0.0850947 -0.0307937 255 140 0
-0.0165425 0.0850959 -0.0307949 255 140 0
-0.0142711 0.0850975 -0.0307970 255 140 0
-0.0119429 0.0850953 -0.0307943 255 140 0
-0.0096485 0.0850937 -0.0307944 255 140 0
-0.0074144 0.0850957 -0.0307989 255 140 0
-0.0051632 0.0850961 -0.0308018 255 140 0
-0.0028909 0.0850948 -0.0308034 255 140 0
-0.0006203 0.0850945 -0.0308062 255 140 0
0.0016489 0.0850961 -0.0308101 255 140 0
0.0039139 0.0850967 -0.0308140 255 140 0
0.0061811 0.0850980 -0.0308189 255 140 0
0.0084597 0.0850995 -0.0308265 255 140 0
0.0107308 0.0851023 -0.0308362 255 140 0
0.0130597 0.0851081 -0.0308557 255 140 0
0.0153377 0.0851166 -0.0308667 255 140 0
0.0175456 0.0851337 -0.0308910 255 140 0
0.0197474 0.0851447 -0.0308715 255 140 0
0.0219443 0.0851519 -0.0308077 255 140 0
-0.0845093 0.0874000 -0.0305979 255 140 0
-0.0822884 0.0873976 -0.0308236 255 140 0
-0.0800831 0.0873974 -0.0309370 255 140 0
-0.0778290 0.0873885 -0.0309099 255 140 0
-0.0756025 0.0873761 -0.0308869 255 140 0
-0.0733308 0.0873624 -0.0308674 255 140 0
-0.0710613 0.0873541 -0.0308512 255 140 0
-0.0688259 0.0873512 -0.0308376 255 140 0
-0.0665157 0.0873512 -0.0308275 255 140 0
-0.0642415 0.0873532 -0.0308206 255 140 0
-0.0619358 0.0873537 -0.0308048 255 140 0
-0.0596412 0.0873551 -0.0307962 255 140 0
-0.0574090 0.0873580 -0.0308002 255 140 0
-0.0551514 0.0873613 -0.0308014 255 140 0
-0.0528793 0.0873638 -0.0307988 255 140 0
-0.0506073 0.0873649 -0.0307969 255 140 0
-0.0483355 0.0873657 -0.0307958 255 140 0
-0.0460769 0.0873660 -0.0307947 255 140 0
-0.0438222 0.0873661 -0.0307938 255 140 0
-0.0415434 0.0873674 -0.0307938 255 140 0
-0.0392721 0.0873689 -0.0307948 255 140 0
-0.0369426 0.0873691 -0.0307896 255 140 0
-0.0346421 0.0873700 -0.0307875 255 140 0
-0.0324057 0.0873715 -0.0307915 255 140 0
-0.0301588 0.0873723 -0.0307934 255 140 0
-0.0278868 0.0873726 -0.0307926 255 140 0
-0.0256151 0.0873724 -0.0307920 255 140 0
-0.0233479 0.0873721 -0.0307917 255 140 0
-0.0210861 0.0873719 -0.0307915 255 140 0
-0.0188174 0.0873722 -0.0307916 255 140 0
-0.0165421 0.0873733 -0.0307926 255 140 0
-0.0142709 0.0873749 -0.0307948 255 140 0
-0.0119435 0.0873722 -0.0307928 255 140 0
-0.0096494 0.0873716 -0.0307929 255 140 0
-0.0074144 0.0873729 -0.0307974 255 140 0
-0.0051633 0.0873732 -0.0308003 255 140 0
-0.0028909 0.0873727 -0.0308017 255 140 0
-0.0006202 0.0873724 -0.0308044 255 140 0
0.0016489 0.0873744 -0.0308081 255 140 0
0.0039140 0.0873749 -0.0308122 255 140 0
0.0061813 0.0873763 -0.0308175 255 140 0
0.0084600 0.0873784 -0.0308255 255 140 0
0.0107318 0.0873812 -0.0308365 255 140 0
0.0130615 0.0873873 -0.0308544 255 140 0
0.0153402 0.0873965 -0.0308681 255 140 0
0.0175555 0.0874116 -0.0308937 255 140 0
0.0197574 0.0874211 -0.0308843 255 140 0
0.0219482 0.0874259 -0.0308436 255 140 0
-0.0845307 0.0896545 -0.0304950 255 140 0
-0.0822940 0.0896775 -0.0307558 255 140 0
-0.0800815 0.0896831 -0.0308829 255 140 0
-0.0778449 0.0896767 -0.0308677 255 140 0
-0.0756011 0.0896643 -0.0308500 255 140 0
-0.0733298 0.0896510 -0.0308322 255 140 0
-0.0710597 0.0896439 -0.0308163 255 140 0
-0.0688145 0.0896417 -0.0308022 255 140 0
-0.0665142 0.0896417 -0.0307916 255 140 0
-0.0642410 0.0896436 -0.0307844 255 140 0
-0.0619344 0.0896446 -0.0307680 255 140 0
-0.0596425 0.0896456 -0.0307589 255 140 0
-0.0574084 0.0896492 -0.0307629 255 140 0
-0.0551501 0.0896526 -0.0307635 255 140 0
-0.0528781 0.0896553 -0.0307606 255 140 0
-0.0506062 0.0896571 -0.0307585 255 140 0
-0.0483344 0.0896580 -0.0307569 255 140 0
-0.0460736 0.0896584 -0.0307554 255 140 0
-0.0438213 0.0896595 -0.0307542 255 140 0
-0.0415404 0.0896610 -0.0307538 255 140 0
-0.0392687 0.0896628 -0.0307547 255 140 0
-0.0369413 0.0896639 -0.0307494 255 140 0
-0.0346436 0.0896648 -0.0307472 255 140 0
-0.0324068 0.0896660 -0.0307510 255 140 0
-0.0301578 0.0896667 -0.0307524 255 140 0
-0.0278858 0.0896667 -0.0307510 255 140 0
-0.0256141 0.0896666 -0.0307503 255 140 0
-0.0233469 0.0896662 -0.0307502 255 140 0
-0.0210852 0.0896661 -0.0307499 255 140 0
-0.0188169 0.0896664 -0.0307501 255 140 0
-0.0165413 0.0896676 -0.0307512 255 140 0
-0.0142700 0.0896691 -0.0307533 255 140 0
-0.0119439 0.0896666 -0.0307514 255 140 0
-0.0096497 0.0896652 -0.0307518 255 140 0
-0.0074141 0.0896669 -0.0307561 255 140 0
-0.0051628 0.0896669 -0.0307591 255 140 0
-0.0028904 0.0896661 -0.0307605 255 140 0
-0.0006198 0.0896663 -0.0307628 255 140 0
0.0016494 0.0896684 -0.0307666 255 140 0
0.0039147 0.0896694 -0.0307706 255 140 0
0.0061823 0.0896706 -0.0307769 255 140 0
0.0084609 0.0896719 -0.0307854 255 140 0
0.0107329 0.0896745 -0.0307964 255 140 0
0.0130618 0.0896892 -0.0308165 255 140 0
0.0153414 0.0897017 -0.0308299 255 140 0
0.0175606 0.0897089 -0.0308528 255 140 0
0.0197615 0.0897102 -0.0308406 255 140 0
0.0219556 0.0897050 -0.0307970 255 140 0
-0.0822813 0.0919149 -0.0308571 255 140 0
-0.0800809 0.0919108 -0.0309411 255 140 0
-0.0778372 0.0919048 -0.0309099 255 140 0
-0.0756034 0.0918948 -0.0308878 255 140 0
-0.0733317 0.0918819 -0.0308735 255 140 0
-0.0710614 0.0919018 -0.0308601 255 140 0
-0.0688138 0.0919034 -0.0308484 255 140 0
-0.0665154 0.0919027 -0.0308398 255 140 0
-0.0642429 0.0919039 -0.0308346 255 140 0
-0.0619363 0.0919042 -0.0308196 255 140 0
-0.0596413 0.0919052 -0.0308111 255 140 0
-0.0574081 0.0919083 -0.0308147 255 140 0
-0.0551519 0.0919107 -0.0308156 255 140 0
-0.0528799 0.0919128 -0.0308133 255 140 0
-0.0506080 0.0919140 -0.0308112 255 140 0
-0.0483362 0.0919141 -0.0308102 255 140 0
-0.0460753 0.0919146 -0.0308091 255 140 0
-0.0438233 0.0919148 -0.0308085 255 140 0
-0.0415418 0.0919159 -0.0308085 255 140 0
-0.0392708 0.0919175 -0.0308094 255 140 0
-0.0369430 0.0919184 -0.0308046 255 140 0
-0.0346421 0.0919191 -0.0308022 255 140 0
-0.0324048 0.0919200 -0.0308064 255 140 0
-0.0301597 0.0919203 -0.0308083 255 140 0
-0.0278878 0.0919201 -0.0308076 255 140 0
-0.0256161 0.0919200 -0.0308077 255 140 0
-0.0233483 0.0919200 -0.0308075 255 140 0
-0.0210871 0.0919201 -0.0308075 255 140 0
-0.0188183 0.0919207 -0.0308078 255 140 0
-0.0165433 0.0919221 -0.0308089 255 140 0
-0.0142718 0.0919239 -0.0308108 255 140 0
-0.0119440 0.0919225 -0.0308086 255 140 0
-0.0096495 0.0919219 -0.0308089 255 140 0
-0.0074147 0.0919229 -0.0308137 255 140 0
-0.0051632 0.0919231 -0.0308168 255 140 0
-0.0028912 0.0919225 -0.0308181 255 140 0
-0.0006206 0.0919230 -0.0308207 255 140 0
0.0016484 0.0919246 -0.0308241 255 140 0
0.0039135 0.0919268 -0.0308279 255 140 0
0.0061810 0.0919287 -0.0308329 255 140 0
0.0084598 0.0919308 -0.0308407 255 140 0
0.0107319 0.0919332 -0.0308515 255 140 0
0.0130625 0.0919496 -0.0308682 255 140 0
0.0153447 0.0919321 -0.0308813 255 140 0
0.0175599 0.0919368 -0.0309068 255 140 0
0.0197611 0.0919395 -0.0308961 255 140 0
0.0219537 0.0919402 -0.0308531 255 140 0
-0.0822701 0.0941761 -0.0309203 255 140 0
-0.0800724 0.0941582 -0.0309644 255 140 0
-0.0778243 0.0941444 -0.0309231 255 140 0
-0.0756041 0.0941578 -0.0308960 255 140 0
-0.0733326 0.0941434 -0.0308805 255 140 0
-0.0710624 0.0941362 -0.0308676 255 140 0
-0.0688091 0.0941329 -0.0308573 255 140 0
-0.0665165 0.0941307 -0.0308501 255 140 0
-0.0642436 0.0941308 -0.0308454 255 140 0
-0.0619375 0.0941303 -0.0308311 255 140 0
-0.0596411 0.0941304 -0.0308234 255 140 0
-0.0574080 0.0941332 -0.0308270 255 140 0
-0.0551534 0.0941352 -0.0308281 255 140 0
-0.0528813 0.0941365 -0.0308260 255 140 0
-0.0506093 0.0941371 -0.0308244 255 140 0
-0.0483375 0.0941368 -0.0308235 255 140 0
-0.0460763 0.0941358 -0.0308225 255 140 0
-0.0438248 0.0941356 -0.0308223 255 140 0
-0.0415422 0.0941364 -0.0308227 255 140 0
-0.0392708 0.0941368 -0.0308234 255 140 0
-0.0369429 0.0941378 -0.0308193 255 140 0
-0.0346421 0.0941388 -0.0308181 255 140 0
-0.0324042 0.0941397 -0.0308228 255 140 0
-0.0301609 0.0941403 -0.0308252 255 140 0
-0.0278890 0.0941401 -0.0308252 255 140 0
-0.0256174 0.0941392 -0.0308248 255 140 0
-0.0233493 0.0941396 -0.0308246 255 140 0
-0.0210883 0.0941400 -0.0308245 255 140 0
-0.0188195 0.0941409 -0.0308255 255 140 0
-0.0165447 0.0941419 -0.0308263 255 140 0
-0.0142729 0.0941439 -0.0308282 255 140 0
-0.0119443 0.0941426 -0.0308259 255 140 0
-0.0096494 0.0941421 -0.0308257 255 140 0
-0.0074154 0.0941437 -0.0308307 255 140 0
-0.0051635 0.0941450 -0.0308340 255 140 0
-0.0028920 0.0941441 -0.0308352 255 140 0
-0.0006214 0.0941449 -0.0308378 255 140 0
0.0016475 0.0941475 -0.0308410 255 140 0
0.0039125 0.0941505 -0.0308449 255 140 0
0.0061799 0.0941534 -0.0308496 255 140 0
0.0084587 0.0941570 -0.0308569 255 140 0
0.0107307 0.0941616 -0.0308676 255 140 0
0.0130622 0.0941846 -0.0308831 255 140 0
0.0153443 0.0942000 -0.0308954 255 140 0
0.0175589 0.0941837 -0.0309223 255 140 0
0.0197594 0.0941815 -0.0309106 255 140 0
0.0219526 0.0941901 -0.0308641 255 140 0
-0.0822731 0.0964112 -0.0307444 255 140 0
-0.0800482 0.0964467 -0.0308661 255 140 0
-0.0778121 0.0964471 -0.0308804 255 140 0
-0.0756029 0.0964400 -0.0308806 255 140 0
-0.0733315 0.0964312 -0.0308700 255 140 0
-0.0710618 0.0964535 -0.0308601 255 140 0
-0.0688264 0.0964535 -0.0308511 255 140 0
-0.0665184 0.0964529 -0.0308440 255 140 0
-0.0642427 0.0964534 -0.0308393 255 140 0
-0.0619356 0.0964541 -0.0308240 255 140 0
-0.0596354 0.0964553 -0.0308158 255 140 0
-0.0574057 0.0964580 -0.0308196 255 140 0
-0.0551521 0.0964607 -0.0308209 255 140 0
-0.0528801 0.0964645 -0.0308192 255 140 0
-0.0506082 0.0964675 -0.0308183 255 140 0
-0.0483364 0.0964702 -0.0308176 255 140 0
-0.0460787 0.0964729 -0.0308169 255 140 0
-0.0438235 0.0964751 -0.0308161 255 140 0
-0.0415495 0.0964776 -0.0308157 255 140 0
-0.0392786 0.0964799 -0.0308161 255 140 0
-0.0369386 0.0964809 -0.0308099 255 140 0
-0.0346370 0.0964816 -0.0308077 255 140 0
-0.0324010 0.0964822 -0.0308119 255 140 0
-0.0301597 0.0964824 -0.0308138 255 140 0
-0.0278878 0.0964824 -0.0308129 255 140 0
-0.0256162 0.0964819 -0.0308128 255 140 0
-0.0233497 0.0964815 -0.0308131 255 140 0
-0.0210875 0.0964816 -0.0308138 255 140 0
-0.0188199 0.0964820 -0.0308139 255 140 0
-0.0165451 0.0964835 -0.0308145 255 140 0
-0.0142724 0.0964850 -0.0308159 255 140 0
-0.0119403 0.0964836 -0.0308146 255 140 0
-0.0096443 0.0964828 -0.0308151 255 140 0
-0.0074132 0.0964838 -0.0308201 255 140 0
-0.0051639 0.0964838 -0.0308234 255 140 0
-0.0028915 0.0964839 -0.0308250 255 140 0
-0.0006209 0.0964834 -0.0308274 255 140 0
0.0016479 0.0964846 -0.0308308 255 140 0
0.0039124 0.0964865 -0.0308345 255 140 0
0.0061792 0.0964880 -0.0308395 255 140 0
0.0084588 0.0964904 -0.0308466 255 140 0
0.0107303 0.0964927 -0.0308562 255 140 0
0.0130639 0.0965103 -0.0308707 255 140 0
0.0153461 0.0964905 -0.0308787 255 140 0
0.0175573 0.0964917 -0.0308977 255 140 0
0.0197545 0.0964878 -0.0308773 255 140 0
0.0219438 0.0964820 -0.0308214 255 140 0
0.0241463 0.0964784 -0.0307124 255 140 0
-0.0822753 0.0986886 -0.0306293 255 140 0
-0.0800297 0.0987224 -0.0307983 255 140 0
-0.0778094 0.0987395 -0.0308512 255 140 0
-0.0756013 0.0987358 -0.0308702 255 140 0
-0.0733306 0.0987353 -0.0308611 255 140 0
-0.0710608 0.0987549 -0.0308525 255 140 0
-0.0688293 0.0987553 -0.0308443 255 140 0
-0.0665196 0.0987546 -0.0308371 255 140 0
-0.0642419 0.0987542 -0.0308324 255 140 0
-0.0619348 0.0987555 -0.0308159 255 140 0
-0.0596337 0.0987560 -0.0308070 255 140 0
-0.0574051 0.0987584 -0.0308108 255 140 0
-0.0551514 0.0987620 -0.0308121 255 140 0
-0.0528793 0.0987659 -0.0308107 255 140 0
-0.0506074 0.0987698 -0.0308095 255 140 0
-0.0483358 0.0987736 -0.0308089 255 140 0
-0.0460787 0.0987768 -0.0308079 255 140 0
-0.0438231 0.0987797 -0.0308067 255 140 0
-0.0415502 0.0987831 -0.0308060 255 140 0
-0.0392763 0.0987862 -0.0308060 255 140 0
-0.0369378 0.0987872 -0.0307996 255 140 0
-0.0346358 0.0987879 -0.0307965 255 140 0
-0.0324000 0.0987882 -0.0308002 255 140 0
-0.0301589 0.0987883 -0.0308017 255 140 0
-0.0278870 0.0987883 -0.0308006 255 140 0
-0.0256154 0.0987879 -0.0308005 255 140 0
-0.0233491 0.0987870 -0.0308012 255 140 0
-0.0210870 0.0987868 -0.0308013 255 140 0
-0.0188198 0.0987871 -0.0308013 255 140 0
-0.0165445 0.0987881 -0.0308015 255 140 0
-0.0142721 0.0987896 -0.0308029 255 140 0
-0.0119392 0.0987886 -0.0308021 255 140 0
-0.0096431 0.0987877 -0.0308030 255 140 0
-0.0074124 0.0987881 -0.0308079 255 140 0
-0.0051636 0.0987880 -0.0308111 255 140 0
-0.0028911 0.0987874 -0.0308128 255 140 0
-0.0006206 0.0987879 -0.0308152 255 140 0
0.0016483 0.0987896 -0.0308187 255 140 0
0.0039127 0.0987907 -0.0308225 255 140 0
0.0061794 0.0987921 -0.0308278 255 140 0
0.0084588 0.0987947 -0.0308345 255 140 0
0.0107288 0.0987961 -0.0308430 255 140 0
0.0130631 0.0988119 -0.0308559 255 140 0
0.0153444 0.0987887 -0.0308605 255 140 0
0.0175466 0.0987856 -0.0308747 255 140 0
0.0197470 0.0987778 -0.0308474 255 140 0
0.0219396 0.0987604 -0.0307773 255 140 0
-0.0822790 0.1009993 -0.0305922 255 140 0
-0.0800216 0.1010035 -0.0307638 255 140 0
-0.0778086 0.1010378 -0.0308276 255 140 0
-0.0756015 0.1010336 -0.0308502 255 140 0
-0.0733307 0.1010236 -0.0308392 255 140 0
-0.0710601 0.1010142 -0.0308308 255 140 0
-0.0688114 0.1010068 -0.0308236 255 140 0
-0.0665162 0.1010031 -0.0308166 255 140 0
-0.0642424 0.1010022 -0.0308114 255 140 0
-0.0619354 0.1010026 -0.0307963 255 140 0
-0.0596391 0.1010027 -0.0307880 255 140 0
-0.0574073 0.1010051 -0.0307917 255 140 0
-0.0551515 0.1010075 -0.0307928 255 140 0
-0.0528795 0.1010099 -0.0307909 255 140 0
-0.0506076 0.1010116 -0.0307895 255 140 0
-0.0483358 0.1010137 -0.0307887 255 140 0
-0.0460750 0.1010162 -0.0307879 255 140 0
-0.0438232 0.1010185 -0.0307873 255 140 0
-0.0415429 0.1010213 -0.0307875 255 140 0
-0.0392724 0.1010241 -0.0307885 255 140 0
-0.0369419 0.1010256 -0.0307832 255 140 0
-0.0346392 0.1010266 -0.0307810 255 140 0
-0.0324021 0.1010277 -0.0307846 255 140 0
-0.0301592 0.1010283 -0.0307863 255 140 0
-0.0278872 0.1010286 -0.0307857 255 140 0
-0.0256156 0.1010285 -0.0307852 255 140 0
-0.0233485 0.1010280 -0.0307853 255 140 0
-0.0210869 0.1010280 -0.0307851 255 140 0
-0.0188186 0.1010286 -0.0307853 255 140 0
-0.0165436 0.1010297 -0.0307862 255 140 0
-0.0142715 0.1010305 -0.0307879 255 140 0
-0.0119422 0.1010293 -0.0307865 255 140 0
-0.0096468 0.1010289 -0.0307869 255 140 0
-0.0074139 0.1010297 -0.0307915 255 140 0
-0.0051628 0.1010299 -0.0307946 255 140 0
-0.0028911 0.1010293 -0.0307959 255 140 0
-0.0006205 0.1010292 -0.0307982 255 140 0
0.0016486 0.1010317 -0.0308014 255 140 0
0.0039136 0.1010331 -0.0308059 255 140 0
0.0061808 0.1010368 -0.0308117 255 140 0
0.0084591 0.1010454 -0.0308185 255 140 0
0.0107268 0.1010538 -0.0308261 255 140 0
0.0130577 0.1010692 -0.0308348 255 140 0
0.0153374 0.1010743 -0.0308313 255 140 0
0.0175414 0.1010620 -0.0308447 255 140 0
0.0197415 0.1010295 -0.0307986 255 140 0
0.0219480 0.1010187 -0.0306831 255 140 0
-0.0822776 0.1032716 -0.0305643 255 140 0
-0.0800130 0.1032744 -0.0307443 255 140 0
-0.0778074 0.1033084 -0.0308218 255 140 0
-0.0756005 0.1033029 -0.0308491 255 140 0
-0.0733300 0.1032938 -0.0308342 255 140 0
-0.0710588 0.1032817 -0.0308238 255 140 0
-0.0688064 0.1032703 -0.0308160 255 140 0
-0.0665161 0.1032657 -0.0308083 255 140 0
-0.0642421 0.1032637 -0.0308023 255 140 0
-0.0619350 0.1032639 -0.0307872 255 140 0
-0.0596412 0.1032641 -0.0307790 255 140 0
-0.0574084 0.1032656 -0.0307827 255 140 0
-0.0551515 0.1032672 -0.0307834 255 140 0
-0.0528795 0.1032682 -0.0307813 255 140 0
-0.0506075 0.1032695 -0.0307795 255 140 0
-0.0483358 0.1032704 -0.0307782 255 140 0
-0.0460734 0.1032719 -0.0307774 255 140 0
-0.0438231 0.1032740 -0.0307769 255 140 0
-0.0415393 0.1032759 -0.0307772 255 140 0
-0.0392669 0.1032783 -0.0307785 255 140 0
-0.0369421 0.1032799 -0.0307741 255 140 0
-0.0346422 0.1032811 -0.0307723 255 140 0
-0.0324033 0.1032824 -0.0307759 255 140 0
-0.0301591 0.1032833 -0.0307777 255 140 0
-0.0278872 0.1032839 -0.0307773 255 140 0
-0.0256156 0.1032842 -0.0307768 255 140 0
-0.0233483 0.1032840 -0.0307764 255 140 0
-0.0210868 0.1032845 -0.0307760 255 140 0
-0.0188178 0.1032849 -0.0307763 255 140 0
-0.0165430 0.1032858 -0.0307775 255 140 0
-0.0142712 0.1032865 -0.0307794 255 140 0
-0.0119439 0.1032853 -0.0307771 255 140 0
-0.0096495 0.1032848 -0.0307772 255 140 0
-0.0074143 0.1032856 -0.0307814 255 140 0
-0.0051624 0.1032861 -0.0307841 255 140 0
-0.0028909 0.1032848 -0.0307853 255 140 0
-0.0006204 0.1032854 -0.0307876 255 140 0
0.0016490 0.1032874 -0.0307910 255 140 0
0.0039146 0.1032895 -0.0307958 255 140 0
0.0061818 0.1032949 -0.0308018 255 140 0
0.0084590 0.1033075 -0.0308092 255 140 0
0.0107254 0.1033189 -0.0308155 255 140 0
0.0130553 0.1033327 -0.0308227 255 140 0
0.0153300 0.1033385 -0.0308133 255 140 0
0.0175276 0.1032996 -0.0308222 255 140 0
0.0197330 0.1032908 -0.0307638 255 140 0
0.0219455 0.1032742 -0.0306219 255 140 0
-0.0822713 0.1055093 -0.0305578 255 140 0
-0.0800104 0.1055421 -0.0307531 255 140 0
-0.0778066 0.1055544 -0.0308410 255 140 0
-0.0755951 0.1055587 -0.0308688 255 140 0
-0.0733297 0.1055897 -0.0308467 255 140 0
-0.0710586 0.1055798 -0.0308315 255 140 0
-0.0688130 0.1055674 -0.0308208 255 140 0
-0.0665164 0.1055610 -0.0308113 255 140 0
-0.0642421 0.1055562 -0.0308041 255 140 0
-0.0619350 0.1055567 -0.0307882 255 140 0
-0.0596404 0.1055573 -0.0307796 255 140 0
-0.0574082 0.1055571 -0.0307827 255 140 0
-0.0551513 0.1055578 -0.0307833 255 140 0
-0.0528794 0.1055591 -0.0307803 255 140 0
-0.0506074 0.1055606 -0.0307782 255 140 0
-0.0483356 0.1055613 -0.0307767 255 140 0
-0.0460741 0.1055621 -0.0307758 255 140 0
-0.0438231 0.1055631 -0.0307751 255 140 0
-0.0415409 0.1055645 -0.0307753 255 140 0
-0.0392683 0.1055661 -0.0307763 255 140 0
-0.0369419 0.1055669 -0.0307718 255 140 0
-0.0346416 0.1055674 -0.0307701 255 140 0
-0.0324029 0.1055677 -0.0307737 255 140 0
-0.0301589 0.1055684 -0.0307753 255 140 0
-0.0278869 0.1055693 -0.0307749 255 140 0
-0.0256153 0.1055698 -0.0307744 255 140 0
-0.0233466 0.1055702 -0.0307740 255 140 0
-0.0210866 0.1055700 -0.0307736 255 140 0
-0.0188174 0.1055695 -0.0307733 255 140 0
-0.0165426 0.1055699 -0.0307739 255 140 0
-0.0142708 0.1055703 -0.0307756 255 140 0
-0.0119437 0.1055690 -0.0307729 255 140 0
-0.0096491 0.1055681 -0.0307728 255 140 0
-0.0074142 0.1055690 -0.0307767 255 140 0
-0.0051623 0.1055697 -0.0307793 255 140 0
-0.0028906 0.1055701 -0.0307805 255 140 0
-0.0006199 0.1055725 -0.0307830 255 140 0
0.0016497 0.1055737 -0.0307866 255 140 0
0.0039153 0.1055751 -0.0307916 255 140 0
0.0061827 0.1055797 -0.0307979 255 140 0
0.0084600 0.1055918 -0.0308048 255 140 0
0.0107249 0.1055735 -0.0308107 255 140 0
0.0130502 0.1055867 -0.0308205 255 140 0
0.0153234 0.1055876 -0.0308105 255 140 0
0.0175194 0.1055737 -0.0308162 255 140 0
0.0197168 0.1055233 -0.0307547 255 140 0
0.0219309 0.1055088 -0.0306034 255 140 0
-0.0800029 0.1077801 -0.0307051 255 140 0
-0.0777994 0.1078058 -0.0308357 255 140 0
-0.0755491 0.1078397 -0.0308845 255 140 0
-0.0733290 0.1078426 -0.0308662 255 140 0
-0.0710580 0.1078350 -0.0308509 255 140 0
-0.0688175 0.1078233 -0.0308384 255 140 0
-0.0665172 0.1078271 -0.0308273 255 140 0
-0.0642427 0.1078322 -0.0308189 255 140 0
-0.0619344 0.1078362 -0.0308012 255 140 0
-0.0596376 0.1078364 -0.0307916 255 140 0
-0.0574077 0.1078364 -0.0307940 255 140 0
-0.0551509 0.1078353 -0.0307940 255 140 0
-0.0528789 0.1078346 -0.0307904 255 140 0
-0.0506070 0.1078322 -0.0307880 255 140 0
-0.0483353 0.1078283 -0.0307860 255 140 0
-0.0460782 0.1078243 -0.0307840 255 140 0
-0.0438227 0.1078213 -0.0307827 255 140 0
-0.0415458 0.1078200 -0.0307820 255 140 0
-0.0392731 0.1078208 -0.0307822 255 140 0
-0.0369415 0.1078207 -0.0307771 255 140 0
-0.0346402 0.1078219 -0.0307750 255 140 0
-0.0324016 0.1078216 -0.0307783 255 140 0
-0.0301584 0.1078225 -0.0307799 255 140 0
-0.0278864 0.1078240 -0.0307797 255 140 0
-0.0256148 0.1078246 -0.0307793 255 140 0
-0.0233473 0.1078245 -0.0307787 255 140 0
-0.0210861 0.1078241 -0.0307776 255 140 0
-0.0188172 0.1078234 -0.0307769 255 140 0
-0.0165423 0.1078234 -0.0307769 255 140 0
-0.0142704 0.1078242 -0.0307779 255 140 0
-0.0119432 0.1078221 -0.0307750 255 140 0
-0.0096485 0.1078217 -0.0307741 255 140 0
-0.0074138 0.1078228 -0.0307777 255 140 0
-0.0051626 0.1078233 -0.0307801 255 140 0
-0.0028904 0.1078236 -0.0307812 255 140 0
-0.0006196 0.1078248 -0.0307840 255 140 0
0.0016500 0.1078262 -0.0307876 255 140 0
0.0039156 0.1078285 -0.0307930 255 140 0
0.0061827 0.1078340 -0.0307990 255 140 0
0.0084589 0.1078490 -0.0308050 255 140 0
0.0107228 0.1078604 -0.0308057 255 140 0
0.0130471 0.1078706 -0.0308200 255 140 0
0.0153153 0.1078539 -0.0308065 255 140 0
0.0175030 0.1078105 -0.0307857 255 140 0
0.0196978 0.1077905 -0.0307123 255 140 0
-0.0799993 0.1100378 -0.0306002 255 140 0
-0.0777754 0.1100562 -0.0307933 255 140 0
-0.0755349 0.1100856 -0.0308807 255 140 0
-0.0733273 0.1101142 -0.0308763 255 140 0
-0.0710574 0.1101104 -0.0308673 255 140 0
-0.0688142 0.1101025 -0.0308556 255 140 0
-0.0665206 0.1100939 -0.0308441 255 140 0
-0.0642428 0.1100858 -0.0308351 255 140 0
-0.0619339 0.1100844 -0.0308151 255 140 0
-0.0596341 0.1100842 -0.0308033 255 140 0
-0.0574064 0.1100852 -0.0308055 255 140 0
-0.0551504 0.1100857 -0.0308048 255 140 0
-0.0528784 0.1100876 -0.0308008 255 140 0
-0.0506065 0.1100896 -0.0307975 255 140 0
-0.0483347 0.1100917 -0.0307947 255 140 0
-0.0460853 0.1100941 -0.0307917 255 140 0
-0.0438224 0.1100958 -0.0307887 255 140 0
-0.0415498 0.1100977 -0.0307862 255 140 0
-0.0392772 0.1100997 -0.0307849 255 140 0
-0.0369404 0.1101007 -0.0307781 255 140 0
-0.0346386 0.1101030 -0.0307748 255 140 0
-0.0323992 0.1101057 -0.0307779 255 140 0
-0.0301575 0.1101081 -0.0307800 255 140 0
-0.0278855 0.1101118 -0.0307813 255 140 0
-0.0256141 0.1101131 -0.0307814 255 140 0
-0.0233487 0.1101114 -0.0307804 255 140 0
-0.0210855 0.1101103 -0.0307792 255 140 0
-0.0188177 0.1101098 -0.0307777 255 140 0
-0.0165418 0.1101099 -0.0307770 255 140 0
-0.0142700 0.1101102 -0.0307771 255 140 0
-0.0119426 0.1101087 -0.0307735 255 140 0
-0.0096483 0.1101076 -0.0307720 255 140 0
-0.0074134 0.1101075 -0.0307746 255 140 0
-0.0051628 0.1101072 -0.0307764 255 140 0
-0.0028906 0.1101077 -0.0307773 255 140 0
-0.0006197 0.1101075 -0.0307797 255 140 0
0.0016499 0.1101086 -0.0307836 255 140 0
0.0039153 0.1101109 -0.0307886 255 140 0
0.0061816 0.1101175 -0.0307940 255 140 0
0.0084568 0.1101258 -0.0307980 255 140 0
0.0107175 0.1101102 -0.0307892 255 140 0
0.0130409 0.1101110 -0.0308071 255 140 0
0.0153054 0.1100997 -0.0307867 255 140 0
0.0174820 0.1100709 -0.0307193 255 140 0
0.0196772 0.1100398 -0.0306356 255 140 0
-0.0799953 0.1123116 -0.0305235 255 140 0
-0.0777564 0.1123256 -0.0307270 255 140 0
-0.0755316 0.1123450 -0.0308333 255 140 0
-0.0733252 0.1123739 -0.0308469 255 140 0
-0.0710552 0.1123920 -0.0308452 255 140 0
-0.0687866 0.1123921 -0.0308347 255 140 0
-0.0665135 0.1123833 -0.0308251 255 140 0
-0.0642408 0.1123747 -0.0308177 255 140 0
-0.0619326 0.1123706 -0.0307968 255 140 0
-0.0596335 0.1123694 -0.0307841 255 140 0
-0.0574070 0.1123710 -0.0307855 255 140 0
-0.0551492 0.1123729 -0.0307838 255 140 0
-0.0528771 0.1123740 -0.0307789 255 140 0
-0.0506052 0.1123764 -0.0307746 255 140 0
-0.0483338 0.1123794 -0.0307706 255 140 0
-0.0460875 0.1123827 -0.0307666 255 140 0
-0.0438213 0.1123860 -0.0307621 255 140 0
-0.0415486 0.1123891 -0.0307580 255 140 0
-0.0392761 0.1123924 -0.0307553 255 140 0
-0.0369394 0.1123937 -0.0307470 255 140 0
-0.0346396 0.1123971 -0.0307441 255 140 0
-0.0323965 0.1124002 -0.0307480 255 140 0
-0.0301561 0.1124094 -0.0307541 255 140 0
-0.0278842 0.1124202 -0.0307633 255 140 0
-0.0256124 0.1124263 -0.0307672 255 140 0
-0.0233428 0.1124278 -0.0307664 255 140 0
-0.0210845 0.1124275 -0.0307650 255 140 0
-0.0188160 0.1124256 -0.0307631 255 140 0
-0.0165413 0.1124251 -0.0307615 255 140 0
-0.0142695 0.1124253 -0.0307603 255 140 0
-0.0119417 0.1124243 -0.0307554 255 140 0
-0.0096471 0.1124239 -0.0307528 255 140 0
-0.0074132 0.1124219 -0.0307533 255 140 0
-0.0051623 0.1124225 -0.0307539 255 140 0
-0.0028908 0.1124216 -0.0307540 255 140 0
-0.0006198 0.1124213 -0.0307555 255 140 0
0.0016496 0.1124217 -0.0307590 255 140 0
0.0039147 0.1124236 -0.0307634 255 140 0
0.0061803 0.1124230 -0.0307673 255 140 0
0.0084532 0.1124133 -0.0307696 255 140 0
0.0107131 0.1124161 -0.0307565 255 140 0
0.0130319 0.1124060 -0.0307690 255 140 0
0.0152952 0.1123881 -0.0307433 255 140 0
0.0174665 0.1123475 -0.0306517 255 140 0
0.0196609 0.1123193 -0.0305721 255 140 0
-0.0777376 0.1145799 -0.0306339 255 140 0
-0.0755279 0.1146241 -0.0307314 255 140 0
-0.0732981 0.1146521 -0.0307630 255 140 0
-0.0710522 0.1146708 -0.0307748 255 140 0
-0.0687813 0.1146896 -0.0307757 255 140 0
-0.0665094 0.1146962 -0.0307748 255 140 0
-0.0642374 0.1146811 -0.0307665 255 140 0
-0.0619304 0.1146732 -0.0307440 255 140 0
-0.0596392 0.1146705 -0.0307306 255 140 0
-0.0574081 0.1146717 -0.0307308 255 140 0
-0.0551472 0.1146739 -0.0307292 255 140 0
-0.0528753 0.1146776 -0.0307241 255 140 0
-0.0506034 0.1146806 -0.0307200 255 140 0
-0.0483318 0.1146853 -0.0307158 255 140 0
-0.0460835 0.1146909 -0.0307115 255 140 0
-0.0438195 0.1146959 -0.0307072 255 140 0
-0.0415468 0.1147013 -0.0307025 255 140 0
-0.0392735 0.1147076 -0.0306997 255 140 0
-0.0369377 0.1147111 -0.0306911 255 140 0
-0.0346441 0.1147174 -0.0306896 255 140 0
-0.0323944 0.1147239 -0.0306951 255 140 0
-0.0301536 0.1147365 -0.0307059 255 140 0
-0.0278813 0.1147567 -0.0307237 255 140 0
-0.0256105 0.1147651 -0.0307316 255 140 0
-0.0233396 0.1147655 -0.0307321 255 140 0
-0.0210823 0.1147647 -0.0307310 255 140 0
-0.0188134 0.1147603 -0.0307299 255 140 0
-0.0165403 0.1147605 -0.0307273 255 140 0
-0.0142684 0.1147593 -0.0307250 255 140 0
-0.0119412 0.1147575 -0.0307174 255 140 0
-0.0096469 0.1147558 -0.0307119 255 140 0
-0.0074147 0.1147428 -0.0307086 255 140 0
-0.0051634 0.1147247 -0.0307062 255 140 0
-0.0028915 0.1147213 -0.0307047 255 140 0
-0.0006199 0.1147195 -0.0307051 255 140 0
0.0016497 0.1147185 -0.0307070 255 140 0
0.0039147 0.1147183 -0.0307073 255 140 0
0.0061792 0.1147185 -0.0307067 255 140 0
0.0084519 0.1147178 -0.0307033 255 140 0
0.0107086 0.1147097 -0.0306875 255 140 0
0.0130248 0.1146373 -0.0306738 255 140 0
0.0152894 0.1146080 -0.0306383 255 140 0
