ply
format ascii 1.0
element vertex 1197
property float x
property float y
property float z
property uchar red
property uchar green
property uchar blue
end_header
-0.0499211 0.1179293 -0.0328272 255 0 0
-0.0476334 0.1179400 -0.0328269 255 0 0
-0.0453815 0.1179420 -0.0328276 255 0 0
-0.0431148 0.1179439 -0.0328283 255 0 0
-0.0408024 0.1179443 -0.0328267 255 0 0
-0.0384937 0.1179447 -0.0328267 255 0 0
-0.0362046 0.1179459 -0.0328293 255 0 0
-0.0338961 0.1179447 -0.0328305 255 0 0
-0.0316048 0.1179420 -0.0328321 255 0 0
-0.0293077 0.1179417 -0.0328343 255 0 0
-0.0270037 0.1179418 -0.0328367 255 0 0
-0.0247917 0.1179440 -0.0328415 255 0 0
-0.0225458 0.1179447 -0.0328487 255 0 0
-0.0202061 0.1179416 -0.0328539 255 0 0
-0.0178928 0.1179392 -0.0328623 255 0 0
-0.0155979 0.1179350 -0.0328736 255 0 0
-0.0133035 0.1179357 -0.0328848 255 0 0
-0.0110099 0.1179395 -0.0328947 255 0 0
-0.0087110 0.1179427 -0.0329087 255 0 0
-0.0064120 0.1179518 -0.0329312 255 0 0
-0.0041187 0.1179667 -0.0329666 255 0 0
-0.0018149 0.1179831 -0.0330041 255 0 0
0.0004364 0.1180290 -0.0331448 255 0 0
0.0027176 0.1180683 -0.0332473 255 0 0
0.0050720 0.1180865 -0.0333065 255 0 0
0.0073956 0.1180963 -0.0333507 255 0 0
-0.0866480 0.1204427 -0.0333403 255 0 0
-0.0843257 0.1204299 -0.0332922 255 0 0
-0.0820205 0.1203833 -0.0331572 255 0 0
-0.0797241 0.1203493 -0.0330575 255 0 0
-0.0774021 0.1203244 -0.0329906 255 0 0
-0.0751118 0.1202997 -0.0329502 255 0 0
-0.0728072 0.1202784 -0.0329163 255 0 0
-0.0705711 0.1202824 -0.0329166 255 0 0
-0.0683020 0.1202838 -0.0329179 255 0 0
-0.0659832 0.1202856 -0.0329205 255 0 0
-0.0636663 0.1203014 -0.0329292 255 0 0
-0.0613766 0.1203366 -0.0329422 255 0 0
-0.0590876 0.1203561 -0.0329516 255 0 0
-0.0567984 0.1203619 -0.0329554 255 0 0
-0.0545016 0.1203650 -0.0329520 255 0 0
-0.0522077 0.1203693 -0.0329494 255 0 0
-0.0499235 0.1203754 -0.0329481 255 0 0
-0.0476351 0.1203786 -0.0329472 255 0 0
-0.0453815 0.1203797 -0.0329467 255 0 0
-0.0431159 0.1203771 -0.0329466 255 0 0
-0.0408037 0.1203791 -0.0329476 255 0 0
-0.0384947 0.1203760 -0.0329486 255 0 0
-0.0362061 0.1203695 -0.0329500 255 0 0
-0.0338981 0.1203619 -0.0329513 255 0 0
-0.0316061 0.1203545 -0.0329558 255 0 0
-0.0293076 0.1203504 -0.0329627 255 0 0
-0.0270046 0.1203464 -0.0329683 255 0 0
-0.0247900 0.1203468 -0.0329805 255 0 0
-0.0225444 0.1203446 -0.0329917 255 0 0
-0.0202062 0.1203388 -0.0329958 255 0 0
-0.0178937 0.1203346 -0.0330020 255 0 0
-0.0155993 0.1203318 -0.0330097 255 0 0
-0.0133059 0.1203312 -0.0330187 255 0 0
-0.0110129 0.1203340 -0.0330276 255 0 0
-0.0087129 0.1203386 -0.0330437 255 0 0
-0.0064123 0.1203497 -0.0330702 255 0 0
-0.0041199 0.1203714 -0.0331169 255 0 0
-0.0018118 0.1203821 -0.0331532 255 0 0
0.0004354 0.1204379 -0.0333187 255 0 0
0.0027204 0.1204540 -0.0334275 255 0 0
0.0051046 0.1205044 -0.0334495 255 0 0
-0.0843441 0.1225795 -0.0332657 255 0 0
-0.0820303 0.1226051 -0.0331792 255 0 0
-0.0797227 0.1226000 -0.0331047 255 0 0
-0.0774044 0.1225873 -0.0330350 255 0 0
-0.0751150 0.1225570 -0.0329863 255 0 0
-0.0728166 0.1225295 -0.0329538 255 0 0
-0.0705723 0.1225266 -0.0329496 255 0 0
-0.0682991 0.1225287 -0.0329507 255 0 0
-0.0659897 0.1225308 -0.0329573 255 0 0
-0.0636686 0.1225404 -0.0329673 255 0 0
-0.0613799 0.1225614 -0.0329809 255 0 0
-0.0590907 0.1225716 -0.0329914 255 0 0
-0.0568017 0.1225693 -0.0329973 255 0 0
-0.0545079 0.1225716 -0.0329954 255 0 0
-0.0522122 0.1225763 -0.0329934 255 0 0
-0.0499277 0.1225786 -0.0329918 255 0 0
-0.0476384 0.1225806 -0.0329908 255 0 0
-0.0453839 0.1225788 -0.0329899 255 0 0
-0.0431165 0.1225782 -0.0329889 255 0 0
-0.0408062 0.1225791 -0.0329883 255 0 0
-0.0384974 0.1225806 -0.0329876 255 0 0
-0.0362091 0.1225769 -0.0329871 255 0 0
-0.0339014 0.1225761 -0.0329879 255 0 0
-0.0316093 0.1225781 -0.0329891 255 0 0
-0.0293138 0.1225820 -0.0329923 255 0 0
-0.0270081 0.1225831 -0.0329927 255 0 0
-0.0247906 0.1225975 -0.0330023 255 0 0
-0.0225402 0.1226031 -0.0330099 255 0 0
-0.0202063 0.1225950 -0.0330132 255 0 0
-0.0178959 0.1225884 -0.0330197 255 0 0
-0.0156018 0.1225893 -0.0330294 255 0 0
-0.0133090 0.1225899 -0.0330393 255 0 0
-0.0110163 0.1225914 -0.0330506 255 0 0
-0.0087169 0.1225958 -0.0330706 255 0 0
-0.0064158 0.1225935 -0.0331027 255 0 0
-0.0041238 0.1226079 -0.0331589 255 0 0
-0.0018138 0.1226234 -0.0332030 255 0 0
0.0004408 0.1226358 -0.0334067 255 0 0
0.0027355 0.1226428 -0.0335320 255 0 0
-0.0820412 0.1248430 -0.0332021 255 0 0
-0.0797269 0.1248761 -0.0332027 255 0 0
-0.0774074 0.1248862 -0.0331451 255 0 0
-0.0751195 0.1248736 -0.0331011 255 0 0
-0.0728201 0.1248504 -0.0330705 255 0 0
-0.0705703 0.1248485 -0.0330472 255 0 0
-0.0682990 0.1248482 -0.0330350 255 0 0
-0.0659900 0.1248540 -0.0330421 255 0 0
-0.0636713 0.1248612 -0.0330509 255 0 0
-0.0613819 0.1248703 -0.0330593 255 0 0
-0.0590929 0.1248829 -0.0330699 255 0 0
-0.0568041 0.1248859 -0.0330772 255 0 0
-0.0545104 0.1248916 -0.0330775 255 0 0
-0.0522157 0.1248991 -0.0330766 255 0 0
-0.0499309 0.1248990 -0.0330746 255 0 0
-0.0476421 0.1248968 -0.0330725 255 0 0
-0.0453853 0.1248956 -0.0330680 255 0 0
-0.0431125 0.1248955 -0.0330660 255 0 0
-0.0408060 0.1248947 -0.0330637 255 0 0
-0.0384993 0.1248934 -0.0330622 255 0 0
-0.0362126 0.1248896 -0.0330604 255 0 0
-0.0339091 0.1248884 -0.0330606 255 0 0
-0.0316098 0.1248916 -0.0330650 255 0 0
-0.0293181 0.1248941 -0.0330711 255 0 0
-0.0270192 0.1248914 -0.0330782 255 0 0
-0.0247868 0.1249075 -0.0330924 255 0 0
-0.0225287 0.1249200 -0.0331054 255 0 0
-0.0202049 0.1249040 -0.0331041 255 0 0
-0.0178979 0.1249004 -0.0331111 255 0 0
-0.0156038 0.1249013 -0.0331203 255 0 0
-0.0133141 0.1249086 -0.0331333 255 0 0
-0.0110203 0.1249216 -0.0331491 255 0 0
-0.0087164 0.1249323 -0.0331754 255 0 0
-0.0064156 0.1249412 -0.0332127 255 0 0
-0.0041231 0.1249494 -0.0332689 255 0 0
-0.0018117 0.1249410 -0.0333075 255 0 0
0.0004553 0.1248933 -0.0335338 255 0 0
-0.0797050 0.1273726 -0.0334642 255 0 0
-0.0773876 0.1273278 -0.0333820 255 0 0
-0.0750759 0.1272747 -0.0333146 255 0 0
-0.0728252 0.1271776 -0.0332617 255 0 0
-0.0705743 0.1271634 -0.0332084 255 0 0
-0.0683017 0.1271651 -0.0331785 255 0 0
-0.0659954 0.1271714 -0.0331861 255 0 0
-0.0636742 0.1271783 -0.0331938 255 0 0
-0.0613863 0.1271893 -0.0331998 255 0 0
-0.0590952 0.1271990 -0.0332100 255 0 0
-0.0568067 0.1272149 -0.0332197 255 0 0
-0.0545146 0.1272274 -0.0332173 255 0 0
-0.0522143 0.1272353 -0.0332109 255 0 0
-0.0499313 0.1272363 -0.0332072 255 0 0
-0.0476465 0.1272386 -0.0332046 255 0 0
-0.0453866 0.1272327 -0.0332025 255 0 0
-0.0431076 0.1272295 -0.0332007 255 0 0
-0.0408050 0.1272275 -0.0331980 255 0 0
-0.0385017 0.1272253 -0.0331967 255 0 0
-0.0362145 0.1272249 -0.0331969 255 0 0
-0.0339172 0.1272274 -0.0331979 255 0 0
-0.0316140 0.1272278 -0.0331988 255 0 0
-0.0293289 0.1272295 -0.0332019 255 0 0
-0.0270321 0.1272282 -0.0332023 255 0 0
-0.0247849 0.1272608 -0.0332083 255 0 0
-0.0225179 0.1272790 -0.0332193 255 0 0
-0.0202026 0.1272660 -0.0332222 255 0 0
-0.0178955 0.1272607 -0.0332311 255 0 0
-0.0156081 0.1272628 -0.0332442 255 0 0
-0.0133117 0.1272660 -0.0332655 255 0 0
-0.0110204 0.1272930 -0.0332974 255 0 0
-0.0087211 0.1273275 -0.0333435 255 0 0
-0.0064125 0.1273813 -0.0334044 255 0 0
-0.0040969 0.1274339 -0.0334853 255 0 0
-0.0752207 0.1293962 -0.0333331 255 0 0
-0.0728401 0.1295389 -0.0333817 255 0 0
-0.0705834 0.1295288 -0.0333232 255 0 0
-0.0682956 0.1295202 -0.0332833 255 0 0
-0.0660045 0.1295320 -0.0332992 255 0 0
-0.0636898 0.1295481 -0.0333052 255 0 0
-0.0613862 0.1295684 -0.0333008 255 0 0
-0.0590952 0.1295948 -0.0332911 255 0 0
-0.0568033 0.1296278 -0.0332839 255 0 0
-0.0545110 0.1296517 -0.0332802 255 0 0
-0.0522214 0.1296603 -0.0332815 255 0 0
-0.0499350 0.1296684 -0.0332796 255 0 0
-0.0476463 0.1296795 -0.0332776 255 0 0
-0.0453796 0.1296836 -0.0332492 255 0 0
-0.0431020 0.1296765 -0.0332288 255 0 0
-0.0407937 0.1296858 -0.0332267 255 0 0
-0.0384952 0.1296842 -0.0332258 255 0 0
-0.0362066 0.1296917 -0.0332272 255 0 0
-0.0339089 0.1297072 -0.0332255 255 0 0
-0.0316107 0.1297214 -0.0332266 255 0 0
-0.0293205 0.1297507 -0.0332334 255 0 0
-0.0270191 0.1297691 -0.0332310 255 0 0
-0.0247645 0.1298649 -0.0332989 255 0 0
-0.0224938 0.1299335 -0.0333522 255 0 0
-0.0201855 0.1299071 -0.0333240 255 0 0
-0.0178854 0.1298930 -0.0333203 255 0 0
-0.0156058 0.1299032 -0.0333337 255 0 0
-0.0133135 0.1299186 -0.0333581 255 0 0
-0.0110149 0.1299485 -0.0333884 255 0 0
-0.0087003 0.1299774 -0.0334145 255 0 0
-0.0705886 0.1321696 -0.0336051 255 0 0
-0.0682963 0.1321680 -0.0335726 255 0 0
-0.0660051 0.1322004 -0.0336277 255 0 0
-0.0637119 0.1322463 -0.0336468 255 0 0
-0.0613854 0.1322724 -0.0336037 255 0 0
-0.0590831 0.1323595 -0.0335830 255 0 0
-0.0568048 0.1324961 -0.0335466 255 0 0
-0.0544922 0.1324946 -0.0335486 255 0 0
-0.0522034 0.1324213 -0.0335201 255 0 0
-0.0499152 0.1323916 -0.0334957 255 0 0
-0.0476299 0.1323908 -0.0334773 255 0 0
-0.0453552 0.1324102 -0.0334406 255 0 0
-0.0430754 0.1324408 -0.0334131 255 0 0
-0.0407693 0.1324603 -0.0334103 255 0 0
-0.0384733 0.1324720 -0.0334065 255 0 0
-0.0361852 0.1324541 -0.0333904 255 0 0
-0.0338908 0.1324610 -0.0333883 255 0 0
-0.0315927 0.1324891 -0.0333945 255 0 0
-0.0292931 0.1325335 -0.0334045 255 0 0
-0.0270009 0.1325184 -0.0333957 255 0 0
-0.0247322 0.1327989 -0.0336401 255 0 0
-0.0224468 0.1328547 -0.0337660 255 0 0
-0.0201511 0.1328197 -0.0336717 255 0 0
-0.0178551 0.1327489 -0.0336124 255 0 0
-0.0155569 0.1327333 -0.0336209 255 0 0
-0.0132664 0.1327542 -0.0336392 255 0 0
-0.0613920 0.1350867 -0.0336256 255 0 0
-0.0590954 0.1350334 -0.0337034 255 0 0
-0.0567890 0.1349214 -0.0336332 255 0 0
-0.0544966 0.1349852 -0.0336884 255 0 0
-0.0521797 0.1351022 -0.0338136 255 0 0
-0.0498972 0.1351578 -0.0338837 255 0 0
-0.0476427 0.1351982 -0.0339122 255 0 0
-0.0453450 0.1351867 -0.0337137 255 0 0
-0.0430665 0.1351538 -0.0335780 255 0 0
-0.0407714 0.1351414 -0.0335504 255 0 0
-0.0384756 0.1351319 -0.0335276 255 0 0
-0.0361861 0.1351150 -0.0335104 255 0 0
-0.0338948 0.1351065 -0.0335038 255 0 0
-0.0316000 0.1351081 -0.0335064 255 0 0
-0.0293054 0.1351123 -0.0335254 255 0 0
-0.0270200 0.1351168 -0.0335356 255 0 0
-0.0247395 0.1348964 -0.0336334 255 0 0
-0.0224507 0.1348322 -0.0337077 255 0 0
-0.0201468 0.1349050 -0.0336112 255 0 0
-0.0521968 0.0367811 -0.0272993 255 0 0
-0.0499400 0.0367698 -0.0273081 255 0 0
-0.0476768 0.0367620 -0.0273176 255 0 0
-0.0453385 0.0367489 -0.0273149 255 0 0
-0.0430440 0.0367394 -0.0273197 255 0 0
-0.0567529 0.0390400 -0.0273145 255 0 0
-0.0544853 0.0390294 -0.0273187 255 0 0
-0.0522280 0.0390156 -0.0273239 255 0 0
-0.0499411 0.0390056 -0.0273292 255 0 0
-0.0476836 0.0389990 -0.0273374 255 0 0
-0.0453337 0.0389913 -0.0273375 255 0 0
-0.0430439 0.0389886 -0.0273408 255 0 0
-0.0407876 0.0389978 -0.0273559 255 0 0
-0.0385301 0.0390025 -0.0273608 255 0 0
-0.0362292 0.0390008 -0.0273602 255 0 0
-0.0339380 0.0389984 -0.0273607 255 0 0
-0.0316501 0.0389958 -0.0273613 255 0 0
-0.0293617 0.0389918 -0.0273607 255 0 0
-0.0270935 0.0389835 -0.0273660 255 0 0
-0.0247597 0.0390035 -0.0273230 255 0 0
-0.0224595 0.0390223 -0.0272945 255 0 0
-0.0201915 0.0390176 -0.0273058 255 0 0
-0.0179397 0.0390236 -0.0273142 255 0 0
-0.0613308 0.0412614 -0.0273512 255 0 0
-0.0590550 0.0412640 -0.0273439 255 0 0
-0.0567748 0.0412630 -0.0273382 255 0 0
-0.0545168 0.0412626 -0.0273393 255 0 0
-0.0522294 0.0412397 -0.0273432 255 0 0
-0.0499420 0.0412334 -0.0273479 255 0 0
-0.0476834 0.0412281 -0.0273510 255 0 0
-0.0453336 0.0412217 -0.0273527 255 0 0
-0.0430351 0.0412180 -0.0273546 255 0 0
-0.0407872 0.0412334 -0.0273579 255 0 0
-0.0385008 0.0412435 -0.0273636 255 0 0
-0.0362131 0.0412435 -0.0273631 255 0 0
-0.0339346 0.0412412 -0.0273641 255 0 0
-0.0316506 0.0412368 -0.0273658 255 0 0
-0.0293623 0.0412298 -0.0273677 255 0 0
-0.0270916 0.0412232 -0.0273698 255 0 0
-0.0247615 0.0412173 -0.0273587 255 0 0
-0.0224656 0.0412181 -0.0273492 255 0 0
-0.0201876 0.0412199 -0.0273523 255 0 0
-0.0179284 0.0412306 -0.0273546 255 0 0
-0.0156889 0.0412633 -0.0273527 255 0 0
-0.0658806 0.0435009 -0.0273606 255 0 0
-0.0636090 0.0434753 -0.0273644 255 0 0
-0.0613518 0.0434909 -0.0273582 255 0 0
-0.0590649 0.0434977 -0.0273541 255 0 0
-0.0568056 0.0435197 -0.0273504 255 0 0
-0.0545178 0.0435279 -0.0273521 255 0 0
-0.0522389 0.0435057 -0.0273539 255 0 0
-0.0499582 0.0434983 -0.0273556 255 0 0
-0.0476842 0.0434909 -0.0273581 255 0 0
-0.0453339 0.0434856 -0.0273569 255 0 0
-0.0430371 0.0434831 -0.0273579 255 0 0
-0.0407880 0.0435018 -0.0273608 255 0 0
-0.0385008 0.0435013 -0.0273657 255 0 0
-0.0362132 0.0434987 -0.0273672 255 0 0
-0.0339326 0.0434949 -0.0273684 255 0 0
-0.0316510 0.0434899 -0.0273708 255 0 0
-0.0293620 0.0434821 -0.0273728 255 0 0
-0.0270899 0.0434751 -0.0273752 255 0 0
-0.0247584 0.0434678 -0.0273704 255 0 0
-0.0224603 0.0434654 -0.0273669 255 0 0
-0.0201794 0.0434623 -0.0273646 255 0 0
-0.0179134 0.0434682 -0.0273649 255 0 0
-0.0156637 0.0434994 -0.0273640 255 0 0
-0.0134118 0.0435240 -0.0273628 255 0 0
-0.0681688 0.0457173 -0.0273718 255 0 0
-0.0658971 0.0457049 -0.0273723 255 0 0
-0.0636237 0.0457092 -0.0273669 255 0 0
-0.0613593 0.0457293 -0.0273615 255 0 0
-0.0590946 0.0457584 -0.0273546 255 0 0
-0.0568061 0.0457662 -0.0273504 255 0 0
-0.0545182 0.0457783 -0.0273523 255 0 0
-0.0522587 0.0457787 -0.0273538 255 0 0
-0.0499696 0.0457758 -0.0273541 255 0 0
-0.0476842 0.0457709 -0.0273550 255 0 0
-0.0453332 0.0457674 -0.0273547 255 0 0
-0.0430334 0.0457646 -0.0273554 255 0 0
-0.0407873 0.0457630 -0.0273572 255 0 0
-0.0385007 0.0457603 -0.0273587 255 0 0
-0.0362131 0.0457570 -0.0273602 255 0 0
-0.0339305 0.0457527 -0.0273622 255 0 0
-0.0316530 0.0457465 -0.0273643 255 0 0
-0.0293631 0.0457385 -0.0273683 255 0 0
-0.0270898 0.0457338 -0.0273714 255 0 0
-0.0247580 0.0457192 -0.0273695 255 0 0
-0.0224521 0.0457139 -0.0273692 255 0 0
-0.0201734 0.0457167 -0.0273726 255 0 0
-0.0179039 0.0457281 -0.0273727 255 0 0
-0.0156426 0.0457319 -0.0273701 255 0 0
-0.0133821 0.0457525 -0.0273688 255 0 0
-0.0111299 0.0457810 -0.0273665 255 0 0
-0.0704665 0.0479716 -0.0273823 255 0 0
-0.0681841 0.0479364 -0.0273738 255 0 0
-0.0658978 0.0479403 -0.0273786 255 0 0
-0.0636348 0.0479467 -0.0273738 255 0 0
-0.0613842 0.0479651 -0.0273692 255 0 0
-0.0590954 0.0480069 -0.0273662 255 0 0
-0.0568082 0.0480534 -0.0273600 255 0 0
-0.0545404 0.0480708 -0.0273580 255 0 0
-0.0522597 0.0480727 -0.0273574 255 0 0
-0.0499715 0.0480718 -0.0273579 255 0 0
-0.0476835 0.0480693 -0.0273580 255 0 0
-0.0453321 0.0480646 -0.0273574 255 0 0
-0.0430250 0.0480600 -0.0273578 255 0 0
-0.0407784 0.0480576 -0.0273586 255 0 0
-0.0385003 0.0480508 -0.0273592 255 0 0
-0.0362127 0.0480401 -0.0273595 255 0 0
-0.0339303 0.0480281 -0.0273595 255 0 0
-0.0316528 0.0480157 -0.0273597 255 0 0
-0.0293638 0.0480006 -0.0273624 255 0 0
-0.0270908 0.0479893 -0.0273647 255 0 0
-0.0247558 0.0479704 -0.0273624 255 0 0
-0.0224459 0.0479602 -0.0273616 255 0 0
-0.0201697 0.0479537 -0.0273708 255 0 0
-0.0178915 0.0479518 -0.0273747 255 0 0
-0.0156209 0.0479500 -0.0273716 255 0 0
-0.0133598 0.0479717 -0.0273672 255 0 0
-0.0111077 0.0479854 -0.0273630 255 0 0
-0.0088660 0.0480222 -0.0273556 255 0 0
-0.0727714 0.0502967 -0.0273845 255 0 0
-0.0704718 0.0502957 -0.0273852 255 0 0
-0.0681840 0.0502976 -0.0273860 255 0 0
-0.0659487 0.0502997 -0.0273853 255 0 0
-0.0636729 0.0503193 -0.0273763 255 0 0
-0.0613834 0.0503499 -0.0273672 255 0 0
-0.0590948 0.0503733 -0.0273585 255 0 0
-0.0568061 0.0503923 -0.0273523 255 0 0
-0.0545314 0.0504023 -0.0273523 255 0 0
-0.0522598 0.0504025 -0.0273525 255 0 0
-0.0499692 0.0504012 -0.0273524 255 0 0
-0.0476840 0.0503990 -0.0273532 255 0 0
-0.0453326 0.0503954 -0.0273533 255 0 0
-0.0430371 0.0503926 -0.0273544 255 0 0
-0.0407875 0.0503900 -0.0273554 255 0 0
-0.0385006 0.0503872 -0.0273565 255 0 0
-0.0362130 0.0503838 -0.0273578 255 0 0
-0.0339259 0.0503806 -0.0273588 255 0 0
-0.0316537 0.0503771 -0.0273600 255 0 0
-0.0293624 0.0503719 -0.0273621 255 0 0
-0.0270904 0.0503658 -0.0273653 255 0 0
-0.0247577 0.0503593 -0.0273655 255 0 0
-0.0224504 0.0503578 -0.0273660 255 0 0
-0.0201703 0.0503465 -0.0273715 255 0 0
-0.0178929 0.0503404 -0.0273765 255 0 0
-0.0156155 0.0503413 -0.0273772 255 0 0
-0.0133410 0.0503389 -0.0273770 255 0 0
-0.0110724 0.0503410 -0.0273726 255 0 0
-0.0088167 0.0503447 -0.0273686 255 0 0
-0.0065766 0.0503463 -0.0273627 255 0 0
-0.0750453 0.0525975 -0.0273580 255 0 0
-0.0728237 0.0525601 -0.0273831 255 0 0
-0.0704710 0.0525936 -0.0273920 255 0 0
-0.0681811 0.0526195 -0.0273987 255 0 0
-0.0659585 0.0526276 -0.0273971 255 0 0
-0.0636715 0.0526448 -0.0273873 255 0 0
-0.0613860 0.0526763 -0.0273781 255 0 0
-0.0590960 0.0526995 -0.0273671 255 0 0
-0.0568071 0.0527167 -0.0273604 255 0 0
-0.0545244 0.0527239 -0.0273595 255 0 0
-0.0522592 0.0527233 -0.0273600 255 0 0
-0.0499588 0.0527210 -0.0273603 255 0 0
-0.0476818 0.0527170 -0.0273611 255 0 0
-0.0453319 0.0527130 -0.0273616 255 0 0
-0.0430425 0.0527098 -0.0273623 255 0 0
-0.0407868 0.0527067 -0.0273633 255 0 0
-0.0385000 0.0527040 -0.0273646 255 0 0
-0.0362126 0.0527007 -0.0273658 255 0 0
-0.0339255 0.0526985 -0.0273667 255 0 0
-0.0316538 0.0526959 -0.0273679 255 0 0
-0.0293612 0.0526909 -0.0273706 255 0 0
-0.0270896 0.0526856 -0.0273760 255 0 0
-0.0247596 0.0526805 -0.0273730 255 0 0
-0.0224545 0.0526817 -0.0273739 255 0 0
-0.0201711 0.0526733 -0.0273779 255 0 0
-0.0178932 0.0526669 -0.0273831 255 0 0
-0.0156119 0.0526615 -0.0273880 255 0 0
-0.0133320 0.0526562 -0.0273880 255 0 0
-0.0110481 0.0526502 -0.0273856 255 0 0
-0.0087820 0.0526335 -0.0273855 255 0 0
-0.0065368 0.0526125 -0.0273827 255 0 0
-0.0043158 0.0525846 -0.0273831 255 0 0
-0.0773349 0.0548812 -0.0273388 255 0 0
-0.0751126 0.0548697 -0.0273613 255 0 0
-0.0728269 0.0548600 -0.0273784 255 0 0
-0.0704841 0.0548815 -0.0273797 255 0 0
-0.0681828 0.0548952 -0.0273785 255 0 0
-0.0659599 0.0549024 -0.0273774 255 0 0
-0.0636734 0.0549210 -0.0273666 255 0 0
-0.0613834 0.0549593 -0.0273573 255 0 0
-0.0590943 0.0549861 -0.0273495 255 0 0
-0.0568056 0.0550032 -0.0273446 255 0 0
-0.0545276 0.0550093 -0.0273456 255 0 0
-0.0522602 0.0550070 -0.0273467 255 0 0
-0.0499595 0.0550037 -0.0273479 255 0 0
-0.0476828 0.0550002 -0.0273491 255 0 0
-0.0453317 0.0549948 -0.0273504 255 0 0
-0.0430350 0.0549905 -0.0273516 255 0 0
-0.0407870 0.0549868 -0.0273529 255 0 0
-0.0385001 0.0549827 -0.0273542 255 0 0
-0.0362127 0.0549785 -0.0273553 255 0 0
-0.0339255 0.0549749 -0.0273563 255 0 0
-0.0316541 0.0549713 -0.0273575 255 0 0
-0.0293621 0.0549668 -0.0273591 255 0 0
-0.0270902 0.0549622 -0.0273608 255 0 0
-0.0247586 0.0549565 -0.0273615 255 0 0
-0.0224540 0.0549511 -0.0273582 255 0 0
-0.0201713 0.0549452 -0.0273639 255 0 0
-0.0178908 0.0549385 -0.0273665 255 0 0
-0.0156121 0.0549296 -0.0273683 255 0 0
-0.0133320 0.0549206 -0.0273700 255 0 0
-0.0110479 0.0549138 -0.0273727 255 0 0
-0.0087772 0.0549086 -0.0273765 255 0 0
-0.0065220 0.0548911 -0.0273808 255 0 0
-0.0042835 0.0548462 -0.0273932 255 0 0
-0.0021357 0.0545794 -0.0274887 255 0 0
-0.0795961 0.0571970 -0.0273314 255 0 0
-0.0773754 0.0571741 -0.0273476 255 0 0
-0.0751122 0.0571725 -0.0273627 255 0 0
-0.0728879 0.0571760 -0.0273751 255 0 0
-0.0704955 0.0571819 -0.0273688 255 0 0
-0.0681806 0.0571993 -0.0273642 255 0 0
-0.0659584 0.0572077 -0.0273598 255 0 0
-0.0636716 0.0572241 -0.0273511 255 0 0
-0.0613839 0.0572604 -0.0273429 255 0 0
-0.0590947 0.0572851 -0.0273356 255 0 0
-0.0568058 0.0572996 -0.0273310 255 0 0
-0.0545298 0.0573046 -0.0273316 255 0 0
-0.0522590 0.0573020 -0.0273328 255 0 0
-0.0499667 0.0572984 -0.0273340 255 0 0
-0.0476826 0.0572947 -0.0273354 255 0 0
-0.0453310 0.0572891 -0.0273371 255 0 0
-0.0430274 0.0572849 -0.0273387 255 0 0
-0.0407806 0.0572808 -0.0273397 255 0 0
-0.0385000 0.0572772 -0.0273408 255 0 0
-0.0362125 0.0572739 -0.0273420 255 0 0
-0.0339285 0.0572701 -0.0273430 255 0 0
-0.0316533 0.0572663 -0.0273441 255 0 0
-0.0293623 0.0572624 -0.0273464 255 0 0
-0.0270908 0.0572585 -0.0273479 255 0 0
-0.0247570 0.0572518 -0.0273477 255 0 0
-0.0224530 0.0572459 -0.0273435 255 0 0
-0.0201708 0.0572425 -0.0273494 255 0 0
-0.0178878 0.0572365 -0.0273509 255 0 0
-0.0156114 0.0572290 -0.0273514 255 0 0
-0.0133313 0.0572237 -0.0273527 255 0 0
-0.0110453 0.0572213 -0.0273565 255 0 0
-0.0087700 0.0572136 -0.0273621 255 0 0
-0.0065059 0.0572090 -0.0273720 255 0 0
-0.0042495 0.0571907 -0.0273865 255 0 0
-0.0021105 0.0569398 -0.0275325 255 0 0
-0.0818512 0.0594478 -0.0273339 255 0 0
-0.0796240 0.0594235 -0.0273488 255 0 0
-0.0774022 0.0594136 -0.0273617 255 0 0
-0.0751146 0.0594190 -0.0273701 255 0 0
-0.0728906 0.0594232 -0.0273787 255 0 0
-0.0704966 0.0594353 -0.0273671 255 0 0
-0.0681806 0.0594375 -0.0273621 255 0 0
-0.0659585 0.0594537 -0.0273635 255 0 0
-0.0636721 0.0594722 -0.0273529 255 0 0
-0.0613828 0.0594986 -0.0273437 255 0 0
-0.0590936 0.0595174 -0.0273360 255 0 0
-0.0568050 0.0595301 -0.0273316 255 0 0
-0.0545313 0.0595347 -0.0273327 255 0 0
-0.0522585 0.0595331 -0.0273345 255 0 0
-0.0499677 0.0595294 -0.0273366 255 0 0
-0.0476816 0.0595257 -0.0273395 255 0 0
-0.0453307 0.0595258 -0.0273419 255 0 0
-0.0430210 0.0595271 -0.0273436 255 0 0
-0.0407723 0.0595245 -0.0273443 255 0 0
-0.0385002 0.0595210 -0.0273452 255 0 0
-0.0362127 0.0595170 -0.0273465 255 0 0
-0.0339314 0.0595132 -0.0273474 255 0 0
-0.0316522 0.0595098 -0.0273483 255 0 0
-0.0293629 0.0595033 -0.0273526 255 0 0
-0.0270911 0.0594976 -0.0273565 255 0 0
-0.0247585 0.0594935 -0.0273500 255 0 0
-0.0224555 0.0594871 -0.0273475 255 0 0
-0.0201705 0.0594841 -0.0273516 255 0 0
-0.0178853 0.0594750 -0.0273533 255 0 0
-0.0156108 0.0594646 -0.0273536 255 0 0
-0.0133313 0.0594570 -0.0273565 255 0 0
-0.0110430 0.0594547 -0.0273617 255 0 0
-0.0087644 0.0594541 -0.0273718 255 0 0
-0.0064912 0.0594499 -0.0273801 255 0 0
-0.0042148 0.0594580 -0.0273933 255 0 0
-0.0019598 0.0595302 -0.0274923 255 0 0
0.0003789 0.0594138 -0.0271790 255 0 0
-0.0818772 0.0617201 -0.0273391 255 0 0
-0.0796436 0.0616999 -0.0273517 255 0 0
-0.0774028 0.0616948 -0.0273614 255 0 0
-0.0751137 0.0617050 -0.0273670 255 0 0
-0.0728893 0.0617072 -0.0273718 255 0 0
-0.0704938 0.0617120 -0.0273619 255 0 0
-0.0681786 0.0617230 -0.0273539 255 0 0
-0.0659567 0.0617448 -0.0273471 255 0 0
-0.0636706 0.0617654 -0.0273378 255 0 0
-0.0613823 0.0617866 -0.0273300 255 0 0
-0.0590931 0.0618020 -0.0273239 255 0 0
-0.0568047 0.0618118 -0.0273208 255 0 0
-0.0545325 0.0618154 -0.0273224 255 0 0
-0.0522584 0.0618138 -0.0273244 255 0 0
-0.0499686 0.0618112 -0.0273276 255 0 0
-0.0476815 0.0618082 -0.0273307 255 0 0
-0.0453299 0.0618024 -0.0273340 255 0 0
-0.0430171 0.0617982 -0.0273369 255 0 0
-0.0407696 0.0617964 -0.0273384 255 0 0
-0.0384997 0.0617933 -0.0273401 255 0 0
-0.0362122 0.0617889 -0.0273425 255 0 0
-0.0339318 0.0617851 -0.0273445 255 0 0
-0.0316513 0.0617812 -0.0273462 255 0 0
-0.0293628 0.0617761 -0.0273490 255 0 0
-0.0270922 0.0617717 -0.0273512 255 0 0
-0.0247612 0.0617619 -0.0273481 255 0 0
-0.0224560 0.0617541 -0.0273462 255 0 0
-0.0201707 0.0617507 -0.0273496 255 0 0
-0.0178828 0.0617464 -0.0273548 255 0 0
-0.0156103 0.0617399 -0.0273547 255 0 0
-0.0133311 0.0617359 -0.0273581 255 0 0
-0.0110426 0.0617321 -0.0273664 255 0 0
-0.0087617 0.0617249 -0.0273732 255 0 0
-0.0064829 0.0617164 -0.0273855 255 0 0
-0.0041968 0.0617170 -0.0273927 255 0 0
-0.0019245 0.0618214 -0.0274499 255 0 0
0.0002691 0.0615408 -0.0272517 255 0 0
-0.0841412 0.0641565 -0.0272454 255 0 0
-0.0819122 0.0641088 -0.0272634 255 0 0
-0.0796910 0.0640967 -0.0272771 255 0 0
-0.0774013 0.0640921 -0.0272885 255 0 0
-0.0751620 0.0640728 -0.0272922 255 0 0
-0.0728885 0.0640802 -0.0272878 255 0 0
-0.0704871 0.0640874 -0.0272794 255 0 0
-0.0681761 0.0641011 -0.0272708 255 0 0
-0.0659555 0.0641202 -0.0272692 255 0 0
-0.0636695 0.0641398 -0.0272564 255 0 0
-0.0613826 0.0641628 -0.0272452 255 0 0
-0.0590933 0.0641783 -0.0272362 255 0 0
-0.0568047 0.0641870 -0.0272310 255 0 0
-0.0545361 0.0641911 -0.0272320 255 0 0
-0.0522583 0.0641910 -0.0272342 255 0 0
-0.0499690 0.0641916 -0.0272371 255 0 0
-0.0476813 0.0641935 -0.0272412 255 0 0
-0.0453297 0.0641922 -0.0272450 255 0 0
-0.0430171 0.0641910 -0.0272474 255 0 0
-0.0407679 0.0641899 -0.0272466 255 0 0
-0.0384988 0.0641884 -0.0272463 255 0 0
-0.0362113 0.0641858 -0.0272473 255 0 0
-0.0339317 0.0641829 -0.0272468 255 0 0
-0.0316508 0.0641797 -0.0272468 255 0 0
-0.0293617 0.0641764 -0.0272520 255 0 0
-0.0270919 0.0641743 -0.0272530 255 0 0
-0.0247653 0.0641674 -0.0272476 255 0 0
-0.0224554 0.0641621 -0.0272423 255 0 0
-0.0201695 0.0641615 -0.0272458 255 0 0
-0.0178792 0.0641597 -0.0272493 255 0 0
-0.0156091 0.0641581 -0.0272486 255 0 0
-0.0133298 0.0641582 -0.0272499 255 0 0
-0.0110419 0.0641596 -0.0272524 255 0 0
-0.0087599 0.0641579 -0.0272569 255 0 0
-0.0064808 0.0641520 -0.0272603 255 0 0
-0.0042000 0.0641444 -0.0272629 255 0 0
-0.0019526 0.0641312 -0.0272837 255 0 0
0.0003751 0.0641748 -0.0271880 255 0 0
0.0026315 0.0641976 -0.0271373 255 0 0
-0.0863988 0.0666031 -0.0271500 255 0 0
-0.0841737 0.0665416 -0.0271680 255 0 0
-0.0819232 0.0665115 -0.0271847 255 0 0
-0.0796924 0.0664921 -0.0271967 255 0 0
-0.0774316 0.0664904 -0.0272074 255 0 0
-0.0751699 0.0664834 -0.0272127 255 0 0
-0.0728895 0.0664818 -0.0272121 255 0 0
-0.0704750 0.0664835 -0.0272076 255 0 0
-0.0681581 0.0664943 -0.0272033 255 0 0
-0.0659543 0.0665090 -0.0271942 255 0 0
-0.0636696 0.0665278 -0.0271812 255 0 0
-0.0613825 0.0665576 -0.0271699 255 0 0
-0.0590933 0.0665779 -0.0271614 255 0 0
-0.0568048 0.0665901 -0.0271562 255 0 0
-0.0545436 0.0665958 -0.0271572 255 0 0
-0.0522583 0.0665967 -0.0271596 255 0 0
-0.0499690 0.0665976 -0.0271625 255 0 0
-0.0476820 0.0665984 -0.0271652 255 0 0
-0.0453286 0.0665927 -0.0271700 255 0 0
-0.0430107 0.0665919 -0.0271728 255 0 0
-0.0407658 0.0665939 -0.0271728 255 0 0
-0.0384996 0.0665927 -0.0271737 255 0 0
-0.0362120 0.0665863 -0.0271749 255 0 0
-0.0339324 0.0665824 -0.0271729 255 0 0
-0.0316512 0.0665776 -0.0271736 255 0 0
-0.0293632 0.0665736 -0.0271795 255 0 0
-0.0270923 0.0665709 -0.0271814 255 0 0
-0.0247649 0.0665624 -0.0271754 255 0 0
-0.0224615 0.0665557 -0.0271679 255 0 0
-0.0201652 0.0665589 -0.0271753 255 0 0
-0.0178771 0.0665587 -0.0271763 255 0 0
-0.0156085 0.0665560 -0.0271756 255 0 0
-0.0133299 0.0665562 -0.0271754 255 0 0
-0.0110429 0.0665592 -0.0271772 255 0 0
-0.0087618 0.0665601 -0.0271784 255 0 0
-0.0064826 0.0665609 -0.0271806 255 0 0
-0.0041992 0.0665653 -0.0271780 255 0 0
-0.0019503 0.0665800 -0.0271806 255 0 0
0.0004051 0.0665479 -0.0271382 255 0 0
0.0026775 0.0665457 -0.0271141 255 0 0
0.0048069 0.0665889 -0.0271165 255 0 0
-0.0863988 0.0691491 -0.0271366 255 0 0
-0.0841816 0.0691149 -0.0271306 255 0 0
-0.0819670 0.0691173 -0.0271390 255 0 0
-0.0796928 0.0691181 -0.0271447 255 0 0
-0.0774605 0.0691188 -0.0271480 255 0 0
-0.0751731 0.0691066 -0.0271500 255 0 0
-0.0728985 0.0690966 -0.0271514 255 0 0
-0.0704758 0.0689833 -0.0271478 255 0 0
-0.0681389 0.0689376 -0.0271463 255 0 0
-0.0659398 0.0689518 -0.0271455 255 0 0
-0.0636709 0.0690749 -0.0271402 255 0 0
-0.0613813 0.0691829 -0.0271362 255 0 0
-0.0590926 0.0692227 -0.0271327 255 0 0
-0.0568095 0.0692435 -0.0271306 255 0 0
-0.0545457 0.0692527 -0.0271297 255 0 0
-0.0522668 0.0692470 -0.0271303 255 0 0
-0.0499749 0.0692342 -0.0271311 255 0 0
-0.0476873 0.0691758 -0.0271332 255 0 0
-0.0453181 0.0690643 -0.0271357 255 0 0
-0.0430009 0.0690364 -0.0271396 255 0 0
-0.0407608 0.0690409 -0.0271397 255 0 0
-0.0384996 0.0690396 -0.0271424 255 0 0
-0.0362114 0.0690295 -0.0271468 255 0 0
-0.0339311 0.0690205 -0.0271491 255 0 0
-0.0316527 0.0690123 -0.0271506 255 0 0
-0.0293658 0.0690048 -0.0271560 255 0 0
-0.0270978 0.0690011 -0.0271594 255 0 0
-0.0247707 0.0689867 -0.0271576 255 0 0
-0.0224649 0.0689763 -0.0271538 255 0 0
-0.0201572 0.0689728 -0.0271629 255 0 0
-0.0178688 0.0689685 -0.0271700 255 0 0
-0.0156063 0.0689633 -0.0271704 255 0 0
-0.0133296 0.0689610 -0.0271716 255 0 0
-0.0110446 0.0689602 -0.0271742 255 0 0
-0.0087637 0.0689593 -0.0271773 255 0 0
-0.0064848 0.0689583 -0.0271795 255 0 0
-0.0041963 0.0689572 -0.0271803 255 0 0
-0.0019369 0.0689665 -0.0271799 255 0 0
0.0004240 0.0689060 -0.0271586 255 0 0
0.0027049 0.0688886 -0.0271462 255 0 0
0.0048561 0.0689474 -0.0271365 255 0 0
-0.0886270 0.0715307 -0.0271114 255 0 0
-0.0864254 0.0715373 -0.0271107 255 0 0
-0.0842243 0.0715407 -0.0271154 255 0 0
-0.0819763 0.0715416 -0.0271220 255 0 0
-0.0797011 0.0715397 -0.0271230 255 0 0
-0.0774598 0.0715437 -0.0271223 255 0 0
-0.0751701 0.0715447 -0.0271213 255 0 0
-0.0729045 0.0715380 -0.0271196 255 0 0
-0.0704941 0.0715537 -0.0271189 255 0 0
-0.0681439 0.0715696 -0.0271162 255 0 0
-0.0659391 0.0715694 -0.0271122 255 0 0
-0.0636689 0.0715799 -0.0271109 255 0 0
-0.0613815 0.0716028 -0.0271094 255 0 0
-0.0590925 0.0716157 -0.0271075 255 0 0
-0.0568121 0.0716247 -0.0271062 255 0 0
-0.0545330 0.0716340 -0.0271060 255 0 0
-0.0522691 0.0716422 -0.0271068 255 0 0
-0.0499774 0.0716487 -0.0271078 255 0 0
-0.0476906 0.0716534 -0.0271082 255 0 0
-0.0453204 0.0716573 -0.0271098 255 0 0
-0.0430081 0.0716602 -0.0271104 255 0 0
-0.0407734 0.0716610 -0.0271091 255 0 0
-0.0385031 0.0716527 -0.0271079 255 0 0
-0.0362119 0.0714972 -0.0271085 255 0 0
-0.0339308 0.0714765 -0.0271110 255 0 0
-0.0316513 0.0714698 -0.0271131 255 0 0
-0.0293612 0.0714638 -0.0271204 255 0 0
-0.0270911 0.0714596 -0.0271262 255 0 0
-0.0247606 0.0714506 -0.0271292 255 0 0
-0.0224554 0.0714440 -0.0271295 255 0 0
-0.0201656 0.0714422 -0.0271390 255 0 0
-0.0178783 0.0714388 -0.0271460 255 0 0
-0.0156044 0.0714341 -0.0271505 255 0 0
-0.0133257 0.0714311 -0.0271552 255 0 0
-0.0110402 0.0714284 -0.0271609 255 0 0
-0.0087588 0.0714257 -0.0271673 255 0 0
-0.0064791 0.0714227 -0.0271735 255 0 0
-0.0041880 0.0714182 -0.0271794 255 0 0
-0.0019191 0.0714175 -0.0271835 255 0 0
0.0004418 0.0713783 -0.0271830 255 0 0
0.0027335 0.0713551 -0.0271841 255 0 0
0.0049132 0.0713467 -0.0271713 255 0 0
0.0070890 0.0713435 -0.0271736 255 0 0
-0.0887093 0.0736886 -0.0271225 255 0 0
-0.0864819 0.0736747 -0.0271157 255 0 0
-0.0842648 0.0736301 -0.0271136 255 0 0
-0.0819794 0.0736344 -0.0271163 255 0 0
-0.0797089 0.0736409 -0.0271172 255 0 0
-0.0774548 0.0736448 -0.0271169 255 0 0
-0.0751631 0.0736495 -0.0271151 255 0 0
-0.0728853 0.0736492 -0.0271175 255 0 0
-0.0705119 0.0736810 -0.0271275 255 0 0
-0.0681658 0.0737007 -0.0271349 255 0 0
-0.0659518 0.0737024 -0.0271317 255 0 0
-0.0636690 0.0737023 -0.0271204 255 0 0
-0.0613819 0.0737025 -0.0271139 255 0 0
-0.0590930 0.0736943 -0.0271091 255 0 0
-0.0568044 0.0737024 -0.0271061 255 0 0
-0.0545243 0.0737124 -0.0271088 255 0 0
-0.0522559 0.0737236 -0.0271127 255 0 0
-0.0499657 0.0737353 -0.0271187 255 0 0
-0.0476818 0.0737554 -0.0271246 255 0 0
-0.0453335 0.0737764 -0.0271377 255 0 0
-0.0430225 0.0737841 -0.0271462 255 0 0
-0.0407820 0.0737859 -0.0271481 255 0 0
-0.0384984 0.0737876 -0.0271503 255 0 0
-0.0362106 0.0737885 -0.0271509 255 0 0
-0.0339273 0.0737891 -0.0271495 255 0 0
-0.0316514 0.0737915 -0.0271490 255 0 0
-0.0293577 0.0737939 -0.0271517 255 0 0
-0.0270870 0.0737946 -0.0271526 255 0 0
-0.0247581 0.0737935 -0.0271504 255 0 0
-0.0224502 0.0737938 -0.0271465 255 0 0
-0.0201649 0.0737973 -0.0271519 255 0 0
-0.0178792 0.0737999 -0.0271552 255 0 0
-0.0156041 0.0738006 -0.0271582 255 0 0
-0.0133222 0.0738015 -0.0271599 255 0 0
-0.0110366 0.0738026 -0.0271644 255 0 0
-0.0087557 0.0738042 -0.0271688 255 0 0
-0.0064763 0.0738059 -0.0271720 255 0 0
-0.0041839 0.0738078 -0.0271780 255 0 0
-0.0019086 0.0738019 -0.0271785 255 0 0
0.0004529 0.0737915 -0.0271792 255 0 0
0.0027527 0.0737511 -0.0271936 255 0 0
0.0049527 0.0736730 -0.0271911 255 0 0
0.0071446 0.0736453 -0.0271932 255 0 0
-0.0909483 0.0761435 -0.0270906 255 0 0
-0.0887146 0.0761406 -0.0270980 255 0 0
-0.0864957 0.0761491 -0.0271107 255 0 0
-0.0842449 0.0761539 -0.0271136 255 0 0
-0.0819805 0.0761529 -0.0271156 255 0 0
-0.0797180 0.0761553 -0.0271171 255 0 0
-0.0774537 0.0761583 -0.0271171 255 0 0
-0.0751656 0.0761605 -0.0271157 255 0 0
-0.0729031 0.0761574 -0.0271140 255 0 0
-0.0704954 0.0761742 -0.0271101 255 0 0
-0.0681441 0.0761869 -0.0271084 255 0 0
-0.0659434 0.0761824 -0.0271049 255 0 0
-0.0636701 0.0761932 -0.0271034 255 0 0
-0.0613848 0.0762267 -0.0271021 255 0 0
-0.0590961 0.0762485 -0.0271014 255 0 0
-0.0568115 0.0762588 -0.0271006 255 0 0
-0.0545295 0.0762682 -0.0270996 255 0 0
-0.0522627 0.0762754 -0.0270994 255 0 0
-0.0499686 0.0762797 -0.0270992 255 0 0
-0.0476825 0.0762790 -0.0270990 255 0 0
-0.0453248 0.0762883 -0.0270993 255 0 0
-0.0430117 0.0762835 -0.0270994 255 0 0
-0.0407791 0.0762395 -0.0270983 255 0 0
-0.0385008 0.0761684 -0.0270971 255 0 0
-0.0362120 0.0761085 -0.0270969 255 0 0
-0.0339292 0.0760769 -0.0270967 255 0 0
-0.0316499 0.0760712 -0.0271025 255 0 0
-0.0293576 0.0760666 -0.0271111 255 0 0
-0.0270773 0.0760626 -0.0271231 255 0 0
-0.0247574 0.0760513 -0.0271226 255 0 0
-0.0224513 0.0760433 -0.0271241 255 0 0
-0.0201653 0.0760429 -0.0271333 255 0 0
-0.0178821 0.0760408 -0.0271397 255 0 0
-0.0156054 0.0760362 -0.0271469 255 0 0
-0.0133226 0.0760337 -0.0271537 255 0 0
-0.0110378 0.0760330 -0.0271610 255 0 0
-0.0087560 0.0760293 -0.0271678 255 0 0
-0.0064762 0.0760247 -0.0271740 255 0 0
-0.0041832 0.0760190 -0.0271813 255 0 0
-0.0019044 0.0760109 -0.0271869 255 0 0
0.0004561 0.0759886 -0.0272036 255 0 0
0.0027592 0.0759835 -0.0272143 255 0 0
0.0049751 0.0759602 -0.0272070 255 0 0
0.0071847 0.0759432 -0.0272110 255 0 0
-0.0909542 0.0785245 -0.0270492 255 0 0
-0.0887499 0.0785129 -0.0270753 255 0 0
-0.0865159 0.0785276 -0.0271033 255 0 0
-0.0842461 0.0785236 -0.0271117 255 0 0
-0.0819793 0.0785234 -0.0271140 255 0 0
-0.0797191 0.0785232 -0.0271158 255 0 0
-0.0774511 0.0785243 -0.0271165 255 0 0
-0.0751628 0.0785218 -0.0271156 255 0 0
-0.0729092 0.0785211 -0.0271144 255 0 0
-0.0704896 0.0785292 -0.0271108 255 0 0
-0.0681283 0.0785364 -0.0271081 255 0 0
-0.0659353 0.0785358 -0.0271062 255 0 0
-0.0636685 0.0785458 -0.0271043 255 0 0
-0.0613848 0.0785858 -0.0271034 255 0 0
-0.0590969 0.0786098 -0.0271021 255 0 0
-0.0568141 0.0786213 -0.0271009 255 0 0
-0.0545324 0.0786283 -0.0271002 255 0 0
-0.0522649 0.0786313 -0.0271000 255 0 0
-0.0499721 0.0786319 -0.0271000 255 0 0
-0.0476877 0.0786300 -0.0270992 255 0 0
-0.0453195 0.0786298 -0.0270994 255 0 0
-0.0430010 0.0786220 -0.0270994 255 0 0
-0.0407770 0.0786004 -0.0270982 255 0 0
-0.0385061 0.0785820 -0.0270977 255 0 0
-0.0362179 0.0785629 -0.0270978 255 0 0
-0.0339323 0.0785577 -0.0270970 255 0 0
-0.0316553 0.0785497 -0.0270955 255 0 0
-0.0293640 0.0785405 -0.0270972 255 0 0
-0.0270893 0.0784559 -0.0270993 255 0 0
-0.0247588 0.0783760 -0.0270968 255 0 0
-0.0224535 0.0783655 -0.0270965 255 0 0
-0.0201650 0.0783642 -0.0271075 255 0 0
-0.0178832 0.0783593 -0.0271150 255 0 0
-0.0156054 0.0783527 -0.0271231 255 0 0
-0.0133234 0.0783486 -0.0271295 255 0 0
-0.0110379 0.0783492 -0.0271388 255 0 0
-0.0087559 0.0783423 -0.0271458 255 0 0
-0.0064759 0.0783331 -0.0271516 255 0 0
-0.0041827 0.0783224 -0.0271576 255 0 0
-0.0019016 0.0783112 -0.0271644 255 0 0
0.0004583 0.0782763 -0.0271893 255 0 0
0.0027644 0.0782482 -0.0272055 255 0 0
0.0049936 0.0782596 -0.0272048 255 0 0
0.0072156 0.0782528 -0.0272092 255 0 0
0.0094220 0.0782619 -0.0272163 255 0 0
-0.0931584 0.0807301 -0.0270256 255 0 0
-0.0909606 0.0807334 -0.0270716 255 0 0
-0.0887643 0.0807435 -0.0270981 255 0 0
-0.0865304 0.0807463 -0.0271076 255 0 0
-0.0842676 0.0807507 -0.0271101 255 0 0
-0.0819802 0.0807502 -0.0271123 255 0 0
-0.0797135 0.0807527 -0.0271134 255 0 0
-0.0774510 0.0807565 -0.0271146 255 0 0
-0.0751604 0.0807578 -0.0271138 255 0 0
-0.0729056 0.0807622 -0.0271127 255 0 0
-0.0704923 0.0807742 -0.0271110 255 0 0
-0.0681404 0.0807944 -0.0271098 255 0 0
-0.0659430 0.0807946 -0.0271066 255 0 0
-0.0636702 0.0808014 -0.0271042 255 0 0
-0.0613848 0.0808327 -0.0271030 255 0 0
-0.0590961 0.0808517 -0.0271021 255 0 0
-0.0568115 0.0808618 -0.0271012 255 0 0
-0.0545333 0.0808741 -0.0271010 255 0 0
-0.0522609 0.0808825 -0.0271009 255 0 0
-0.0499685 0.0808910 -0.0271010 255 0 0
-0.0476830 0.0808944 -0.0271008 255 0 0
-0.0453226 0.0808948 -0.0271017 255 0 0
-0.0430082 0.0808827 -0.0271016 255 0 0
-0.0407799 0.0808314 -0.0271002 255 0 0
-0.0385028 0.0807475 -0.0270994 255 0 0
-0.0362113 0.0806792 -0.0270995 255 0 0
-0.0339303 0.0806752 -0.0271039 255 0 0
-0.0316507 0.0806757 -0.0271087 255 0 0
-0.0293578 0.0806742 -0.0271174 255 0 0
-0.0270886 0.0806933 -0.0271252 255 0 0
-0.0247623 0.0806736 -0.0271292 255 0 0
-0.0224539 0.0806578 -0.0271305 255 0 0
-0.0201647 0.0806666 -0.0271421 255 0 0
-0.0178799 0.0806748 -0.0271511 255 0 0
-0.0156061 0.0806690 -0.0271571 255 0 0
-0.0133237 0.0806620 -0.0271633 255 0 0
-0.0110377 0.0806495 -0.0271701 255 0 0
-0.0087566 0.0806446 -0.0271773 255 0 0
-0.0064761 0.0806385 -0.0271847 255 0 0
-0.0041832 0.0806333 -0.0271929 255 0 0
-0.0019005 0.0806303 -0.0271994 255 0 0
0.0004607 0.0806064 -0.0272196 255 0 0
0.0027710 0.0806043 -0.0272330 255 0 0
0.0050092 0.0806000 -0.0272345 255 0 0
0.0072387 0.0805944 -0.0272375 255 0 0
0.0094556 0.0806037 -0.0272410 255 0 0
-0.0931892 0.0830042 -0.0270435 255 0 0
-0.0909849 0.0830214 -0.0270921 255 0 0
-0.0887675 0.0830374 -0.0271045 255 0 0
-0.0865356 0.0830413 -0.0271084 255 0 0
-0.0842730 0.0830448 -0.0271106 255 0 0
-0.0819807 0.0830468 -0.0271128 255 0 0
-0.0797113 0.0830493 -0.0271142 255 0 0
-0.0774392 0.0830543 -0.0271161 255 0 0
-0.0751444 0.0830575 -0.0271160 255 0 0
-0.0729025 0.0830631 -0.0271151 255 0 0
-0.0704868 0.0830814 -0.0271124 255 0 0
-0.0681419 0.0831058 -0.0271102 255 0 0
-0.0659402 0.0831048 -0.0271074 255 0 0
-0.0636685 0.0831121 -0.0271052 255 0 0
-0.0613841 0.0831410 -0.0271041 255 0 0
-0.0590955 0.0831582 -0.0271032 255 0 0
-0.0568111 0.0831677 -0.0271024 255 0 0
-0.0545354 0.0831788 -0.0271020 255 0 0
-0.0522601 0.0831870 -0.0271019 255 0 0
-0.0499694 0.0831968 -0.0271023 255 0 0
-0.0476826 0.0832054 -0.0271025 255 0 0
-0.0453233 0.0832027 -0.0271019 255 0 0
-0.0430122 0.0830953 -0.0271016 255 0 0
-0.0407781 0.0830485 -0.0271004 255 0 0
-0.0385030 0.0829994 -0.0271001 255 0 0
-0.0362128 0.0829929 -0.0271085 255 0 0
-0.0339329 0.0829872 -0.0271159 255 0 0
-0.0316519 0.0829842 -0.0271216 255 0 0
-0.0293614 0.0829861 -0.0271314 255 0 0
-0.0270878 0.0829991 -0.0271390 255 0 0
-0.0247563 0.0829687 -0.0271456 255 0 0
-0.0224460 0.0829620 -0.0271488 255 0 0
-0.0201652 0.0829607 -0.0271597 255 0 0
-0.0178870 0.0829728 -0.0271678 255 0 0
-0.0156065 0.0829621 -0.0271726 255 0 0
-0.0133237 0.0829572 -0.0271791 255 0 0
-0.0110368 0.0829566 -0.0271867 255 0 0
-0.0087555 0.0829534 -0.0271935 255 0 0
-0.0064750 0.0829497 -0.0272004 255 0 0
-0.0041826 0.0829470 -0.0272083 255 0 0
-0.0018995 0.0829446 -0.0272158 255 0 0
0.0004614 0.0829226 -0.0272358 255 0 0
0.0027751 0.0829052 -0.0272502 255 0 0
0.0050178 0.0828902 -0.0272569 255 0 0
0.0072557 0.0829124 -0.0272607 255 0 0
0.0094887 0.0829159 -0.0272561 255 0 0
0.0117138 0.0829208 -0.0272502 255 0 0
-0.0932036 0.0852861 -0.0270138 255 0 0
-0.0909906 0.0853046 -0.0270664 255 0 0
-0.0887667 0.0853290 -0.0270966 255 0 0
-0.0865325 0.0853478 -0.0271053 255 0 0
-0.0842724 0.0853566 -0.0271104 255 0 0
-0.0819795 0.0853597 -0.0271133 255 0 0
-0.0797187 0.0853623 -0.0271139 255 0 0
-0.0774311 0.0853675 -0.0271150 255 0 0
-0.0751403 0.0853707 -0.0271162 255 0 0
-0.0728829 0.0853759 -0.0271168 255 0 0
-0.0704903 0.0854080 -0.0271120 255 0 0
-0.0681470 0.0854019 -0.0271079 255 0 0
-0.0659352 0.0854032 -0.0271062 255 0 0
-0.0636655 0.0854124 -0.0271034 255 0 0
-0.0613819 0.0854292 -0.0271020 255 0 0
-0.0590973 0.0854431 -0.0271002 255 0 0
-0.0568144 0.0854515 -0.0270994 255 0 0
-0.0545350 0.0854662 -0.0270993 255 0 0
-0.0522650 0.0854781 -0.0270995 255 0 0
-0.0499696 0.0854895 -0.0270993 255 0 0
-0.0476868 0.0854974 -0.0270987 255 0 0
-0.0453207 0.0855017 -0.0270978 255 0 0
-0.0430090 0.0855015 -0.0270978 255 0 0
-0.0407785 0.0854936 -0.0270971 255 0 0
-0.0385089 0.0854847 -0.0270974 255 0 0
-0.0362216 0.0854740 -0.0270984 255 0 0
-0.0339396 0.0854593 -0.0271018 255 0 0
-0.0316562 0.0853687 -0.0271043 255 0 0
-0.0293617 0.0852872 -0.0271103 255 0 0
-0.0270798 0.0852759 -0.0271189 255 0 0
-0.0247535 0.0852687 -0.0271237 255 0 0
-0.0224397 0.0852609 -0.0271285 255 0 0
-0.0201693 0.0852604 -0.0271343 255 0 0
-0.0178914 0.0852581 -0.0271403 255 0 0
-0.0156083 0.0852553 -0.0271475 255 0 0
-0.0133237 0.0852539 -0.0271533 255 0 0
-0.0110367 0.0852547 -0.0271604 255 0 0
-0.0087546 0.0852518 -0.0271668 255 0 0
-0.0064733 0.0852479 -0.0271723 255 0 0
-0.0041817 0.0852454 -0.0271793 255 0 0
-0.0018985 0.0852434 -0.0271852 255 0 0
0.0004581 0.0852196 -0.0272056 255 0 0
0.0027731 0.0852022 -0.0272187 255 0 0
0.0050201 0.0851910 -0.0272274 255 0 0
0.0072677 0.0851846 -0.0272327 255 0 0
0.0095212 0.0851824 -0.0272337 255 0 0
0.0117534 0.0852168 -0.0272330 255 0 0
-0.0932342 0.0875750 -0.0270434 255 0 0
-0.0910003 0.0875899 -0.0270896 255 0 0
-0.0887736 0.0876065 -0.0271040 255 0 0
-0.0865302 0.0876188 -0.0271078 255 0 0
-0.0842726 0.0876228 -0.0271097 255 0 0
-0.0819809 0.0876257 -0.0271117 255 0 0
-0.0797190 0.0876318 -0.0271129 255 0 0
-0.0774324 0.0876432 -0.0271130 255 0 0
-0.0751457 0.0876590 -0.0271134 255 0 0
-0.0729014 0.0876599 -0.0271140 255 0 0
-0.0704916 0.0877054 -0.0271141 255 0 0
-0.0681346 0.0877432 -0.0271134 255 0 0
-0.0659335 0.0877545 -0.0271115 255 0 0
-0.0636680 0.0877677 -0.0271094 255 0 0
-0.0613852 0.0877912 -0.0271089 255 0 0
-0.0590970 0.0878064 -0.0271078 255 0 0
-0.0568150 0.0878162 -0.0271059 255 0 0
-0.0545337 0.0878281 -0.0271057 255 0 0
-0.0522642 0.0878351 -0.0271057 255 0 0
-0.0499680 0.0878391 -0.0271057 255 0 0
-0.0476879 0.0878422 -0.0271054 255 0 0
-0.0453183 0.0878507 -0.0271057 255 0 0
-0.0430074 0.0878532 -0.0271059 255 0 0
-0.0407786 0.0878493 -0.0271053 255 0 0
-0.0385069 0.0878404 -0.0271048 255 0 0
-0.0362175 0.0878240 -0.0271056 255 0 0
-0.0339334 0.0877883 -0.0271049 255 0 0
-0.0316591 0.0877383 -0.0271026 255 0 0
-0.0293590 0.0875597 -0.0271043 255 0 0
-0.0270784 0.0875396 -0.0271152 255 0 0
-0.0247536 0.0875334 -0.0271178 255 0 0
-0.0224465 0.0875248 -0.0271217 255 0 0
-0.0201683 0.0875201 -0.0271286 255 0 0
-0.0178869 0.0875147 -0.0271350 255 0 0
-0.0156061 0.0875105 -0.0271425 255 0 0
-0.0133242 0.0875102 -0.0271496 255 0 0
-0.0110387 0.0875112 -0.0271567 255 0 0
-0.0087561 0.0875125 -0.0271632 255 0 0
-0.0064754 0.0875116 -0.0271688 255 0 0
-0.0041833 0.0875089 -0.0271747 255 0 0
-0.0018993 0.0875071 -0.0271801 255 0 0
0.0004562 0.0874878 -0.0271977 255 0 0
0.0027728 0.0874735 -0.0272101 255 0 0
0.0050208 0.0874666 -0.0272203 255 0 0
0.0072758 0.0874608 -0.0272264 255 0 0
0.0095440 0.0874534 -0.0272225 255 0 0
0.0117799 0.0874603 -0.0272196 255 0 0
0.0139890 0.0875087 -0.0272222 255 0 0
-0.0932620 0.0898324 -0.0270318 255 0 0
-0.0910131 0.0898476 -0.0270944 255 0 0
-0.0887809 0.0898568 -0.0271081 255 0 0
-0.0865308 0.0898518 -0.0271084 255 0 0
-0.0842697 0.0898523 -0.0271092 255 0 0
-0.0819822 0.0898584 -0.0271103 255 0 0
-0.0797205 0.0898674 -0.0271104 255 0 0
-0.0774361 0.0898820 -0.0271103 255 0 0
-0.0751608 0.0898999 -0.0271109 255 0 0
-0.0729158 0.0898995 -0.0271111 255 0 0
-0.0704939 0.0899792 -0.0271142 255 0 0
-0.0681325 0.0900338 -0.0271158 255 0 0
-0.0659394 0.0900435 -0.0271142 255 0 0
-0.0636796 0.0900640 -0.0271124 255 0 0
-0.0613885 0.0900896 -0.0271119 255 0 0
-0.0590978 0.0901136 -0.0271108 255 0 0
-0.0568144 0.0901249 -0.0271100 255 0 0
-0.0545312 0.0901334 -0.0271104 255 0 0
-0.0522609 0.0901364 -0.0271091 255 0 0
-0.0499671 0.0901393 -0.0271084 255 0 0
-0.0476854 0.0901392 -0.0271076 255 0 0
-0.0453190 0.0901514 -0.0271084 255 0 0
-0.0430080 0.0901568 -0.0271084 255 0 0
-0.0407795 0.0901526 -0.0271074 255 0 0
-0.0385062 0.0901417 -0.0271067 255 0 0
-0.0362165 0.0901237 -0.0271068 255 0 0
-0.0339169 0.0900795 -0.0271051 255 0 0
-0.0316410 0.0899794 -0.0270997 255 0 0
-0.0293520 0.0898059 -0.0270999 255 0 0
-0.0270849 0.0897846 -0.0271063 255 0 0
-0.0247526 0.0897780 -0.0271107 255 0 0
-0.0224458 0.0897710 -0.0271134 255 0 0
-0.0201655 0.0897668 -0.0271198 255 0 0
-0.0178843 0.0897580 -0.0271283 255 0 0
-0.0156069 0.0897540 -0.0271349 255 0 0
-0.0133256 0.0897524 -0.0271422 255 0 0
-0.0110415 0.0897533 -0.0271489 255 0 0
-0.0087590 0.0897517 -0.0271553 255 0 0
-0.0064796 0.0897498 -0.0271623 255 0 0
-0.0041871 0.0897520 -0.0271680 255 0 0
-0.0019011 0.0897545 -0.0271731 255 0 0
0.0004564 0.0897363 -0.0271825 255 0 0
0.0027750 0.0897219 -0.0271904 255 0 0
0.0050223 0.0897266 -0.0272000 255 0 0
0.0072796 0.0897245 -0.0272062 255 0 0
0.0095563 0.0897143 -0.0272081 255 0 0
0.0117946 0.0897247 -0.0272100 255 0 0
0.0139992 0.0897477 -0.0272095 255 0 0
-0.0955217 0.0921748 -0.0269282 255 0 0
-0.0933135 0.0921586 -0.0269806 255 0 0
-0.0910370 0.0922207 -0.0270809 255 0 0
-0.0887766 0.0922438 -0.0271014 255 0 0
-0.0865320 0.0922419 -0.0271027 255 0 0
-0.0842705 0.0922420 -0.0271051 255 0 0
-0.0819830 0.0922428 -0.0271075 255 0 0
-0.0797195 0.0922389 -0.0271098 255 0 0
-0.0774433 0.0922417 -0.0271103 255 0 0
-0.0751536 0.0922431 -0.0271103 255 0 0
-0.0729086 0.0922416 -0.0271101 255 0 0
-0.0704913 0.0922557 -0.0271080 255 0 0
-0.0681361 0.0922703 -0.0271065 255 0 0
-0.0659372 0.0922717 -0.0271043 255 0 0
-0.0636682 0.0922853 -0.0271030 255 0 0
-0.0613859 0.0923127 -0.0271024 255 0 0
-0.0590973 0.0923334 -0.0271014 255 0 0
-0.0568136 0.0923454 -0.0271000 255 0 0
-0.0545311 0.0923556 -0.0270998 255 0 0
-0.0522639 0.0923625 -0.0270996 255 0 0
-0.0499701 0.0923702 -0.0270995 255 0 0
-0.0476873 0.0923759 -0.0270994 255 0 0
-0.0453198 0.0923894 -0.0270994 255 0 0
-0.0430046 0.0923955 -0.0270990 255 0 0
-0.0407797 0.0923881 -0.0270970 255 0 0
-0.0385053 0.0923724 -0.0270962 255 0 0
-0.0362157 0.0922982 -0.0270967 255 0 0
-0.0339294 0.0922070 -0.0270966 255 0 0
-0.0316529 0.0921543 -0.0270991 255 0 0
-0.0293612 0.0921446 -0.0271100 255 0 0
-0.0270887 0.0921341 -0.0271196 255 0 0
-0.0247611 0.0921299 -0.0271223 255 0 0
-0.0224550 0.0921386 -0.0271236 255 0 0
-0.0201650 0.0921298 -0.0271336 255 0 0
-0.0178823 0.0921227 -0.0271432 255 0 0
-0.0156060 0.0921212 -0.0271487 255 0 0
-0.0133250 0.0921197 -0.0271555 255 0 0
-0.0110388 0.0921188 -0.0271620 255 0 0
-0.0087573 0.0921171 -0.0271684 255 0 0
-0.0064766 0.0921148 -0.0271743 255 0 0
-0.0041855 0.0921130 -0.0271806 255 0 0
-0.0019016 0.0921132 -0.0271868 255 0 0
0.0004549 0.0920963 -0.0272002 255 0 0
0.0027739 0.0920832 -0.0272105 255 0 0
0.0050220 0.0920806 -0.0272202 255 0 0
0.0072832 0.0920727 -0.0272252 255 0 0
0.0095662 0.0920555 -0.0272218 255 0 0
0.0118189 0.0920474 -0.0272147 255 0 0
0.0140411 0.0920545 -0.0272040 255 0 0
0.0162310 0.0920633 -0.0271920 255 0 0
-0.0955027 0.0944033 -0.0268620 255 0 0
-0.0933584 0.0944332 -0.0268958 255 0 0
-0.0910418 0.0945203 -0.0269918 255 0 0
-0.0887573 0.0945778 -0.0270719 255 0 0
-0.0865362 0.0945745 -0.0270810 255 0 0
-0.0842870 0.0945699 -0.0270916 255 0 0
-0.0819878 0.0945594 -0.0271013 255 0 0
-0.0797251 0.0945492 -0.0271059 255 0 0
-0.0774447 0.0945489 -0.0271075 255 0 0
-0.0751514 0.0945449 -0.0271093 255 0 0
-0.0729076 0.0945389 -0.0271091 255 0 0
-0.0704843 0.0945209 -0.0271051 255 0 0
-0.0681425 0.0945208 -0.0271021 255 0 0
-0.0659409 0.0945245 -0.0271003 255 0 0
-0.0636700 0.0945334 -0.0270987 255 0 0
-0.0613847 0.0945608 -0.0270977 255 0 0
-0.0590967 0.0945796 -0.0270965 255 0 0
-0.0568122 0.0945880 -0.0270957 255 0 0
-0.0545305 0.0945996 -0.0270952 255 0 0
-0.0522615 0.0946097 -0.0270949 255 0 0
-0.0499701 0.0946186 -0.0270949 255 0 0
-0.0476859 0.0946241 -0.0270947 255 0 0
-0.0453207 0.0946328 -0.0270947 255 0 0
-0.0430049 0.0946277 -0.0270945 255 0 0
-0.0407809 0.0946098 -0.0270933 255 0 0
-0.0385053 0.0945420 -0.0270930 255 0 0
-0.0362141 0.0944191 -0.0270934 255 0 0
-0.0339296 0.0944238 -0.0270989 255 0 0
-0.0316529 0.0944479 -0.0271065 255 0 0
-0.0293628 0.0944480 -0.0271165 255 0 0
-0.0270901 0.0944535 -0.0271251 255 0 0
-0.0247618 0.0944458 -0.0271300 255 0 0
-0.0224610 0.0944387 -0.0271318 255 0 0
-0.0201671 0.0944333 -0.0271416 255 0 0
-0.0178826 0.0944281 -0.0271492 255 0 0
-0.0156058 0.0944233 -0.0271539 255 0 0
