ply
format ascii 1.0
element vertex 1199
property float x
property float y
property float z
property uchar red
property uchar green
property uchar blue
end_header
-0.0705089 0.0463877 -0.0214678 255 0 0
-0.0682212 0.0463987 -0.0214818 255 0 0
-0.0659334 0.0463994 -0.0214879 255 0 0
-0.0636456 0.0464085 -0.0214918 255 0 0
-0.0613587 0.0463987 -0.0214946 255 0 0
-0.0590715 0.0463956 -0.0215003 255 0 0
-0.0567840 0.0463879 -0.0215046 255 0 0
-0.0544965 0.0463887 -0.0215083 255 0 0
-0.0522088 0.0463885 -0.0215112 255 0 0
-0.0499210 0.0463875 -0.0215141 255 0 0
-0.0476332 0.0463859 -0.0215161 255 0 0
-0.0453434 0.0463847 -0.0215144 255 0 0
-0.0430556 0.0463833 -0.0215123 255 0 0
-0.0407679 0.0463835 -0.0215106 255 0 0
-0.0384809 0.0463832 -0.0215096 255 0 0
-0.0361935 0.0463825 -0.0215092 255 0 0
-0.0339061 0.0463817 -0.0215101 255 0 0
-0.0316189 0.0463808 -0.0215115 255 0 0
-0.0293095 0.0463797 -0.0215078 255 0 0
-0.0270247 0.0463799 -0.0214943 255 0 0
-0.0247855 0.0463771 -0.0215161 255 0 0
-0.0225161 0.0463760 -0.0215294 255 0 0
-0.0202055 0.0463967 -0.0215121 255 0 0
-0.0178919 0.0463947 -0.0214970 255 0 0
-0.0156155 0.0463925 -0.0214875 255 0 0
-0.0133330 0.0463981 -0.0214778 255 0 0
-0.0110387 0.0464030 -0.0214598 255 0 0
-0.0087323 0.0464030 -0.0214572 255 0 0
-0.0064125 0.0464064 -0.0214628 255 0 0
-0.0750845 0.0486536 -0.0214451 255 0 0
-0.0727967 0.0486912 -0.0214283 255 0 0
-0.0705089 0.0486850 -0.0214755 255 0 0
-0.0682212 0.0486910 -0.0215058 255 0 0
-0.0659334 0.0486964 -0.0215080 255 0 0
-0.0636456 0.0486920 -0.0215028 255 0 0
-0.0613595 0.0486933 -0.0215070 255 0 0
-0.0590720 0.0486950 -0.0215100 255 0 0
-0.0567843 0.0486857 -0.0215121 255 0 0
-0.0544966 0.0486846 -0.0215139 255 0 0
-0.0522089 0.0486765 -0.0215155 255 0 0
-0.0499208 0.0486759 -0.0215173 255 0 0
-0.0476327 0.0486752 -0.0215188 255 0 0
-0.0453434 0.0486735 -0.0215168 255 0 0
-0.0430673 0.0486723 -0.0215150 255 0 0
-0.0407680 0.0486717 -0.0215137 255 0 0
-0.0384808 0.0486710 -0.0215123 255 0 0
-0.0361933 0.0486699 -0.0215105 255 0 0
-0.0339059 0.0486691 -0.0215123 255 0 0
-0.0316184 0.0486681 -0.0215155 255 0 0
-0.0293093 0.0486675 -0.0215127 255 0 0
-0.0270241 0.0486781 -0.0214982 255 0 0
-0.0247844 0.0486733 -0.0215237 255 0 0
-0.0225152 0.0486713 -0.0215352 255 0 0
-0.0202037 0.0486895 -0.0215193 255 0 0
-0.0178917 0.0486923 -0.0215065 255 0 0
-0.0156116 0.0487066 -0.0215012 255 0 0
-0.0133294 0.0487045 -0.0214902 255 0 0
-0.0110468 0.0486940 -0.0214779 255 0 0
-0.0087488 0.0486969 -0.0214631 255 0 0
-0.0064407 0.0486991 -0.0214535 255 0 0
-0.0041125 0.0486561 -0.0214606 255 0 0
-0.0773723 0.0509785 -0.0214538 255 0 0
-0.0750845 0.0509778 -0.0214487 255 0 0
-0.0727967 0.0509756 -0.0214560 255 0 0
-0.0705089 0.0509911 -0.0214832 255 0 0
-0.0682212 0.0510060 -0.0214964 255 0 0
-0.0659334 0.0510031 -0.0214957 255 0 0
-0.0636456 0.0510046 -0.0214971 255 0 0
-0.0613596 0.0510090 -0.0214999 255 0 0
-0.0590720 0.0510058 -0.0215029 255 0 0
-0.0567843 0.0509992 -0.0215050 255 0 0
-0.0544965 0.0509979 -0.0215063 255 0 0
-0.0522088 0.0509972 -0.0215074 255 0 0
-0.0499207 0.0509970 -0.0215087 255 0 0
-0.0476329 0.0509964 -0.0215096 255 0 0
-0.0453433 0.0509954 -0.0215076 255 0 0
-0.0430693 0.0509943 -0.0215046 255 0 0
-0.0407679 0.0509941 -0.0215005 255 0 0
-0.0384808 0.0509931 -0.0214992 255 0 0
-0.0361932 0.0509917 -0.0214988 255 0 0
-0.0339057 0.0509902 -0.0215001 255 0 0
-0.0316185 0.0509892 -0.0215043 255 0 0
-0.0293090 0.0509887 -0.0215028 255 0 0
-0.0270236 0.0509906 -0.0214906 255 0 0
-0.0247843 0.0509848 -0.0215110 255 0 0
-0.0225153 0.0509836 -0.0215234 255 0 0
-0.0202052 0.0509900 -0.0215087 255 0 0
-0.0178916 0.0510030 -0.0214983 255 0 0
-0.0156087 0.0510089 -0.0214936 255 0 0
-0.0133243 0.0510100 -0.0214878 255 0 0
-0.0110415 0.0510067 -0.0214795 255 0 0
-0.0087494 0.0509901 -0.0214698 255 0 0
-0.0064524 0.0509815 -0.0214632 255 0 0
-0.0041436 0.0509811 -0.0214651 255 0 0
-0.0017584 0.0509506 -0.0214709 255 0 0
-0.0796601 0.0532697 -0.0214639 255 0 0
-0.0773723 0.0532669 -0.0214486 255 0 0
-0.0750845 0.0532790 -0.0214579 255 0 0
-0.0727967 0.0532988 -0.0214781 255 0 0
-0.0705089 0.0532974 -0.0214876 255 0 0
-0.0682212 0.0532977 -0.0214960 255 0 0
-0.0659334 0.0532991 -0.0214963 255 0 0
-0.0636456 0.0533021 -0.0214974 255 0 0
-0.0613599 0.0533058 -0.0214990 255 0 0
-0.0590721 0.0533086 -0.0214987 255 0 0
-0.0567843 0.0533082 -0.0214989 255 0 0
-0.0544966 0.0533064 -0.0214995 255 0 0
-0.0522088 0.0533064 -0.0215003 255 0 0
-0.0499207 0.0533066 -0.0215016 255 0 0
-0.0476327 0.0533066 -0.0215024 255 0 0
-0.0453433 0.0533067 -0.0215000 255 0 0
-0.0430696 0.0533067 -0.0214979 255 0 0
-0.0407678 0.0533065 -0.0214958 255 0 0
-0.0384809 0.0533060 -0.0214949 255 0 0
-0.0361935 0.0533050 -0.0214944 255 0 0
-0.0339060 0.0533038 -0.0214953 255 0 0
-0.0316184 0.0533024 -0.0214971 255 0 0
-0.0293090 0.0532993 -0.0214957 255 0 0
-0.0270228 0.0532980 -0.0214846 255 0 0
-0.0247855 0.0532984 -0.0215074 255 0 0
-0.0225154 0.0532991 -0.0215197 255 0 0
-0.0202032 0.0532995 -0.0215060 255 0 0
-0.0178914 0.0533004 -0.0214976 255 0 0
-0.0156044 0.0533017 -0.0214943 255 0 0
-0.0133228 0.0533030 -0.0214895 255 0 0
-0.0110329 0.0533042 -0.0214858 255 0 0
-0.0087499 0.0533050 -0.0214812 255 0 0
-0.0064598 0.0532864 -0.0214748 255 0 0
-0.0041597 0.0532640 -0.0214676 255 0 0
-0.0017966 0.0532679 -0.0214713 255 0 0
0.0003510 0.0532452 -0.0214432 255 0 0
-0.0819479 0.0555586 -0.0214732 255 0 0
-0.0796601 0.0555670 -0.0214574 255 0 0
-0.0773723 0.0555912 -0.0214642 255 0 0
-0.0750845 0.0555862 -0.0214726 255 0 0
-0.0727967 0.0555820 -0.0214856 255 0 0
-0.0705089 0.0555810 -0.0214966 255 0 0
-0.0682212 0.0555802 -0.0215039 255 0 0
-0.0659334 0.0555830 -0.0215012 255 0 0
-0.0636456 0.0555864 -0.0214993 255 0 0
-0.0613599 0.0555899 -0.0214978 255 0 0
-0.0590721 0.0555875 -0.0214977 255 0 0
-0.0567842 0.0555892 -0.0214983 255 0 0
-0.0544965 0.0555922 -0.0214990 255 0 0
-0.0522087 0.0555982 -0.0215000 255 0 0
-0.0499207 0.0555987 -0.0215014 255 0 0
-0.0476327 0.0555979 -0.0215027 255 0 0
-0.0453433 0.0555974 -0.0215008 255 0 0
-0.0430685 0.0555962 -0.0214990 255 0 0
-0.0407679 0.0555956 -0.0214976 255 0 0
-0.0384809 0.0555946 -0.0214968 255 0 0
-0.0361932 0.0555937 -0.0214966 255 0 0
-0.0339060 0.0555927 -0.0214979 255 0 0
-0.0316185 0.0555918 -0.0214996 255 0 0
-0.0293087 0.0555907 -0.0214961 255 0 0
-0.0270220 0.0555888 -0.0214823 255 0 0
-0.0247855 0.0555869 -0.0215082 255 0 0
-0.0225163 0.0555851 -0.0215225 255 0 0
-0.0202022 0.0555856 -0.0215080 255 0 0
-0.0178915 0.0555855 -0.0214994 255 0 0
-0.0156038 0.0555855 -0.0214980 255 0 0
-0.0133154 0.0555852 -0.0214965 255 0 0
-0.0110306 0.0555849 -0.0214947 255 0 0
-0.0087431 0.0555863 -0.0214908 255 0 0
-0.0064564 0.0555876 -0.0214851 255 0 0
-0.0041610 0.0555877 -0.0214720 255 0 0
-0.0018208 0.0555746 -0.0214637 255 0 0
0.0004034 0.0555431 -0.0214346 255 0 0
-0.0842955 0.0578527 -0.0214739 255 0 0
-0.0819478 0.0578879 -0.0214613 255 0 0
-0.0796601 0.0578791 -0.0214639 255 0 0
-0.0773723 0.0578729 -0.0214732 255 0 0
-0.0750845 0.0578689 -0.0214838 255 0 0
-0.0727967 0.0578676 -0.0214948 255 0 0
-0.0705089 0.0578668 -0.0215009 255 0 0
-0.0682212 0.0578541 -0.0215030 255 0 0
-0.0659334 0.0578575 -0.0215015 255 0 0
-0.0636456 0.0578727 -0.0215001 255 0 0
-0.0613598 0.0578655 -0.0214984 255 0 0
-0.0590720 0.0578692 -0.0214978 255 0 0
-0.0567841 0.0578737 -0.0214983 255 0 0
-0.0544964 0.0578848 -0.0214991 255 0 0
-0.0522086 0.0578857 -0.0215002 255 0 0
-0.0499205 0.0578857 -0.0215023 255 0 0
-0.0476326 0.0578855 -0.0215045 255 0 0
-0.0453433 0.0578848 -0.0215023 255 0 0
-0.0430672 0.0578842 -0.0215006 255 0 0
-0.0407680 0.0578836 -0.0214996 255 0 0
-0.0384810 0.0578829 -0.0214992 255 0 0
-0.0361936 0.0578820 -0.0214989 255 0 0
-0.0339060 0.0578809 -0.0215008 255 0 0
-0.0316184 0.0578801 -0.0215026 255 0 0
-0.0293088 0.0578792 -0.0214975 255 0 0
-0.0270213 0.0578769 -0.0214847 255 0 0
-0.0247834 0.0578749 -0.0215106 255 0 0
-0.0225179 0.0578725 -0.0215254 255 0 0
-0.0202009 0.0578731 -0.0215112 255 0 0
-0.0178913 0.0578736 -0.0215011 255 0 0
-0.0156036 0.0578727 -0.0215005 255 0 0
-0.0133128 0.0578720 -0.0214993 255 0 0
-0.0110271 0.0578727 -0.0214980 255 0 0
-0.0087401 0.0578726 -0.0214963 255 0 0
-0.0064516 0.0578735 -0.0214918 255 0 0
-0.0041629 0.0578792 -0.0214769 255 0 0
-0.0018328 0.0578930 -0.0214761 255 0 0
0.0003983 0.0578672 -0.0214370 255 0 0
0.0027069 0.0578603 -0.0214267 255 0 0
-0.0866282 0.0601465 -0.0214804 255 0 0
-0.0842357 0.0601872 -0.0214546 255 0 0
-0.0819478 0.0601742 -0.0214587 255 0 0
-0.0796601 0.0601657 -0.0214673 255 0 0
-0.0773723 0.0601593 -0.0214787 255 0 0
-0.0750845 0.0601554 -0.0214896 255 0 0
-0.0727969 0.0601531 -0.0214990 255 0 0
-0.0705089 0.0601443 -0.0214976 255 0 0
-0.0682212 0.0601435 -0.0214976 255 0 0
-0.0659334 0.0601464 -0.0214970 255 0 0
-0.0636456 0.0601497 -0.0214966 255 0 0
-0.0613598 0.0601534 -0.0214943 255 0 0
-0.0590719 0.0601566 -0.0214936 255 0 0
-0.0567841 0.0601592 -0.0214938 255 0 0
-0.0544963 0.0601610 -0.0214947 255 0 0
-0.0522085 0.0601615 -0.0214963 255 0 0
-0.0499204 0.0601722 -0.0214981 255 0 0
-0.0476325 0.0601725 -0.0215003 255 0 0
-0.0453434 0.0601714 -0.0214988 255 0 0
-0.0430670 0.0601710 -0.0214974 255 0 0
-0.0407681 0.0601706 -0.0214962 255 0 0
-0.0384809 0.0601699 -0.0214956 255 0 0
-0.0361932 0.0601692 -0.0214954 255 0 0
-0.0339057 0.0601683 -0.0214968 255 0 0
-0.0316183 0.0601676 -0.0214986 255 0 0
-0.0293082 0.0601668 -0.0214947 255 0 0
-0.0270208 0.0601631 -0.0214797 255 0 0
-0.0247839 0.0601629 -0.0215065 255 0 0
-0.0225189 0.0601576 -0.0215226 255 0 0
-0.0202007 0.0601602 -0.0215071 255 0 0
-0.0178891 0.0601562 -0.0214980 255 0 0
-0.0156034 0.0601553 -0.0214988 255 0 0
-0.0133102 0.0601572 -0.0214988 255 0 0
-0.0110221 0.0601578 -0.0214980 255 0 0
-0.0087368 0.0601594 -0.0214969 255 0 0
-0.0064478 0.0601614 -0.0214935 255 0 0
-0.0041608 0.0601685 -0.0214809 255 0 0
-0.0018454 0.0601775 -0.0214828 255 0 0
0.0003845 0.0602131 -0.0214388 255 0 0
0.0026840 0.0602277 -0.0214218 255 0 0
-0.0866122 0.0624355 -0.0214503 255 0 0
-0.0842356 0.0624628 -0.0214332 255 0 0
-0.0819478 0.0624601 -0.0214504 255 0 0
-0.0796601 0.0624578 -0.0214622 255 0 0
-0.0773723 0.0624482 -0.0214723 255 0 0
-0.0750845 0.0624448 -0.0214788 255 0 0
-0.0727972 0.0624442 -0.0214839 255 0 0
-0.0705089 0.0624473 -0.0214811 255 0 0
-0.0682332 0.0624490 -0.0214791 255 0 0
-0.0659334 0.0624504 -0.0214757 255 0 0
-0.0636456 0.0624519 -0.0214732 255 0 0
-0.0613597 0.0624539 -0.0214704 255 0 0
-0.0590718 0.0624575 -0.0214694 255 0 0
-0.0567840 0.0624591 -0.0214693 255 0 0
-0.0544963 0.0624599 -0.0214700 255 0 0
-0.0522085 0.0624609 -0.0214715 255 0 0
-0.0499205 0.0624615 -0.0214745 255 0 0
-0.0476326 0.0624619 -0.0214776 255 0 0
-0.0453437 0.0624625 -0.0214766 255 0 0
-0.0430712 0.0625074 -0.0214757 255 0 0
-0.0407682 0.0625088 -0.0214744 255 0 0
-0.0384806 0.0625084 -0.0214730 255 0 0
-0.0361930 0.0625081 -0.0214727 255 0 0
-0.0339055 0.0625071 -0.0214750 255 0 0
-0.0316181 0.0625026 -0.0214781 255 0 0
-0.0293052 0.0625004 -0.0214726 255 0 0
-0.0270201 0.0625060 -0.0214578 255 0 0
-0.0247863 0.0624587 -0.0214853 255 0 0
-0.0225201 0.0624560 -0.0215026 255 0 0
-0.0202029 0.0624565 -0.0214860 255 0 0
-0.0178879 0.0624562 -0.0214763 255 0 0
-0.0155999 0.0624528 -0.0214776 255 0 0
-0.0133082 0.0624518 -0.0214779 255 0 0
-0.0110175 0.0624516 -0.0214776 255 0 0
-0.0087325 0.0624539 -0.0214776 255 0 0
-0.0064427 0.0624580 -0.0214757 255 0 0
-0.0041585 0.0625087 -0.0214707 255 0 0
-0.0018524 0.0625077 -0.0214739 255 0 0
0.0003756 0.0624974 -0.0214353 255 0 0
0.0026668 0.0624861 -0.0214181 255 0 0
0.0050662 0.0624725 -0.0214836 255 0 0
-0.0889220 0.0647303 -0.0214520 255 0 0
-0.0865721 0.0647228 -0.0214183 255 0 0
-0.0842356 0.0647128 -0.0214086 255 0 0
-0.0819478 0.0647039 -0.0214319 255 0 0
-0.0796601 0.0646971 -0.0214442 255 0 0
-0.0773726 0.0646939 -0.0214519 255 0 0
-0.0750850 0.0646895 -0.0214553 255 0 0
-0.0727976 0.0646756 -0.0214595 255 0 0
-0.0705089 0.0646903 -0.0214562 255 0 0
-0.0682558 0.0646949 -0.0214524 255 0 0
-0.0659334 0.0646957 -0.0214462 255 0 0
-0.0636456 0.0646967 -0.0214415 255 0 0
-0.0613592 0.0647000 -0.0214364 255 0 0
-0.0590714 0.0647043 -0.0214342 255 0 0
-0.0567836 0.0647210 -0.0214341 255 0 0
-0.0544957 0.0647325 -0.0214358 255 0 0
-0.0522078 0.0647383 -0.0214384 255 0 0
-0.0499199 0.0647448 -0.0214407 255 0 0
-0.0476321 0.0647509 -0.0214427 255 0 0
-0.0453438 0.0647656 -0.0214397 255 0 0
-0.0430798 0.0647755 -0.0214372 255 0 0
-0.0407683 0.0647773 -0.0214359 255 0 0
-0.0384808 0.0647779 -0.0214352 255 0 0
-0.0361931 0.0647756 -0.0214348 255 0 0
-0.0339055 0.0647713 -0.0214364 255 0 0
-0.0316179 0.0647659 -0.0214385 255 0 0
-0.0293043 0.0647614 -0.0214343 255 0 0
-0.0270175 0.0647594 -0.0214188 255 0 0
-0.0247867 0.0647391 -0.0214495 255 0 0
-0.0225335 0.0647241 -0.0214654 255 0 0
-0.0202059 0.0647197 -0.0214507 255 0 0
-0.0178876 0.0647081 -0.0214415 255 0 0
-0.0155912 0.0647014 -0.0214429 255 0 0
-0.0133063 0.0647004 -0.0214448 255 0 0
-0.0110165 0.0646996 -0.0214462 255 0 0
-0.0087255 0.0647001 -0.0214475 255 0 0
-0.0064383 0.0647014 -0.0214487 255 0 0
-0.0041556 0.0647063 -0.0214473 255 0 0
-0.0018550 0.0647056 -0.0214519 255 0 0
0.0003716 0.0647378 -0.0214271 255 0 0
0.0026544 0.0647525 -0.0214203 255 0 0
0.0050335 0.0647347 -0.0214569 255 0 0
-0.0889205 0.0669880 -0.0214047 255 0 0
-0.0865384 0.0669759 -0.0214069 255 0 0
-0.0842356 0.0669683 -0.0214144 255 0 0
-0.0819478 0.0669599 -0.0214281 255 0 0
-0.0796601 0.0669557 -0.0214376 255 0 0
-0.0773725 0.0669525 -0.0214453 255 0 0
-0.0750849 0.0669522 -0.0214459 255 0 0
-0.0727974 0.0669506 -0.0214437 255 0 0
-0.0705089 0.0669584 -0.0214512 255 0 0
-0.0683023 0.0669637 -0.0214566 255 0 0
-0.0659334 0.0669640 -0.0214479 255 0 0
-0.0636456 0.0669640 -0.0214420 255 0 0
-0.0613597 0.0669646 -0.0214384 255 0 0
-0.0590719 0.0669662 -0.0214369 255 0 0
-0.0567841 0.0669675 -0.0214373 255 0 0
-0.0544964 0.0669690 -0.0214389 255 0 0
-0.0522086 0.0669708 -0.0214411 255 0 0
-0.0499207 0.0669727 -0.0214453 255 0 0
-0.0476328 0.0669746 -0.0214498 255 0 0
-0.0453435 0.0669808 -0.0214524 255 0 0
-0.0430904 0.0669851 -0.0214532 255 0 0
-0.0407680 0.0669857 -0.0214522 255 0 0
-0.0384807 0.0669861 -0.0214523 255 0 0
-0.0361934 0.0669891 -0.0214537 255 0 0
-0.0339058 0.0669906 -0.0214574 255 0 0
-0.0315795 0.0669899 -0.0214607 255 0 0
-0.0293036 0.0669906 -0.0214532 255 0 0
-0.0270065 0.0669901 -0.0214292 255 0 0
-0.0247909 0.0669908 -0.0214729 255 0 0
-0.0225550 0.0669915 -0.0215003 255 0 0
-0.0202065 0.0669921 -0.0214756 255 0 0
-0.0178758 0.0669945 -0.0214631 255 0 0
-0.0155872 0.0669963 -0.0214650 255 0 0
-0.0133040 0.0669987 -0.0214665 255 0 0
-0.0110151 0.0670004 -0.0214675 255 0 0
-0.0087236 0.0670003 -0.0214692 255 0 0
-0.0064350 0.0670027 -0.0214716 255 0 0
-0.0041536 0.0670028 -0.0214727 255 0 0
-0.0018604 0.0670055 -0.0214714 255 0 0
0.0003681 0.0670076 -0.0214545 255 0 0
0.0026438 0.0670120 -0.0214459 255 0 0
0.0049902 0.0670163 -0.0214345 255 0 0
0.0073557 0.0670199 -0.0214493 255 0 0
-0.0912530 0.0692788 -0.0214172 255 0 0
-0.0889052 0.0692730 -0.0213656 255 0 0
-0.0865235 0.0692606 -0.0213931 255 0 0
-0.0842356 0.0692532 -0.0214119 255 0 0
-0.0819478 0.0692510 -0.0214166 255 0 0
-0.0796605 0.0692494 -0.0214242 255 0 0
-0.0773730 0.0692480 -0.0214284 255 0 0
-0.0750853 0.0692481 -0.0214293 255 0 0
-0.0727976 0.0692460 -0.0214245 255 0 0
-0.0705089 0.0692560 -0.0214407 255 0 0
-0.0683081 0.0692626 -0.0214489 255 0 0
-0.0659334 0.0692609 -0.0214393 255 0 0
-0.0636456 0.0692592 -0.0214333 255 0 0
-0.0613599 0.0692586 -0.0214296 255 0 0
-0.0590721 0.0692592 -0.0214276 255 0 0
-0.0567843 0.0692612 -0.0214279 255 0 0
-0.0544966 0.0692629 -0.0214297 255 0 0
-0.0522083 0.0692645 -0.0214321 255 0 0
-0.0499195 0.0692677 -0.0214371 255 0 0
-0.0476299 0.0692712 -0.0214415 255 0 0
-0.0453440 0.0692801 -0.0214461 255 0 0
-0.0431003 0.0692855 -0.0214486 255 0 0
-0.0407683 0.0692866 -0.0214477 255 0 0
-0.0384807 0.0692887 -0.0214484 255 0 0
-0.0361935 0.0692919 -0.0214507 255 0 0
-0.0339062 0.0692944 -0.0214559 255 0 0
-0.0315676 0.0692947 -0.0214610 255 0 0
-0.0293031 0.0692950 -0.0214522 255 0 0
-0.0269865 0.0692984 -0.0214249 255 0 0
-0.0248043 0.0692979 -0.0214770 255 0 0
-0.0225621 0.0693040 -0.0215081 255 0 0
-0.0202066 0.0693063 -0.0214807 255 0 0
-0.0178681 0.0693066 -0.0214661 255 0 0
-0.0155863 0.0693062 -0.0214697 255 0 0
-0.0133023 0.0693067 -0.0214719 255 0 0
-0.0110143 0.0693065 -0.0214733 255 0 0
-0.0087218 0.0693062 -0.0214762 255 0 0
-0.0064320 0.0693060 -0.0214794 255 0 0
-0.0041515 0.0693046 -0.0214819 255 0 0
-0.0018628 0.0693049 -0.0214806 255 0 0
0.0003689 0.0693026 -0.0214691 255 0 0
0.0026398 0.0692987 -0.0214575 255 0 0
0.0049621 0.0693059 -0.0214211 255 0 0
0.0073137 0.0693058 -0.0214170 255 0 0
-0.0912516 0.0715683 -0.0213736 255 0 0
-0.0888879 0.0715848 -0.0213411 255 0 0
-0.0865234 0.0715856 -0.0213676 255 0 0
-0.0842356 0.0715857 -0.0213831 255 0 0
-0.0819478 0.0715840 -0.0213890 255 0 0
-0.0796601 0.0715845 -0.0213956 255 0 0
-0.0773726 0.0715827 -0.0213992 255 0 0
-0.0750847 0.0715821 -0.0214010 255 0 0
-0.0727972 0.0715797 -0.0213978 255 0 0
-0.0705089 0.0715866 -0.0213996 255 0 0
-0.0683115 0.0715914 -0.0213982 255 0 0
-0.0659334 0.0715895 -0.0213964 255 0 0
-0.0636456 0.0715894 -0.0213938 255 0 0
-0.0613597 0.0715906 -0.0213908 255 0 0
-0.0590719 0.0715919 -0.0213902 255 0 0
-0.0567842 0.0715929 -0.0213906 255 0 0
-0.0544965 0.0715940 -0.0213920 255 0 0
-0.0522087 0.0715948 -0.0213943 255 0 0
-0.0499207 0.0715982 -0.0213970 255 0 0
-0.0476327 0.0715988 -0.0213996 255 0 0
-0.0453612 0.0716033 -0.0213966 255 0 0
-0.0431090 0.0716068 -0.0213937 255 0 0
-0.0407678 0.0716093 -0.0213940 255 0 0
-0.0384806 0.0716134 -0.0213963 255 0 0
-0.0361932 0.0716178 -0.0214002 255 0 0
-0.0339060 0.0716205 -0.0214067 255 0 0
-0.0315648 0.0716215 -0.0214124 255 0 0
-0.0292988 0.0716212 -0.0214079 255 0 0
-0.0269846 0.0716213 -0.0213908 255 0 0
-0.0247974 0.0716189 -0.0214375 255 0 0
-0.0225607 0.0716175 -0.0214671 255 0 0
-0.0202065 0.0716183 -0.0214463 255 0 0
-0.0178723 0.0716182 -0.0214380 255 0 0
-0.0155864 0.0716174 -0.0214424 255 0 0
-0.0133017 0.0716169 -0.0214462 255 0 0
-0.0110133 0.0716206 -0.0214498 255 0 0
-0.0087198 0.0716244 -0.0214538 255 0 0
-0.0064292 0.0716248 -0.0214579 255 0 0
-0.0041466 0.0716250 -0.0214612 255 0 0
-0.0018603 0.0716225 -0.0214608 255 0 0
0.0003785 0.0716220 -0.0214515 255 0 0
0.0026491 0.0716172 -0.0214406 255 0 0
0.0049565 0.0716035 -0.0214194 255 0 0
0.0072898 0.0716009 -0.0214120 255 0 0
0.0096468 0.0715963 -0.0214158 255 0 0
-0.0935407 0.0737778 -0.0213884 255 0 0
-0.0912429 0.0738791 -0.0213463 255 0 0
-0.0888787 0.0738831 -0.0213268 255 0 0
-0.0865234 0.0738866 -0.0213481 255 0 0
-0.0842356 0.0738877 -0.0213629 255 0 0
-0.0819478 0.0738895 -0.0213683 255 0 0
-0.0796601 0.0738897 -0.0213739 255 0 0
-0.0773726 0.0738885 -0.0213778 255 0 0
-0.0750847 0.0738876 -0.0213783 255 0 0
-0.0727971 0.0738869 -0.0213797 255 0 0
-0.0705089 0.0738885 -0.0213720 255 0 0
-0.0683222 0.0738910 -0.0213696 255 0 0
-0.0659334 0.0738913 -0.0213671 255 0 0
-0.0636456 0.0738923 -0.0213655 255 0 0
-0.0613598 0.0738944 -0.0213640 255 0 0
-0.0590720 0.0738963 -0.0213637 255 0 0
-0.0567842 0.0738977 -0.0213650 255 0 0
-0.0544965 0.0738991 -0.0213664 255 0 0
-0.0522086 0.0739002 -0.0213683 255 0 0
-0.0499205 0.0739004 -0.0213692 255 0 0
-0.0476317 0.0739016 -0.0213714 255 0 0
-0.0453748 0.0739053 -0.0213654 255 0 0
-0.0431149 0.0739165 -0.0213620 255 0 0
-0.0407679 0.0739214 -0.0213620 255 0 0
-0.0384798 0.0739269 -0.0213647 255 0 0
-0.0361933 0.0739346 -0.0213696 255 0 0
-0.0338667 0.0739385 -0.0213760 255 0 0
-0.0315637 0.0739412 -0.0213833 255 0 0
-0.0292975 0.0739423 -0.0213836 255 0 0
-0.0269845 0.0739420 -0.0213716 255 0 0
-0.0247939 0.0739531 -0.0214118 255 0 0
-0.0225604 0.0739655 -0.0214389 255 0 0
-0.0202064 0.0739626 -0.0214234 255 0 0
-0.0178748 0.0739633 -0.0214165 255 0 0
-0.0155863 0.0739696 -0.0214207 255 0 0
-0.0133010 0.0739741 -0.0214258 255 0 0
-0.0110118 0.0739760 -0.0214322 255 0 0
-0.0087181 0.0739775 -0.0214387 255 0 0
-0.0064262 0.0739785 -0.0214443 255 0 0
-0.0041431 0.0739800 -0.0214496 255 0 0
-0.0018576 0.0739744 -0.0214521 255 0 0
0.0003858 0.0739807 -0.0214422 255 0 0
0.0026549 0.0739647 -0.0214311 255 0 0
0.0049561 0.0739284 -0.0214182 255 0 0
0.0072757 0.0739044 -0.0214092 255 0 0
0.0096111 0.0738931 -0.0213903 255 0 0
0.0119707 0.0738900 -0.0214223 255 0 0
-0.0935394 0.0761582 -0.0213536 255 0 0
-0.0912434 0.0761775 -0.0213333 255 0 0
-0.0888878 0.0761807 -0.0213271 255 0 0
-0.0865234 0.0761799 -0.0213419 255 0 0
-0.0842356 0.0761812 -0.0213506 255 0 0
-0.0819478 0.0761784 -0.0213572 255 0 0
-0.0796603 0.0761770 -0.0213625 255 0 0
-0.0773726 0.0761765 -0.0213658 255 0 0
-0.0750847 0.0761768 -0.0213658 255 0 0
-0.0727971 0.0761770 -0.0213656 255 0 0
-0.0705089 0.0761893 -0.0213622 255 0 0
-0.0683432 0.0761922 -0.0213622 255 0 0
-0.0659334 0.0761938 -0.0213585 255 0 0
-0.0636456 0.0761962 -0.0213553 255 0 0
-0.0613597 0.0761977 -0.0213534 255 0 0
-0.0590719 0.0761997 -0.0213529 255 0 0
-0.0567841 0.0762016 -0.0213535 255 0 0
-0.0544963 0.0762039 -0.0213546 255 0 0
-0.0522000 0.0762055 -0.0213564 255 0 0
-0.0499186 0.0762066 -0.0213581 255 0 0
-0.0476302 0.0762163 -0.0213602 255 0 0
-0.0453802 0.0762498 -0.0213557 255 0 0
-0.0431163 0.0762715 -0.0213532 255 0 0
-0.0407678 0.0762816 -0.0213526 255 0 0
-0.0384781 0.0762897 -0.0213543 255 0 0
-0.0361926 0.0762993 -0.0213581 255 0 0
-0.0338604 0.0763059 -0.0213653 255 0 0
-0.0315630 0.0763076 -0.0213729 255 0 0
-0.0292951 0.0763086 -0.0213741 255 0 0
-0.0269824 0.0763121 -0.0213649 255 0 0
-0.0247928 0.0762987 -0.0214062 255 0 0
-0.0225623 0.0762903 -0.0214331 255 0 0
-0.0202069 0.0762974 -0.0214169 255 0 0
-0.0178767 0.0763021 -0.0214113 255 0 0
-0.0155857 0.0763051 -0.0214154 255 0 0
-0.0133004 0.0763067 -0.0214199 255 0 0
-0.0110111 0.0763070 -0.0214248 255 0 0
-0.0087165 0.0763061 -0.0214306 255 0 0
-0.0064238 0.0763054 -0.0214368 255 0 0
-0.0041412 0.0763058 -0.0214427 255 0 0
-0.0018541 0.0763002 -0.0214472 255 0 0
0.0003907 0.0762991 -0.0214412 255 0 0
0.0026575 0.0762954 -0.0214334 255 0 0
0.0049610 0.0762819 -0.0214208 255 0 0
0.0072730 0.0762306 -0.0214072 255 0 0
0.0095876 0.0761927 -0.0213826 255 0 0
0.0119358 0.0761885 -0.0214014 255 0 0
-0.0935382 0.0784696 -0.0213338 255 0 0
-0.0912405 0.0784758 -0.0213293 255 0 0
-0.0888977 0.0785708 -0.0213292 255 0 0
-0.0865234 0.0785696 -0.0213384 255 0 0
-0.0842356 0.0785687 -0.0213446 255 0 0
-0.0819478 0.0785687 -0.0213513 255 0 0
-0.0796601 0.0785675 -0.0213558 255 0 0
-0.0773724 0.0785653 -0.0213587 255 0 0
-0.0750845 0.0785633 -0.0213590 255 0 0
-0.0727961 0.0785628 -0.0213584 255 0 0
-0.0705089 0.0785635 -0.0213557 255 0 0
-0.0683457 0.0785635 -0.0213562 255 0 0
-0.0659334 0.0785664 -0.0213540 255 0 0
-0.0636456 0.0785681 -0.0213521 255 0 0
-0.0613595 0.0785706 -0.0213485 255 0 0
-0.0590716 0.0785728 -0.0213471 255 0 0
-0.0567839 0.0785734 -0.0213479 255 0 0
-0.0544960 0.0785738 -0.0213488 255 0 0
-0.0521833 0.0785732 -0.0213510 255 0 0
-0.0499166 0.0785724 -0.0213537 255 0 0
-0.0476277 0.0785726 -0.0213564 255 0 0
-0.0453817 0.0785736 -0.0213528 255 0 0
-0.0431167 0.0785774 -0.0213518 255 0 0
-0.0407679 0.0785835 -0.0213511 255 0 0
-0.0384776 0.0785892 -0.0213519 255 0 0
-0.0361923 0.0785937 -0.0213551 255 0 0
-0.0338595 0.0785977 -0.0213617 255 0 0
-0.0315620 0.0785989 -0.0213700 255 0 0
-0.0292946 0.0786026 -0.0213711 255 0 0
-0.0269821 0.0786049 -0.0213606 255 0 0
-0.0247938 0.0786052 -0.0214024 255 0 0
-0.0225648 0.0786057 -0.0214297 255 0 0
-0.0202069 0.0786052 -0.0214123 255 0 0
-0.0178768 0.0786044 -0.0214068 255 0 0
-0.0155857 0.0786032 -0.0214111 255 0 0
-0.0133001 0.0786020 -0.0214156 255 0 0
-0.0110102 0.0786010 -0.0214202 255 0 0
-0.0087146 0.0785998 -0.0214251 255 0 0
-0.0064221 0.0785981 -0.0214308 255 0 0
-0.0041386 0.0785961 -0.0214376 255 0 0
-0.0018514 0.0785952 -0.0214421 255 0 0
0.0003943 0.0785879 -0.0214405 255 0 0
0.0026603 0.0785875 -0.0214346 255 0 0
0.0049661 0.0785863 -0.0214255 255 0 0
0.0072730 0.0785852 -0.0214118 255 0 0
0.0095714 0.0785427 -0.0213832 255 0 0
0.0119099 0.0784903 -0.0213867 255 0 0
0.0142856 0.0784834 -0.0214240 255 0 0
-0.0958259 0.0807690 -0.0214171 255 0 0
-0.0935372 0.0807720 -0.0213304 255 0 0
-0.0912369 0.0808690 -0.0213302 255 0 0
-0.0889008 0.0808654 -0.0213331 255 0 0
-0.0865234 0.0808636 -0.0213397 255 0 0
-0.0842356 0.0808612 -0.0213442 255 0 0
-0.0819481 0.0808612 -0.0213501 255 0 0
-0.0796605 0.0808607 -0.0213534 255 0 0
-0.0773727 0.0808607 -0.0213562 255 0 0
-0.0750849 0.0808590 -0.0213573 255 0 0
-0.0727945 0.0808584 -0.0213584 255 0 0
-0.0705089 0.0808569 -0.0213557 255 0 0
-0.0683467 0.0808576 -0.0213549 255 0 0
-0.0659334 0.0808598 -0.0213549 255 0 0
-0.0636456 0.0808633 -0.0213532 255 0 0
-0.0613596 0.0808656 -0.0213483 255 0 0
-0.0590718 0.0808676 -0.0213464 255 0 0
-0.0567840 0.0808678 -0.0213471 255 0 0
-0.0544949 0.0808684 -0.0213489 255 0 0
-0.0521704 0.0808674 -0.0213509 255 0 0
-0.0499161 0.0808667 -0.0213546 255 0 0
-0.0476271 0.0808659 -0.0213576 255 0 0
-0.0453822 0.0808700 -0.0213567 255 0 0
-0.0431170 0.0808745 -0.0213569 255 0 0
-0.0407681 0.0808817 -0.0213558 255 0 0
-0.0384773 0.0808874 -0.0213559 255 0 0
-0.0361921 0.0808909 -0.0213576 255 0 0
-0.0338594 0.0808948 -0.0213634 255 0 0
-0.0315616 0.0808973 -0.0213710 255 0 0
-0.0292947 0.0809022 -0.0213710 255 0 0
-0.0269824 0.0809029 -0.0213571 255 0 0
-0.0247958 0.0809019 -0.0213997 255 0 0
-0.0225659 0.0809006 -0.0214257 255 0 0
-0.0202071 0.0809011 -0.0214086 255 0 0
-0.0178777 0.0809006 -0.0214005 255 0 0
-0.0155858 0.0808994 -0.0214071 255 0 0
-0.0133000 0.0808979 -0.0214118 255 0 0
-0.0110092 0.0808969 -0.0214168 255 0 0
-0.0087138 0.0808957 -0.0214213 255 0 0
-0.0064207 0.0808941 -0.0214265 255 0 0
-0.0041360 0.0808915 -0.0214334 255 0 0
-0.0018491 0.0808894 -0.0214386 255 0 0
0.0003966 0.0808834 -0.0214387 255 0 0
0.0026620 0.0808791 -0.0214356 255 0 0
0.0049704 0.0808802 -0.0214309 255 0 0
0.0072748 0.0808813 -0.0214183 255 0 0
0.0095644 0.0808818 -0.0213932 255 0 0
0.0118905 0.0808774 -0.0213879 255 0 0
0.0142539 0.0807872 -0.0214041 255 0 0
-0.0958252 0.0830618 -0.0213817 255 0 0
-0.0934737 0.0831580 -0.0213217 255 0 0
-0.0912271 0.0831604 -0.0213257 255 0 0
-0.0889015 0.0831571 -0.0213305 255 0 0
-0.0865234 0.0831564 -0.0213359 255 0 0
-0.0842358 0.0831548 -0.0213403 255 0 0
-0.0819481 0.0831541 -0.0213453 255 0 0
-0.0796604 0.0831535 -0.0213506 255 0 0
-0.0773727 0.0831526 -0.0213528 255 0 0
-0.0750848 0.0831511 -0.0213564 255 0 0
-0.0727946 0.0831506 -0.0213588 255 0 0
-0.0705090 0.0831486 -0.0213569 255 0 0
-0.0683509 0.0831486 -0.0213575 255 0 0
-0.0659334 0.0831522 -0.0213539 255 0 0
-0.0636456 0.0831552 -0.0213512 255 0 0
-0.0613594 0.0831583 -0.0213476 255 0 0
-0.0590716 0.0831599 -0.0213462 255 0 0
-0.0567839 0.0831613 -0.0213471 255 0 0
-0.0544944 0.0831614 -0.0213492 255 0 0
-0.0521587 0.0831597 -0.0213512 255 0 0
-0.0499151 0.0831580 -0.0213546 255 0 0
-0.0476262 0.0831568 -0.0213576 255 0 0
-0.0453827 0.0831599 -0.0213563 255 0 0
-0.0431186 0.0831634 -0.0213561 255 0 0
-0.0407679 0.0831694 -0.0213547 255 0 0
-0.0384781 0.0831737 -0.0213532 255 0 0
-0.0361923 0.0831765 -0.0213533 255 0 0
-0.0338581 0.0831804 -0.0213561 255 0 0
-0.0315579 0.0831860 -0.0213607 255 0 0
-0.0292949 0.0831911 -0.0213611 255 0 0
-0.0269826 0.0831947 -0.0213512 255 0 0
-0.0247910 0.0831914 -0.0213832 255 0 0
-0.0225628 0.0831895 -0.0214034 255 0 0
-0.0202072 0.0831904 -0.0213900 255 0 0
-0.0178819 0.0831907 -0.0213846 255 0 0
-0.0155865 0.0831889 -0.0213887 255 0 0
-0.0132999 0.0831879 -0.0213937 255 0 0
-0.0110078 0.0831869 -0.0213992 255 0 0
-0.0087124 0.0831851 -0.0214064 255 0 0
-0.0064194 0.0831829 -0.0214147 255 0 0
-0.0041337 0.0831796 -0.0214242 255 0 0
-0.0018469 0.0831776 -0.0214311 255 0 0
0.0003973 0.0831721 -0.0214335 255 0 0
0.0026622 0.0831687 -0.0214332 255 0 0
0.0049749 0.0831693 -0.0214300 255 0 0
0.0072775 0.0831714 -0.0214195 255 0 0
0.0095614 0.0831737 -0.0214007 255 0 0
0.0118793 0.0831714 -0.0213890 255 0 0
0.0142291 0.0831624 -0.0213877 255 0 0
0.0166080 0.0830804 -0.0214215 255 0 0
-0.0958247 0.0854606 -0.0213516 255 0 0
-0.0934397 0.0854595 -0.0213093 255 0 0
-0.0912095 0.0854559 -0.0213136 255 0 0
-0.0889013 0.0854525 -0.0213202 255 0 0
-0.0865237 0.0854523 -0.0213266 255 0 0
-0.0842360 0.0854524 -0.0213332 255 0 0
-0.0819483 0.0854545 -0.0213396 255 0 0
-0.0796606 0.0854525 -0.0213437 255 0 0
-0.0773728 0.0854520 -0.0213472 255 0 0
-0.0750850 0.0854498 -0.0213534 255 0 0
-0.0727972 0.0854514 -0.0213587 255 0 0
-0.0705242 0.0854446 -0.0213653 255 0 0
-0.0683528 0.0854432 -0.0213654 255 0 0
-0.0659334 0.0854479 -0.0213520 255 0 0
-0.0636456 0.0854520 -0.0213452 255 0 0
-0.0613590 0.0854552 -0.0213438 255 0 0
-0.0590712 0.0854572 -0.0213438 255 0 0
-0.0567834 0.0854575 -0.0213457 255 0 0
-0.0544952 0.0854569 -0.0213473 255 0 0
-0.0521544 0.0854542 -0.0213490 255 0 0
-0.0499129 0.0854518 -0.0213516 255 0 0
-0.0476250 0.0854505 -0.0213542 255 0 0
-0.0453825 0.0854515 -0.0213538 255 0 0
-0.0431196 0.0854521 -0.0213517 255 0 0
-0.0407681 0.0854556 -0.0213479 255 0 0
-0.0384793 0.0854588 -0.0213447 255 0 0
-0.0361916 0.0854620 -0.0213421 255 0 0
-0.0338794 0.0854675 -0.0213388 255 0 0
-0.0315587 0.0854748 -0.0213365 255 0 0
-0.0292932 0.0854820 -0.0213376 255 0 0
-0.0269823 0.0854905 -0.0213354 255 0 0
-0.0247859 0.0854848 -0.0213517 255 0 0
-0.0225573 0.0854822 -0.0213614 255 0 0
-0.0202073 0.0854834 -0.0213582 255 0 0
-0.0178902 0.0854832 -0.0213582 255 0 0
-0.0155866 0.0854823 -0.0213611 255 0 0
-0.0132994 0.0854812 -0.0213653 255 0 0
-0.0110045 0.0854801 -0.0213715 255 0 0
-0.0087086 0.0854784 -0.0213823 255 0 0
-0.0064142 0.0854755 -0.0213958 255 0 0
-0.0041315 0.0854725 -0.0214069 255 0 0
-0.0018446 0.0854703 -0.0214165 255 0 0
0.0003964 0.0854642 -0.0214202 255 0 0
0.0026599 0.0854597 -0.0214202 255 0 0
0.0049768 0.0854599 -0.0214165 255 0 0
0.0072797 0.0854617 -0.0214082 255 0 0
0.0095640 0.0854688 -0.0213965 255 0 0
0.0118734 0.0854689 -0.0213842 255 0 0
0.0142085 0.0854692 -0.0213756 255 0 0
0.0165788 0.0854197 -0.0213937 255 0 0
-0.0958237 0.0876347 -0.0213380 255 0 0
-0.0933972 0.0876284 -0.0213020 255 0 0
-0.0911874 0.0876250 -0.0213298 255 0 0
-0.0889166 0.0876235 -0.0213462 255 0 0
-0.0865234 0.0876217 -0.0213471 255 0 0
-0.0842359 0.0876190 -0.0213495 255 0 0
-0.0819482 0.0876182 -0.0213545 255 0 0
-0.0796605 0.0876174 -0.0213576 255 0 0
-0.0773728 0.0876161 -0.0213602 255 0 0
-0.0750849 0.0876149 -0.0213608 255 0 0
-0.0727950 0.0876143 -0.0213600 255 0 0
-0.0705114 0.0876264 -0.0213603 255 0 0
-0.0683565 0.0877153 -0.0213595 255 0 0
-0.0659334 0.0876214 -0.0213594 255 0 0
-0.0636456 0.0876205 -0.0213582 255 0 0
-0.0613597 0.0876230 -0.0213562 255 0 0
-0.0590719 0.0876239 -0.0213560 255 0 0
-0.0567841 0.0876247 -0.0213571 255 0 0
-0.0544935 0.0876302 -0.0213587 255 0 0
-0.0521490 0.0876382 -0.0213617 255 0 0
-0.0498984 0.0876381 -0.0213651 255 0 0
-0.0476239 0.0876383 -0.0213690 255 0 0
-0.0453873 0.0876421 -0.0213702 255 0 0
-0.0431205 0.0876451 -0.0213699 255 0 0
-0.0407680 0.0876480 -0.0213674 255 0 0
-0.0384784 0.0876501 -0.0213668 255 0 0
-0.0361903 0.0876501 -0.0213690 255 0 0
-0.0338456 0.0876521 -0.0213753 255 0 0
-0.0315557 0.0876487 -0.0213844 255 0 0
-0.0292933 0.0876536 -0.0213888 255 0 0
-0.0269821 0.0876566 -0.0213829 255 0 0
-0.0247914 0.0876547 -0.0214129 255 0 0
-0.0225640 0.0876533 -0.0214319 255 0 0
-0.0202081 0.0876534 -0.0214181 255 0 0
-0.0178859 0.0876527 -0.0214126 255 0 0
-0.0155866 0.0876515 -0.0214157 255 0 0
-0.0133007 0.0876501 -0.0214196 255 0 0
-0.0110079 0.0876583 -0.0214244 255 0 0
-0.0087131 0.0876958 -0.0214298 255 0 0
-0.0064194 0.0877274 -0.0214353 255 0 0
-0.0041334 0.0877344 -0.0214431 255 0 0
-0.0018448 0.0877357 -0.0214498 255 0 0
0.0003991 0.0877357 -0.0214571 255 0 0
0.0026647 0.0877312 -0.0214601 255 0 0
0.0049804 0.0877313 -0.0214575 255 0 0
0.0072815 0.0877329 -0.0214523 255 0 0
0.0095643 0.0877341 -0.0214439 255 0 0
0.0118603 0.0877275 -0.0214308 255 0 0
0.0141781 0.0876921 -0.0214170 255 0 0
0.0165402 0.0876879 -0.0214338 255 0 0
-0.0982301 0.0899132 -0.0213746 255 0 0
-0.0958227 0.0899050 -0.0213282 255 0 0
-0.0933881 0.0898982 -0.0212958 255 0 0
-0.0911732 0.0899010 -0.0213362 255 0 0
-0.0889221 0.0898976 -0.0213614 255 0 0
-0.0865241 0.0898960 -0.0213594 255 0 0
-0.0842366 0.0898931 -0.0213594 255 0 0
-0.0819490 0.0898916 -0.0213618 255 0 0
-0.0796614 0.0898909 -0.0213662 255 0 0
-0.0773726 0.0898895 -0.0213678 255 0 0
-0.0750839 0.0898881 -0.0213663 255 0 0
-0.0727940 0.0898835 -0.0213640 255 0 0
-0.0705089 0.0898889 -0.0213577 255 0 0
-0.0683568 0.0898933 -0.0213558 255 0 0
-0.0659334 0.0898886 -0.0213637 255 0 0
-0.0636460 0.0898876 -0.0213669 255 0 0
-0.0613599 0.0898887 -0.0213654 255 0 0
-0.0590722 0.0898925 -0.0213650 255 0 0
-0.0567844 0.0898928 -0.0213664 255 0 0
-0.0544863 0.0898938 -0.0213690 255 0 0
-0.0521448 0.0898953 -0.0213720 255 0 0
-0.0498871 0.0898959 -0.0213758 255 0 0
-0.0476247 0.0898968 -0.0213803 255 0 0
-0.0453889 0.0898974 -0.0213800 255 0 0
-0.0431215 0.0898997 -0.0213818 255 0 0
-0.0407689 0.0899009 -0.0213821 255 0 0
-0.0384777 0.0899025 -0.0213845 255 0 0
-0.0361901 0.0899074 -0.0213892 255 0 0
-0.0338433 0.0899127 -0.0214009 255 0 0
-0.0315480 0.0899191 -0.0214149 255 0 0
-0.0292911 0.0899176 -0.0214206 255 0 0
-0.0269821 0.0899215 -0.0214117 255 0 0
-0.0248015 0.0899195 -0.0214512 255 0 0
-0.0225719 0.0899177 -0.0214743 255 0 0
-0.0202081 0.0899175 -0.0214571 255 0 0
-0.0178812 0.0899166 -0.0214455 255 0 0
-0.0155864 0.0899154 -0.0214490 255 0 0
-0.0133006 0.0899143 -0.0214528 255 0 0
-0.0110091 0.0899136 -0.0214567 255 0 0
-0.0087139 0.0899150 -0.0214581 255 0 0
-0.0064224 0.0899210 -0.0214596 255 0 0
-0.0041352 0.0899229 -0.0214656 255 0 0
-0.0018450 0.0899250 -0.0214717 255 0 0
0.0004008 0.0899213 -0.0214811 255 0 0
0.0026674 0.0899228 -0.0214869 255 0 0
0.0049833 0.0899268 -0.0214840 255 0 0
0.0072835 0.0899361 -0.0214800 255 0 0
0.0095653 0.0899394 -0.0214737 255 0 0
0.0118538 0.0899484 -0.0214595 255 0 0
0.0141551 0.0899602 -0.0214431 255 0 0
0.0165087 0.0899790 -0.0214552 255 0 0
0.0189111 0.0899962 -0.0214943 255 0 0
-0.0982290 0.0922077 -0.0213495 255 0 0
-0.0958205 0.0922020 -0.0213047 255 0 0
-0.0933868 0.0921964 -0.0212709 255 0 0
-0.0911649 0.0921933 -0.0213183 255 0 0
-0.0889137 0.0921926 -0.0213461 255 0 0
-0.0865234 0.0921920 -0.0213515 255 0 0
-0.0842359 0.0921952 -0.0213567 255 0 0
-0.0819482 0.0921981 -0.0213623 255 0 0
-0.0796605 0.0921998 -0.0213646 255 0 0
-0.0773727 0.0921981 -0.0213674 255 0 0
-0.0750849 0.0921978 -0.0213683 255 0 0
-0.0727936 0.0921985 -0.0213698 255 0 0
-0.0705119 0.0921976 -0.0213663 255 0 0
-0.0683556 0.0921982 -0.0213619 255 0 0
-0.0659334 0.0922005 -0.0213621 255 0 0
-0.0636456 0.0922033 -0.0213619 255 0 0
-0.0613598 0.0922062 -0.0213598 255 0 0
-0.0590720 0.0922089 -0.0213592 255 0 0
-0.0567842 0.0922112 -0.0213604 255 0 0
-0.0544935 0.0922119 -0.0213626 255 0 0
-0.0521494 0.0922121 -0.0213659 255 0 0
-0.0498928 0.0922114 -0.0213697 255 0 0
-0.0476246 0.0922127 -0.0213736 255 0 0
-0.0453822 0.0922206 -0.0213745 255 0 0
-0.0431201 0.0922288 -0.0213777 255 0 0
-0.0407680 0.0922382 -0.0213791 255 0 0
-0.0384754 0.0922479 -0.0213828 255 0 0
-0.0361892 0.0922576 -0.0213873 255 0 0
-0.0338469 0.0922668 -0.0213947 255 0 0
-0.0315565 0.0922738 -0.0214015 255 0 0
-0.0292947 0.0922747 -0.0213993 255 0 0
-0.0269833 0.0922661 -0.0213858 255 0 0
-0.0248051 0.0922863 -0.0214242 255 0 0
-0.0225725 0.0922959 -0.0214477 255 0 0
-0.0202084 0.0922936 -0.0214314 255 0 0
-0.0178798 0.0922941 -0.0214229 255 0 0
-0.0155864 0.0922978 -0.0214283 255 0 0
-0.0133005 0.0923008 -0.0214337 255 0 0
-0.0110072 0.0923029 -0.0214392 255 0 0
-0.0087131 0.0923053 -0.0214446 255 0 0
-0.0064197 0.0923077 -0.0214511 255 0 0
-0.0041341 0.0923093 -0.0214591 255 0 0
-0.0018456 0.0923119 -0.0214657 255 0 0
0.0003991 0.0923142 -0.0214727 255 0 0
0.0026653 0.0923099 -0.0214766 255 0 0
0.0049838 0.0923104 -0.0214728 255 0 0
0.0072841 0.0923092 -0.0214690 255 0 0
0.0095681 0.0923088 -0.0214646 255 0 0
0.0118514 0.0923085 -0.0214533 255 0 0
0.0141438 0.0922974 -0.0214392 255 0 0
0.0164634 0.0922625 -0.0214392 255 0 0
0.0188008 0.0923698 -0.0215608 255 0 0
-0.0982285 0.0944918 -0.0213294 255 0 0
-0.0958050 0.0944993 -0.0212919 255 0 0
-0.0933868 0.0945713 -0.0212635 255 0 0
-0.0911533 0.0945870 -0.0213108 255 0 0
-0.0889064 0.0945858 -0.0213400 255 0 0
-0.0865235 0.0945841 -0.0213478 255 0 0
-0.0842359 0.0945819 -0.0213535 255 0 0
-0.0819483 0.0945790 -0.0213609 255 0 0
-0.0796606 0.0945767 -0.0213662 255 0 0
-0.0773728 0.0945756 -0.0213681 255 0 0
-0.0750850 0.0945734 -0.0213719 255 0 0
-0.0727939 0.0945721 -0.0213743 255 0 0
-0.0705142 0.0945690 -0.0213707 255 0 0
-0.0683551 0.0945694 -0.0213656 255 0 0
-0.0659334 0.0945724 -0.0213622 255 0 0
-0.0636456 0.0945755 -0.0213592 255 0 0
-0.0613597 0.0945784 -0.0213571 255 0 0
-0.0590719 0.0945808 -0.0213566 255 0 0
-0.0567840 0.0945819 -0.0213584 255 0 0
-0.0544936 0.0945836 -0.0213603 255 0 0
-0.0521513 0.0945835 -0.0213630 255 0 0
-0.0498973 0.0945823 -0.0213663 255 0 0
-0.0476244 0.0945828 -0.0213705 255 0 0
-0.0453784 0.0945855 -0.0213735 255 0 0
-0.0431192 0.0945911 -0.0213760 255 0 0
-0.0407681 0.0946002 -0.0213770 255 0 0
-0.0384755 0.0946101 -0.0213805 255 0 0
-0.0361896 0.0946218 -0.0213850 255 0 0
-0.0338591 0.0946291 -0.0213893 255 0 0
-0.0315601 0.0946317 -0.0213918 255 0 0
-0.0292964 0.0946335 -0.0213888 255 0 0
-0.0269847 0.0946340 -0.0213728 255 0 0
-0.0248051 0.0946303 -0.0214074 255 0 0
-0.0225742 0.0946269 -0.0214303 255 0 0
-0.0202082 0.0946273 -0.0214150 255 0 0
-0.0178795 0.0946263 -0.0214100 255 0 0
-0.0155863 0.0946245 -0.0214151 255 0 0
-0.0132996 0.0946230 -0.0214212 255 0 0
-0.0110061 0.0946219 -0.0214274 255 0 0
-0.0087125 0.0946206 -0.0214347 255 0 0
-0.0064191 0.0946191 -0.0214443 255 0 0
-0.0041341 0.0946171 -0.0214528 255 0 0
-0.0018458 0.0946153 -0.0214594 255 0 0
0.0003981 0.0946103 -0.0214652 255 0 0
0.0026646 0.0946065 -0.0214674 255 0 0
0.0049829 0.0946059 -0.0214645 255 0 0
0.0072849 0.0946061 -0.0214611 255 0 0
0.0095694 0.0946034 -0.0214558 255 0 0
0.0118532 0.0945973 -0.0214456 255 0 0
0.0141386 0.0945933 -0.0214333 255 0 0
0.0164446 0.0945701 -0.0214247 255 0 0
0.0187361 0.0946669 -0.0216759 255 0 0
-0.0982191 0.0967955 -0.0213039 255 0 0
-0.0957982 0.0968841 -0.0212815 255 0 0
-0.0933868 0.0968797 -0.0212752 255 0 0
-0.0911476 0.0968769 -0.0213190 255 0 0
-0.0889009 0.0968757 -0.0213478 255 0 0
-0.0865234 0.0968745 -0.0213527 255 0 0
-0.0842358 0.0968736 -0.0213581 255 0 0
-0.0819481 0.0968722 -0.0213633 255 0 0
-0.0796604 0.0968714 -0.0213692 255 0 0
-0.0773727 0.0968703 -0.0213718 255 0 0
-0.0750847 0.0968674 -0.0213749 255 0 0
-0.0727943 0.0968654 -0.0213772 255 0 0
-0.0705089 0.0968640 -0.0213720 255 0 0
-0.0683538 0.0968636 -0.0213687 255 0 0
-0.0659334 0.0968661 -0.0213661 255 0 0
-0.0636456 0.0968692 -0.0213637 255 0 0
-0.0613596 0.0968725 -0.0213607 255 0 0
-0.0590718 0.0968745 -0.0213598 255 0 0
-0.0567840 0.0968760 -0.0213609 255 0 0
-0.0544933 0.0968773 -0.0213629 255 0 0
-0.0521519 0.0968776 -0.0213661 255 0 0
-0.0499016 0.0968773 -0.0213712 255 0 0
-0.0476254 0.0968778 -0.0213762 255 0 0
-0.0453758 0.0968840 -0.0213792 255 0 0
-0.0431189 0.0968901 -0.0213802 255 0 0
-0.0407679 0.0969004 -0.0213805 255 0 0
-0.0384761 0.0969096 -0.0213814 255 0 0
-0.0361912 0.0969170 -0.0213841 255 0 0
-0.0338726 0.0969204 -0.0213878 255 0 0
-0.0315607 0.0969214 -0.0213912 255 0 0
-0.0292968 0.0969209 -0.0213903 255 0 0
-0.0269848 0.0969204 -0.0213772 255 0 0
-0.0248013 0.0969161 -0.0214073 255 0 0
-0.0225718 0.0969127 -0.0214271 255 0 0
-0.0202087 0.0969124 -0.0214132 255 0 0
-0.0178841 0.0969117 -0.0214090 255 0 0
-0.0155865 0.0969096 -0.0214122 255 0 0
-0.0133000 0.0969081 -0.0214166 255 0 0
-0.0110068 0.0969070 -0.0214224 255 0 0
-0.0087127 0.0969058 -0.0214291 255 0 0
-0.0064196 0.0969042 -0.0214360 255 0 0
-0.0041343 0.0969026 -0.0214452 255 0 0
-0.0018457 0.0969007 -0.0214519 255 0 0
0.0003978 0.0968950 -0.0214569 255 0 0
0.0026644 0.0968911 -0.0214590 255 0 0
0.0049833 0.0968907 -0.0214557 255 0 0
0.0072871 0.0968899 -0.0214505 255 0 0
0.0095708 0.0968890 -0.0214438 255 0 0
0.0118557 0.0968832 -0.0214366 255 0 0
0.0141444 0.0968772 -0.0214213 255 0 0
0.0164552 0.0968654 -0.0214150 255 0 0
0.0188137 0.0967145 -0.0213467 255 0 0
0.0212365 0.0965227 -0.0216723 255 0 0
-0.0982146 0.0991855 -0.0212949 255 0 0
-0.0957981 0.0991823 -0.0212844 255 0 0
-0.0933868 0.0991761 -0.0212884 255 0 0
-0.0911470 0.0991705 -0.0213270 255 0 0
-0.0888956 0.0991694 -0.0213535 255 0 0
-0.0865234 0.0991678 -0.0213559 255 0 0
-0.0842356 0.0991663 -0.0213611 255 0 0
-0.0819481 0.0991655 -0.0213670 255 0 0
-0.0796603 0.0991640 -0.0213716 255 0 0
-0.0773726 0.0991629 -0.0213736 255 0 0
-0.0750846 0.0991610 -0.0213765 255 0 0
-0.0727948 0.0991607 -0.0213793 255 0 0
-0.0705089 0.0991584 -0.0213749 255 0 0
-0.0683525 0.0991588 -0.0213715 255 0 0
-0.0659334 0.0991607 -0.0213698 255 0 0
-0.0636456 0.0991637 -0.0213676 255 0 0
-0.0613597 0.0991668 -0.0213643 255 0 0
-0.0590719 0.0991691 -0.0213631 255 0 0
-0.0567841 0.0991705 -0.0213642 255 0 0
-0.0544944 0.0991708 -0.0213663 255 0 0
-0.0521551 0.0991715 -0.0213702 255 0 0
-0.0499057 0.0991720 -0.0213760 255 0 0
-0.0476261 0.0991750 -0.0213814 255 0 0
-0.0453736 0.0991819 -0.0213830 255 0 0
-0.0431183 0.0991881 -0.0213832 255 0 0
-0.0407678 0.0991970 -0.0213821 255 0 0
-0.0384772 0.0992040 -0.0213828 255 0 0
-0.0361932 0.0992081 -0.0213843 255 0 0
-0.0338838 0.0992111 -0.0213875 255 0 0
-0.0315604 0.0992110 -0.0213909 255 0 0
-0.0292971 0.0992097 -0.0213902 255 0 0
-0.0269848 0.0992081 -0.0213784 255 0 0
-0.0248016 0.0992046 -0.0214073 255 0 0
-0.0225715 0.0992016 -0.0214252 255 0 0
-0.0202087 0.0992017 -0.0214122 255 0 0
-0.0178850 0.0992008 -0.0214075 255 0 0
-0.0155864 0.0991991 -0.0214101 255 0 0
-0.0132999 0.0991977 -0.0214139 255 0 0
-0.0110070 0.0991964 -0.0214191 255 0 0
-0.0087124 0.0991953 -0.0214251 255 0 0
-0.0064199 0.0991936 -0.0214319 255 0 0
-0.0041345 0.0991917 -0.0214393 255 0 0
-0.0018457 0.0991900 -0.0214460 255 0 0
0.0003979 0.0991836 -0.0214516 255 0 0
0.0026643 0.0991796 -0.0214530 255 0 0
0.0049831 0.0991785 -0.0214491 255 0 0
0.0072866 0.0991774 -0.0214427 255 0 0
0.0095706 0.0991765 -0.0214380 255 0 0
0.0118581 0.0991718 -0.0214287 255 0 0
0.0141510 0.0991747 -0.0214105 255 0 0
0.0164754 0.0991779 -0.0213993 255 0 0
0.0188560 0.0992873 -0.0212987 255 0 0
-0.0982164 0.1014903 -0.0213048 255 0 0
-0.0957987 0.1014843 -0.0212965 255 0 0
-0.0933868 0.1014710 -0.0213015 255 0 0
-0.0911518 0.1014673 -0.0213392 255 0 0
-0.0888945 0.1014615 -0.0213607 255 0 0
-0.0865234 0.1014608 -0.0213634 255 0 0
-0.0842358 0.1014593 -0.0213647 255 0 0
-0.0819482 0.1014572 -0.0213692 255 0 0
-0.0796605 0.1014557 -0.0213738 255 0 0
-0.0773727 0.1014540 -0.0213760 255 0 0
-0.0750848 0.1014514 -0.0213795 255 0 0
-0.0727958 0.1014506 -0.0213832 255 0 0
-0.0705108 0.1014490 -0.0213799 255 0 0
-0.0683505 0.1014497 -0.0213769 255 0 0
-0.0659334 0.1014518 -0.0213757 255 0 0
-0.0636456 0.1014545 -0.0213732 255 0 0
-0.0613597 0.1014562 -0.0213692 255 0 0
-0.0590719 0.1014582 -0.0213678 255 0 0
-0.0567841 0.1014596 -0.0213688 255 0 0
-0.0544943 0.1014605 -0.0213715 255 0 0
-0.0521590 0.1014631 -0.0213762 255 0 0
-0.0499132 0.1014663 -0.0213828 255 0 0
-0.0476277 0.1014716 -0.0213886 255 0 0
-0.0453725 0.1014784 -0.0213875 255 0 0
-0.0431175 0.1014849 -0.0213854 255 0 0
-0.0407680 0.1014915 -0.0213834 255 0 0
-0.0384793 0.1014965 -0.0213834 255 0 0
-0.0361934 0.1014994 -0.0213846 255 0 0
-0.0338826 0.1015003 -0.0213876 255 0 0
-0.0315599 0.1014999 -0.0213917 255 0 0
-0.0292971 0.1014993 -0.0213909 255 0 0
-0.0269847 0.1014987 -0.0213765 255 0 0
-0.0248055 0.1014941 -0.0214069 255 0 0
-0.0225750 0.1014914 -0.0214256 255 0 0
-0.0202090 0.1014915 -0.0214114 255 0 0
-0.0178828 0.1014912 -0.0214058 255 0 0
-0.0155863 0.1014894 -0.0214090 255 0 0
-0.0132995 0.1014880 -0.0214130 255 0 0
-0.0110068 0.1014870 -0.0214179 255 0 0
-0.0087122 0.1014860 -0.0214240 255 0 0
-0.0064198 0.1014850 -0.0214310 255 0 0
-0.0041344 0.1014829 -0.0214384 255 0 0
-0.0018458 0.1014816 -0.0214446 255 0 0
0.0003982 0.1014774 -0.0214498 255 0 0
0.0026646 0.1014742 -0.0214512 255 0 0
0.0049826 0.1014741 -0.0214478 255 0 0
0.0072858 0.1014720 -0.0214420 255 0 0
0.0095729 0.1014703 -0.0214358 255 0 0
0.0118603 0.1014730 -0.0214223 255 0 0
0.0141591 0.1015037 -0.0213986 255 0 0
0.0165033 0.1015188 -0.0213831 255 0 0
0.0189170 0.1014676 -0.0212314 255 0 0
-0.0982274 0.1038055 -0.0213300 255 0 0
-0.0958070 0.1037877 -0.0213081 255 0 0
-0.0933868 0.1037736 -0.0213062 255 0 0
-0.0911640 0.1037618 -0.0213411 255 0 0
-0.0889000 0.1037531 -0.0213624 255 0 0
-0.0865234 0.1037512 -0.0213634 255 0 0
-0.0842357 0.1037504 -0.0213637 255 0 0
-0.0819481 0.1037475 -0.0213676 255 0 0
-0.0796605 0.1037457 -0.0213704 255 0 0
-0.0773728 0.1037444 -0.0213732 255 0 0
-0.0750845 0.1037426 -0.0213769 255 0 0
-0.0727960 0.1037407 -0.0213807 255 0 0
-0.0705110 0.1037396 -0.0213797 255 0 0
-0.0683507 0.1037404 -0.0213776 255 0 0
-0.0659334 0.1037417 -0.0213758 255 0 0
-0.0636456 0.1037442 -0.0213735 255 0 0
-0.0613596 0.1037463 -0.0213696 255 0 0
-0.0590718 0.1037479 -0.0213684 255 0 0
-0.0567840 0.1037492 -0.0213695 255 0 0
-0.0544941 0.1037506 -0.0213723 255 0 0
-0.0521611 0.1037521 -0.0213769 255 0 0
-0.0499148 0.1037567 -0.0213829 255 0 0
-0.0476277 0.1037616 -0.0213885 255 0 0
-0.0453730 0.1037675 -0.0213840 255 0 0
-0.0431190 0.1037732 -0.0213817 255 0 0
-0.0407680 0.1037786 -0.0213797 255 0 0
-0.0384787 0.1037846 -0.0213805 255 0 0
-0.0361934 0.1037878 -0.0213834 255 0 0
-0.0338640 0.1037910 -0.0213875 255 0 0
-0.0315591 0.1037912 -0.0213916 255 0 0
-0.0292966 0.1037899 -0.0213869 255 0 0
-0.0269846 0.1037879 -0.0213721 255 0 0
-0.0248101 0.1037859 -0.0214056 255 0 0
-0.0225786 0.1037834 -0.0214266 255 0 0
-0.0202090 0.1037832 -0.0214097 255 0 0
-0.0178782 0.1037826 -0.0214002 255 0 0
-0.0155859 0.1037809 -0.0214040 255 0 0
-0.0132990 0.1037795 -0.0214089 255 0 0
-0.0110067 0.1037785 -0.0214139 255 0 0
-0.0087122 0.1037776 -0.0214195 255 0 0
-0.0064197 0.1037765 -0.0214266 255 0 0
-0.0041345 0.1037751 -0.0214341 255 0 0
-0.0018457 0.1037741 -0.0214401 255 0 0
0.0003984 0.1037701 -0.0214460 255 0 0
0.0026646 0.1037668 -0.0214482 255 0 0
0.0049820 0.1037673 -0.0214444 255 0 0
0.0072847 0.1037670 -0.0214385 255 0 0
0.0095730 0.1037652 -0.0214320 255 0 0
0.0118638 0.1037717 -0.0214181 255 0 0
0.0141701 0.1038022 -0.0213957 255 0 0
0.0165273 0.1038240 -0.0213747 255 0 0
0.0189437 0.1040511 -0.0213113 255 0 0
-0.0958175 0.1060985 -0.0213243 255 0 0
-0.0933867 0.1060682 -0.0213067 255 0 0
-0.0911801 0.1060609 -0.0213376 255 0 0
-0.0889143 0.1060528 -0.0213564 255 0 0
-0.0865234 0.1060501 -0.0213579 255 0 0
-0.0842359 0.1060472 -0.0213581 255 0 0
-0.0819483 0.1060442 -0.0213626 255 0 0
-0.0796605 0.1060415 -0.0213653 255 0 0
-0.0773728 0.1060397 -0.0213676 255 0 0
-0.0750849 0.1060371 -0.0213710 255 0 0
-0.0727968 0.1060357 -0.0213742 255 0 0
-0.0705097 0.1060334 -0.0213744 255 0 0
-0.0683533 0.1060334 -0.0213728 255 0 0
-0.0659334 0.1060349 -0.0213709 255 0 0
-0.0636456 0.1060375 -0.0213683 255 0 0
-0.0613596 0.1060392 -0.0213648 255 0 0
-0.0590718 0.1060418 -0.0213637 255 0 0
-0.0567839 0.1060433 -0.0213652 255 0 0
-0.0544959 0.1060437 -0.0213679 255 0 0
-0.0521589 0.1060443 -0.0213721 255 0 0
-0.0499137 0.1060464 -0.0213766 255 0 0
-0.0476264 0.1060489 -0.0213807 255 0 0
-0.0453741 0.1060516 -0.0213739 255 0 0
-0.0431203 0.1060545 -0.0213730 255 0 0
-0.0407682 0.1060615 -0.0213714 255 0 0
-0.0384766 0.1060684 -0.0213724 255 0 0
-0.0361904 0.1060761 -0.0213766 255 0 0
-0.0338614 0.1060791 -0.0213823 255 0 0
-0.0315584 0.1060800 -0.0213869 255 0 0
-0.0292950 0.1060795 -0.0213811 255 0 0
-0.0269839 0.1060793 -0.0213627 255 0 0
