ply
format ascii 1.0
element vertex 1197
property float x
property float y
property float z
property uchar red
property uchar green
property uchar blue
end_header
-0.0544951 0.1223763 -0.0354166 255 0 0
-0.0522070 0.1223778 -0.0354167 255 0 0
-0.0499194 0.1223819 -0.0354166 255 0 0
-0.0476316 0.1223811 -0.0354167 255 0 0
-0.0453520 0.1223808 -0.0354167 255 0 0
-0.0430747 0.1223823 -0.0354167 255 0 0
-0.0407698 0.1223833 -0.0354166 255 0 0
-0.0384808 0.1223796 -0.0354166 255 0 0
-0.0361925 0.1223771 -0.0354167 255 0 0
-0.0339032 0.1223726 -0.0354167 255 0 0
-0.0316014 0.1223697 -0.0354167 255 0 0
-0.0293094 0.1223657 -0.0354166 255 0 0
-0.0270133 0.1223644 -0.0354167 255 0 0
-0.0247587 0.1223679 -0.0354166 255 0 0
-0.0224905 0.1223754 -0.0354167 255 0 0
-0.0201798 0.1223797 -0.0354167 255 0 0
-0.0178847 0.1223802 -0.0354167 255 0 0
-0.0155908 0.1223800 -0.0354167 255 0 0
-0.0132956 0.1223755 -0.0354167 255 0 0
-0.0110033 0.1223748 -0.0354167 255 0 0
-0.0087092 0.1223650 -0.0354167 255 0 0
-0.0064182 0.1223552 -0.0354167 255 0 0
-0.0041333 0.1223321 -0.0354167 255 0 0
-0.0018385 0.1223150 -0.0354167 255 0 0
-0.0773754 0.1245694 -0.0354184 255 0 0
-0.0750878 0.1246002 -0.0354167 255 0 0
-0.0727998 0.1246373 -0.0354167 255 0 0
-0.0705125 0.1246655 -0.0354167 255 0 0
-0.0682419 0.1246898 -0.0354167 255 0 0
-0.0659360 0.1247000 -0.0354167 255 0 0
-0.0636481 0.1247035 -0.0354167 255 0 0
-0.0613593 0.1247119 -0.0354167 255 0 0
-0.0590711 0.1247233 -0.0354167 255 0 0
-0.0567829 0.1247198 -0.0354167 255 0 0
-0.0544949 0.1247167 -0.0354167 255 0 0
-0.0522068 0.1247171 -0.0354160 255 0 0
-0.0499194 0.1247174 -0.0354113 255 0 0
-0.0476315 0.1247166 -0.0353985 255 0 0
-0.0453456 0.1247131 -0.0353961 255 0 0
-0.0430707 0.1247110 -0.0353934 255 0 0
-0.0407688 0.1247093 -0.0353942 255 0 0
-0.0384805 0.1247061 -0.0353931 255 0 0
-0.0361922 0.1246994 -0.0353947 255 0 0
-0.0339029 0.1246912 -0.0353967 255 0 0
-0.0316050 0.1246848 -0.0353983 255 0 0
-0.0293111 0.1246828 -0.0353998 255 0 0
-0.0270164 0.1246897 -0.0354104 255 0 0
-0.0247531 0.1247068 -0.0354127 255 0 0
-0.0224726 0.1247211 -0.0354138 255 0 0
-0.0201787 0.1247302 -0.0354140 255 0 0
-0.0178864 0.1247302 -0.0354166 255 0 0
-0.0155949 0.1247216 -0.0354167 255 0 0
-0.0133031 0.1247143 -0.0354167 255 0 0
-0.0110066 0.1247060 -0.0354167 255 0 0
-0.0087129 0.1246914 -0.0354167 255 0 0
-0.0064219 0.1246669 -0.0354167 255 0 0
-0.0041356 0.1246433 -0.0354305 255 0 0
-0.0773862 0.1268292 -0.0354167 255 0 0
-0.0750963 0.1268865 -0.0354167 255 0 0
-0.0727999 0.1269440 -0.0354168 255 0 0
-0.0705128 0.1269706 -0.0354167 255 0 0
-0.0682386 0.1270050 -0.0354167 255 0 0
-0.0659358 0.1270018 -0.0354167 255 0 0
-0.0636471 0.1270175 -0.0354167 255 0 0
-0.0613585 0.1270282 -0.0354162 255 0 0
-0.0590703 0.1270337 -0.0353972 255 0 0
-0.0567822 0.1270362 -0.0353952 255 0 0
-0.0544941 0.1270339 -0.0353940 255 0 0
-0.0522063 0.1270317 -0.0353908 255 0 0
-0.0499191 0.1270283 -0.0353708 255 0 0
-0.0476312 0.1270248 -0.0353659 255 0 0
-0.0453443 0.1270164 -0.0353581 255 0 0
-0.0430635 0.1270142 -0.0353494 255 0 0
-0.0407681 0.1270147 -0.0353496 255 0 0
-0.0384800 0.1270124 -0.0353504 255 0 0
-0.0361916 0.1270075 -0.0353525 255 0 0
-0.0339027 0.1270021 -0.0353538 255 0 0
-0.0316131 0.1269977 -0.0353556 255 0 0
-0.0293110 0.1270008 -0.0353584 255 0 0
-0.0270209 0.1270252 -0.0353630 255 0 0
-0.0247398 0.1270259 -0.0353639 255 0 0
-0.0224557 0.1270487 -0.0353668 255 0 0
-0.0201768 0.1270439 -0.0353851 255 0 0
-0.0178880 0.1270468 -0.0353912 255 0 0
-0.0156009 0.1270404 -0.0354088 255 0 0
-0.0133089 0.1270403 -0.0354136 255 0 0
-0.0110182 0.1270261 -0.0354167 255 0 0
-0.0087219 0.1270025 -0.0354167 255 0 0
-0.0064242 0.1269704 -0.0354198 255 0 0
-0.0705201 0.1292909 -0.0354167 255 0 0
-0.0682437 0.1293238 -0.0354167 255 0 0
-0.0659459 0.1293407 -0.0354167 255 0 0
-0.0636458 0.1293669 -0.0354167 255 0 0
-0.0613568 0.1293909 -0.0354167 255 0 0
-0.0590518 0.1294005 -0.0354050 255 0 0
-0.0567808 0.1294087 -0.0354006 255 0 0
-0.0544937 0.1294082 -0.0353914 255 0 0
-0.0522359 0.1293959 -0.0353840 255 0 0
-0.0499248 0.1293862 -0.0353757 255 0 0
-0.0476306 0.1293787 -0.0353485 255 0 0
-0.0453433 0.1293644 -0.0353503 255 0 0
-0.0430598 0.1293555 -0.0353428 255 0 0
-0.0407676 0.1293584 -0.0353393 255 0 0
-0.0384793 0.1293601 -0.0353382 255 0 0
-0.0361910 0.1293549 -0.0353380 255 0 0
-0.0339027 0.1293495 -0.0353381 255 0 0
-0.0316131 0.1293453 -0.0353398 255 0 0
-0.0293117 0.1293467 -0.0353507 255 0 0
-0.0270218 0.1293695 -0.0353655 255 0 0
-0.0247217 0.1293697 -0.0353592 255 0 0
-0.0224319 0.1294013 -0.0353541 255 0 0
-0.0201760 0.1293799 -0.0353714 255 0 0
-0.0179027 0.1293956 -0.0353938 255 0 0
-0.0156126 0.1293713 -0.0354027 255 0 0
-0.0133196 0.1293523 -0.0354167 255 0 0
-0.0110256 0.1293223 -0.0354167 255 0 0
-0.0613164 0.1315055 -0.0350610 255 0 0
-0.0590373 0.1318374 -0.0353068 255 0 0
-0.0567826 0.1318995 -0.0354026 255 0 0
-0.0545128 0.1318393 -0.0353453 255 0 0
-0.0522382 0.1317015 -0.0351913 255 0 0
-0.0499497 0.1316294 -0.0350814 255 0 0
-0.0476332 0.1315951 -0.0350409 255 0 0
-0.0453573 0.1314791 -0.0352818 255 0 0
-0.0430711 0.1315511 -0.0352130 255 0 0
-0.0407626 0.1315677 -0.0352242 255 0 0
-0.0384747 0.1315783 -0.0352395 255 0 0
-0.0361925 0.1316590 -0.0352814 255 0 0
-0.0338999 0.1316517 -0.0352679 255 0 0
-0.0316108 0.1315914 -0.0352520 255 0 0
-0.0292974 0.1316085 -0.0352589 255 0 0
-0.0270139 0.1316735 -0.0352764 255 0 0
-0.0246863 0.1314559 -0.0353384 255 0 0
-0.0224051 0.1321423 -0.0353153 255 0 0
-0.0201745 0.1320246 -0.0353343 255 0 0
-0.0179290 0.1315587 -0.0351997 255 0 0
-0.0156493 0.1315613 -0.0352734 255 0 0
-0.0430545 0.1341042 -0.0354677 255 0 0
-0.0407635 0.1340660 -0.0354568 255 0 0
-0.0384838 0.1340447 -0.0354476 255 0 0
-0.0361960 0.1340596 -0.0354416 255 0 0
-0.0339072 0.1340478 -0.0354222 255 0 0
-0.0316182 0.1340280 -0.0354167 255 0 0
-0.0293335 0.1340362 -0.0354155 255 0 0
-0.0270809 0.1343252 -0.0354167 255 0 0
-0.0453206 0.0389339 -0.0338579 255 0 0
-0.0545248 0.0411557 -0.0339838 255 0 0
-0.0522246 0.0411550 -0.0339672 255 0 0
-0.0499349 0.0412013 -0.0339156 255 0 0
-0.0476470 0.0412389 -0.0338572 255 0 0
-0.0453586 0.0412485 -0.0338402 255 0 0
-0.0430386 0.0412486 -0.0338347 255 0 0
-0.0407833 0.0412490 -0.0338297 255 0 0
-0.0385064 0.0412330 -0.0338490 255 0 0
-0.0362231 0.0411981 -0.0339166 255 0 0
-0.0339202 0.0411724 -0.0339498 255 0 0
-0.0316301 0.0411585 -0.0339688 255 0 0
-0.0293409 0.0411467 -0.0339838 255 0 0
-0.0270549 0.0411351 -0.0339969 255 0 0
-0.0247852 0.0411308 -0.0339972 255 0 0
-0.0224817 0.0410935 -0.0339935 255 0 0
-0.0591014 0.0435328 -0.0339167 255 0 0
-0.0568011 0.0435264 -0.0338990 255 0 0
-0.0545116 0.0435400 -0.0338783 255 0 0
-0.0522226 0.0435510 -0.0338432 255 0 0
-0.0499345 0.0435618 -0.0338052 255 0 0
-0.0476460 0.0435712 -0.0337586 255 0 0
-0.0453593 0.0435735 -0.0337373 255 0 0
-0.0430717 0.0435737 -0.0337269 255 0 0
-0.0407833 0.0435730 -0.0337254 255 0 0
-0.0384942 0.0435694 -0.0337363 255 0 0
-0.0362064 0.0435622 -0.0337649 255 0 0
-0.0339173 0.0435556 -0.0337763 255 0 0
-0.0316287 0.0435509 -0.0337837 255 0 0
-0.0293360 0.0435427 -0.0337971 255 0 0
-0.0270474 0.0435316 -0.0338156 255 0 0
-0.0247803 0.0435170 -0.0338497 255 0 0
-0.0224859 0.0434703 -0.0338709 255 0 0
-0.0201922 0.0434871 -0.0339268 255 0 0
-0.0178956 0.0434805 -0.0339456 255 0 0
-0.0636686 0.0457720 -0.0339368 255 0 0
-0.0613917 0.0457999 -0.0339034 255 0 0
-0.0591127 0.0458265 -0.0338750 255 0 0
-0.0568001 0.0458469 -0.0338514 255 0 0
-0.0545110 0.0458615 -0.0338179 255 0 0
-0.0522220 0.0458707 -0.0337922 255 0 0
-0.0499337 0.0458779 -0.0337553 255 0 0
-0.0476452 0.0458814 -0.0337301 255 0 0
-0.0453618 0.0458825 -0.0337137 255 0 0
-0.0430770 0.0458825 -0.0337016 255 0 0
-0.0407827 0.0458807 -0.0337038 255 0 0
-0.0384938 0.0458784 -0.0337060 255 0 0
-0.0362057 0.0458759 -0.0337131 255 0 0
-0.0339175 0.0458725 -0.0337170 255 0 0
-0.0316261 0.0458688 -0.0337198 255 0 0
-0.0293221 0.0458635 -0.0337296 255 0 0
-0.0270447 0.0458632 -0.0337415 255 0 0
-0.0247834 0.0458373 -0.0337842 255 0 0
-0.0224922 0.0458197 -0.0338201 255 0 0
-0.0201925 0.0457978 -0.0338742 255 0 0
-0.0178809 0.0457814 -0.0339062 255 0 0
-0.0155848 0.0457684 -0.0339285 255 0 0
-0.0659578 0.0480193 -0.0339678 255 0 0
-0.0636677 0.0481059 -0.0338948 255 0 0
-0.0614015 0.0481191 -0.0338330 255 0 0
-0.0591270 0.0481470 -0.0337862 255 0 0
-0.0568106 0.0481632 -0.0337636 255 0 0
-0.0545109 0.0481749 -0.0337440 255 0 0
-0.0522219 0.0481891 -0.0337275 255 0 0
-0.0499338 0.0482004 -0.0337135 255 0 0
-0.0476454 0.0482042 -0.0336872 255 0 0
-0.0453693 0.0482063 -0.0336752 255 0 0
-0.0430883 0.0482067 -0.0336675 255 0 0
-0.0407837 0.0482051 -0.0336675 255 0 0
-0.0384942 0.0482034 -0.0336675 255 0 0
-0.0362063 0.0482011 -0.0336692 255 0 0
-0.0339161 0.0481985 -0.0336698 255 0 0
-0.0316168 0.0481952 -0.0336697 255 0 0
-0.0293175 0.0481891 -0.0336758 255 0 0
-0.0270241 0.0481832 -0.0336843 255 0 0
-0.0247849 0.0481651 -0.0337239 255 0 0
-0.0225227 0.0481414 -0.0337606 255 0 0
-0.0201917 0.0481185 -0.0337824 255 0 0
-0.0178699 0.0481001 -0.0338184 255 0 0
-0.0155847 0.0480762 -0.0338949 255 0 0
-0.0132837 0.0480468 -0.0339295 255 0 0
-0.0705421 0.0502682 -0.0340171 255 0 0
-0.0682527 0.0503057 -0.0339762 255 0 0
-0.0659566 0.0503522 -0.0338990 255 0 0
-0.0636666 0.0503888 -0.0338379 255 0 0
-0.0613956 0.0504049 -0.0337908 255 0 0
-0.0590966 0.0504211 -0.0337560 255 0 0
-0.0567990 0.0504428 -0.0337363 255 0 0
-0.0545098 0.0504576 -0.0337209 255 0 0
-0.0522210 0.0504660 -0.0337087 255 0 0
-0.0499328 0.0504729 -0.0336975 255 0 0
-0.0476444 0.0504742 -0.0336886 255 0 0
-0.0453680 0.0504745 -0.0336797 255 0 0
-0.0430887 0.0504738 -0.0336757 255 0 0
-0.0407829 0.0504722 -0.0336756 255 0 0
-0.0384933 0.0504702 -0.0336759 255 0 0
-0.0362052 0.0504677 -0.0336762 255 0 0
-0.0339166 0.0504651 -0.0336766 255 0 0
-0.0316193 0.0504620 -0.0336773 255 0 0
-0.0293177 0.0504575 -0.0336813 255 0 0
-0.0270225 0.0504539 -0.0336868 255 0 0
-0.0247849 0.0504344 -0.0337070 255 0 0
-0.0225222 0.0504133 -0.0337345 255 0 0
-0.0201916 0.0503993 -0.0337502 255 0 0
-0.0178755 0.0503881 -0.0337853 255 0 0
-0.0155842 0.0503776 -0.0338352 255 0 0
-0.0132935 0.0503594 -0.0338878 255 0 0
-0.0109946 0.0503240 -0.0339311 255 0 0
-0.0728268 0.0526006 -0.0340306 255 0 0
-0.0705402 0.0526390 -0.0339600 255 0 0
-0.0682516 0.0526641 -0.0338943 255 0 0
-0.0659579 0.0526768 -0.0338319 255 0 0
-0.0636649 0.0526678 -0.0337780 255 0 0
-0.0613872 0.0527015 -0.0337542 255 0 0
-0.0590876 0.0527329 -0.0337270 255 0 0
-0.0567988 0.0527424 -0.0337115 255 0 0
-0.0545094 0.0527491 -0.0336993 255 0 0
-0.0522209 0.0527535 -0.0336915 255 0 0
-0.0499330 0.0527558 -0.0336839 255 0 0
-0.0476449 0.0527581 -0.0336786 255 0 0
-0.0453668 0.0527593 -0.0336654 255 0 0
-0.0430892 0.0527600 -0.0336612 255 0 0
-0.0407835 0.0527589 -0.0336605 255 0 0
-0.0384939 0.0527571 -0.0336604 255 0 0
-0.0362060 0.0527546 -0.0336612 255 0 0
-0.0339169 0.0527517 -0.0336615 255 0 0
-0.0316207 0.0527486 -0.0336629 255 0 0
-0.0293176 0.0527437 -0.0336703 255 0 0
-0.0270222 0.0527415 -0.0336753 255 0 0
-0.0247851 0.0527227 -0.0336923 255 0 0
-0.0225217 0.0527013 -0.0337076 255 0 0
-0.0201915 0.0526965 -0.0337191 255 0 0
-0.0178786 0.0526857 -0.0337428 255 0 0
-0.0155856 0.0526668 -0.0337842 255 0 0
-0.0132968 0.0526619 -0.0338419 255 0 0
-0.0110079 0.0526481 -0.0339134 255 0 0
-0.0087040 0.0526048 -0.0339642 255 0 0
-0.0728180 0.0549269 -0.0339486 255 0 0
-0.0705354 0.0549479 -0.0338666 255 0 0
-0.0682530 0.0549710 -0.0337969 255 0 0
-0.0659594 0.0550046 -0.0337538 255 0 0
-0.0636649 0.0550353 -0.0337118 255 0 0
-0.0613882 0.0550650 -0.0336899 255 0 0
-0.0590872 0.0550836 -0.0336744 255 0 0
-0.0567981 0.0550928 -0.0336653 255 0 0
-0.0545089 0.0550972 -0.0336576 255 0 0
-0.0522202 0.0550984 -0.0336416 255 0 0
-0.0499322 0.0551087 -0.0336304 255 0 0
-0.0476439 0.0551123 -0.0336244 255 0 0
-0.0453660 0.0551121 -0.0336210 255 0 0
-0.0430882 0.0551144 -0.0336192 255 0 0
-0.0407828 0.0551131 -0.0336186 255 0 0
-0.0384934 0.0551112 -0.0336185 255 0 0
-0.0362054 0.0551086 -0.0336191 255 0 0
-0.0339164 0.0551059 -0.0336194 255 0 0
-0.0316192 0.0551026 -0.0336198 255 0 0
-0.0293171 0.0550962 -0.0336241 255 0 0
-0.0270227 0.0550894 -0.0336335 255 0 0
-0.0247857 0.0550722 -0.0336528 255 0 0
-0.0225206 0.0550555 -0.0336615 255 0 0
-0.0201924 0.0550524 -0.0336714 255 0 0
-0.0178786 0.0550446 -0.0336908 255 0 0
-0.0155872 0.0550319 -0.0337168 255 0 0
-0.0132954 0.0550032 -0.0337691 255 0 0
-0.0110012 0.0549665 -0.0338245 255 0 0
-0.0087093 0.0549427 -0.0338863 255 0 0
-0.0064222 0.0549231 -0.0339440 255 0 0
-0.0751156 0.0572018 -0.0339447 255 0 0
-0.0728172 0.0572602 -0.0338869 255 0 0
-0.0705341 0.0572888 -0.0338036 255 0 0
-0.0682528 0.0573118 -0.0337420 255 0 0
-0.0659592 0.0573283 -0.0337110 255 0 0
-0.0636644 0.0573683 -0.0336859 255 0 0
-0.0613851 0.0573992 -0.0336688 255 0 0
-0.0590873 0.0574168 -0.0336566 255 0 0
-0.0567980 0.0574255 -0.0336483 255 0 0
-0.0545090 0.0574309 -0.0336420 255 0 0
-0.0522204 0.0574334 -0.0336362 255 0 0
-0.0499324 0.0574359 -0.0336311 255 0 0
-0.0476440 0.0574392 -0.0336274 255 0 0
-0.0453653 0.0574438 -0.0336255 255 0 0
-0.0430871 0.0574443 -0.0336129 255 0 0
-0.0407835 0.0574431 -0.0336112 255 0 0
-0.0384936 0.0574410 -0.0336113 255 0 0
-0.0362056 0.0574385 -0.0336133 255 0 0
-0.0339165 0.0574358 -0.0336145 255 0 0
-0.0316194 0.0574327 -0.0336248 255 0 0
-0.0293162 0.0574290 -0.0336281 255 0 0
-0.0270225 0.0574248 -0.0336338 255 0 0
-0.0247855 0.0574073 -0.0336373 255 0 0
-0.0225204 0.0573950 -0.0336444 255 0 0
-0.0201925 0.0573912 -0.0336541 255 0 0
-0.0178786 0.0573822 -0.0336733 255 0 0
-0.0155876 0.0573652 -0.0336955 255 0 0
-0.0132948 0.0573308 -0.0337291 255 0 0
-0.0109991 0.0573205 -0.0337769 255 0 0
-0.0087097 0.0573009 -0.0338401 255 0 0
-0.0064261 0.0572697 -0.0339173 255 0 0
-0.0041260 0.0572544 -0.0339825 255 0 0
-0.0773981 0.0595309 -0.0339388 255 0 0
-0.0751072 0.0595496 -0.0338845 255 0 0
-0.0728500 0.0595744 -0.0338137 255 0 0
-0.0705369 0.0596048 -0.0337509 255 0 0
-0.0682518 0.0596337 -0.0336947 255 0 0
-0.0659590 0.0596532 -0.0336821 255 0 0
-0.0636637 0.0596691 -0.0336663 255 0 0
-0.0613759 0.0596907 -0.0336490 255 0 0
-0.0590865 0.0597041 -0.0336362 255 0 0
-0.0567978 0.0597093 -0.0336283 255 0 0
-0.0545090 0.0597123 -0.0336219 255 0 0
-0.0522195 0.0597207 -0.0336156 255 0 0
-0.0499317 0.0597245 -0.0336097 255 0 0
-0.0476434 0.0597254 -0.0336048 255 0 0
-0.0453632 0.0597239 -0.0336026 255 0 0
-0.0430851 0.0597231 -0.0336014 255 0 0
-0.0407834 0.0597215 -0.0336009 255 0 0
-0.0384929 0.0597201 -0.0336008 255 0 0
-0.0362046 0.0597196 -0.0336011 255 0 0
-0.0339157 0.0597173 -0.0336009 255 0 0
-0.0316204 0.0597141 -0.0336008 255 0 0
-0.0293180 0.0597077 -0.0336036 255 0 0
-0.0270228 0.0597042 -0.0336115 255 0 0
-0.0247852 0.0596954 -0.0336125 255 0 0
-0.0225208 0.0596805 -0.0336194 255 0 0
-0.0201932 0.0596735 -0.0336303 255 0 0
-0.0178786 0.0596671 -0.0336455 255 0 0
-0.0155883 0.0596595 -0.0336679 255 0 0
-0.0132941 0.0596511 -0.0336992 255 0 0
-0.0109958 0.0596378 -0.0337291 255 0 0
-0.0087011 0.0596090 -0.0337824 255 0 0
-0.0064170 0.0595813 -0.0338488 255 0 0
-0.0041342 0.0595756 -0.0339360 255 0 0
-0.0017810 0.0595491 -0.0340334 255 0 0
-0.0796949 0.0618520 -0.0339796 255 0 0
-0.0773954 0.0618755 -0.0339150 255 0 0
-0.0751056 0.0618950 -0.0338494 255 0 0
-0.0728756 0.0619045 -0.0337846 255 0 0
-0.0705375 0.0619260 -0.0337334 255 0 0
-0.0682509 0.0619470 -0.0336978 255 0 0
-0.0659548 0.0619602 -0.0336906 255 0 0
-0.0636625 0.0619769 -0.0336837 255 0 0
-0.0613751 0.0619964 -0.0336718 255 0 0
-0.0590860 0.0620103 -0.0336618 255 0 0
-0.0567968 0.0620163 -0.0336551 255 0 0
-0.0545079 0.0620216 -0.0336479 255 0 0
-0.0522194 0.0620279 -0.0336410 255 0 0
-0.0499314 0.0620321 -0.0336345 255 0 0
-0.0476433 0.0620351 -0.0336293 255 0 0
-0.0453636 0.0620374 -0.0336268 255 0 0
-0.0430837 0.0620368 -0.0336251 255 0 0
-0.0407834 0.0620356 -0.0336248 255 0 0
-0.0384926 0.0620338 -0.0336247 255 0 0
-0.0362043 0.0620316 -0.0336251 255 0 0
-0.0339137 0.0620295 -0.0336253 255 0 0
-0.0316185 0.0620274 -0.0336257 255 0 0
-0.0293177 0.0620239 -0.0336293 255 0 0
-0.0270219 0.0620161 -0.0336371 255 0 0
-0.0247855 0.0620066 -0.0336400 255 0 0
-0.0225229 0.0619936 -0.0336472 255 0 0
-0.0201931 0.0619877 -0.0336564 255 0 0
-0.0178781 0.0619831 -0.0336696 255 0 0
-0.0155890 0.0619717 -0.0336899 255 0 0
-0.0132948 0.0619588 -0.0337096 255 0 0
-0.0109969 0.0619499 -0.0337321 255 0 0
-0.0086974 0.0619348 -0.0337728 255 0 0
-0.0064095 0.0619049 -0.0338353 255 0 0
-0.0041358 0.0618591 -0.0339446 255 0 0
-0.0018214 0.0617808 -0.0341311 255 0 0
-0.0819377 0.0642281 -0.0341301 255 0 0
-0.0796871 0.0642215 -0.0340496 255 0 0
-0.0773959 0.0642452 -0.0339526 255 0 0
-0.0751090 0.0642629 -0.0338827 255 0 0
-0.0728731 0.0642780 -0.0338335 255 0 0
-0.0705391 0.0642942 -0.0338050 255 0 0
-0.0682533 0.0643093 -0.0337827 255 0 0
-0.0659540 0.0643219 -0.0337740 255 0 0
-0.0636617 0.0643331 -0.0337698 255 0 0
-0.0613739 0.0643465 -0.0337671 255 0 0
-0.0590854 0.0643566 -0.0337642 255 0 0
-0.0567968 0.0643607 -0.0337606 255 0 0
-0.0545075 0.0643627 -0.0337577 255 0 0
-0.0522188 0.0643631 -0.0337540 255 0 0
-0.0499312 0.0643632 -0.0337483 255 0 0
-0.0476431 0.0643644 -0.0337432 255 0 0
-0.0453636 0.0643654 -0.0337291 255 0 0
-0.0430826 0.0643650 -0.0337265 255 0 0
-0.0407827 0.0643650 -0.0337269 255 0 0
-0.0384929 0.0643638 -0.0337277 255 0 0
-0.0362045 0.0643625 -0.0337288 255 0 0
-0.0339131 0.0643609 -0.0337310 255 0 0
-0.0316134 0.0643591 -0.0337439 255 0 0
-0.0293136 0.0643565 -0.0337492 255 0 0
-0.0270185 0.0643544 -0.0337562 255 0 0
-0.0247870 0.0643493 -0.0337628 255 0 0
-0.0225276 0.0643450 -0.0337692 255 0 0
-0.0201924 0.0643449 -0.0337759 255 0 0
-0.0178770 0.0643448 -0.0337865 255 0 0
-0.0155882 0.0643435 -0.0337982 255 0 0
-0.0132966 0.0643382 -0.0338217 255 0 0
-0.0109975 0.0643369 -0.0338404 255 0 0
-0.0086971 0.0643275 -0.0338738 255 0 0
-0.0064076 0.0643108 -0.0339347 255 0 0
-0.0041311 0.0642484 -0.0340622 255 0 0
-0.0018250 0.0642194 -0.0341736 255 0 0
0.0002444 0.0642815 -0.0340734 255 0 0
-0.0819857 0.0666608 -0.0342436 255 0 0
-0.0796845 0.0666709 -0.0341394 255 0 0
-0.0773956 0.0666867 -0.0340498 255 0 0
-0.0751058 0.0666972 -0.0339903 255 0 0
-0.0728216 0.0667028 -0.0339602 255 0 0
-0.0705419 0.0667199 -0.0339414 255 0 0
-0.0682614 0.0667306 -0.0339130 255 0 0
-0.0659523 0.0667416 -0.0339125 255 0 0
-0.0636616 0.0667514 -0.0339120 255 0 0
-0.0613731 0.0667643 -0.0339122 255 0 0
-0.0590842 0.0667701 -0.0339122 255 0 0
-0.0567954 0.0667730 -0.0339103 255 0 0
-0.0545067 0.0667752 -0.0339076 255 0 0
-0.0522174 0.0667761 -0.0339031 255 0 0
-0.0499298 0.0667770 -0.0338863 255 0 0
-0.0476417 0.0667452 -0.0338791 255 0 0
-0.0453648 0.0667421 -0.0338734 255 0 0
-0.0430897 0.0667420 -0.0338707 255 0 0
-0.0407821 0.0667423 -0.0338724 255 0 0
-0.0384918 0.0667419 -0.0338738 255 0 0
-0.0362034 0.0667399 -0.0338756 255 0 0
-0.0339119 0.0667379 -0.0338772 255 0 0
-0.0315994 0.0667352 -0.0338799 255 0 0
-0.0293115 0.0667315 -0.0338879 255 0 0
-0.0270122 0.0667285 -0.0339101 255 0 0
-0.0247891 0.0667281 -0.0339163 255 0 0
-0.0225379 0.0667268 -0.0339212 255 0 0
-0.0201955 0.0667240 -0.0339275 255 0 0
-0.0178788 0.0667226 -0.0339376 255 0 0
-0.0155882 0.0667238 -0.0339495 255 0 0
-0.0132974 0.0667227 -0.0339748 255 0 0
-0.0109975 0.0667135 -0.0339900 255 0 0
-0.0087031 0.0666981 -0.0340129 255 0 0
-0.0064075 0.0666844 -0.0340631 255 0 0
-0.0041252 0.0666679 -0.0341606 255 0 0
-0.0018099 0.0667132 -0.0342075 255 0 0
0.0003352 0.0665566 -0.0344211 255 0 0
-0.0842846 0.0691497 -0.0344302 255 0 0
-0.0819891 0.0691240 -0.0342824 255 0 0
-0.0796855 0.0691200 -0.0341677 255 0 0
-0.0773952 0.0691186 -0.0340841 255 0 0
-0.0751043 0.0690805 -0.0340457 255 0 0
-0.0728125 0.0690808 -0.0340171 255 0 0
-0.0705458 0.0690816 -0.0339967 255 0 0
-0.0682730 0.0690845 -0.0339674 255 0 0
-0.0659540 0.0690900 -0.0339654 255 0 0
-0.0636614 0.0690947 -0.0339646 255 0 0
-0.0613731 0.0691004 -0.0339655 255 0 0
-0.0590841 0.0691033 -0.0339641 255 0 0
-0.0567953 0.0691050 -0.0339616 255 0 0
-0.0545065 0.0691059 -0.0339582 255 0 0
-0.0522161 0.0691065 -0.0339549 255 0 0
-0.0499288 0.0691076 -0.0339414 255 0 0
-0.0476387 0.0691086 -0.0339292 255 0 0
-0.0453698 0.0691111 -0.0339210 255 0 0
-0.0430995 0.0691119 -0.0339186 255 0 0
-0.0407828 0.0691127 -0.0339192 255 0 0
-0.0384917 0.0691130 -0.0339203 255 0 0
-0.0362034 0.0691132 -0.0339225 255 0 0
-0.0339069 0.0691132 -0.0339254 255 0 0
-0.0315864 0.0691127 -0.0339306 255 0 0
-0.0293097 0.0691110 -0.0339462 255 0 0
-0.0270018 0.0691105 -0.0339615 255 0 0
-0.0247946 0.0691086 -0.0339678 255 0 0
-0.0225505 0.0691077 -0.0339768 255 0 0
-0.0202016 0.0691082 -0.0339839 255 0 0
-0.0178784 0.0691092 -0.0339972 255 0 0
-0.0155881 0.0691083 -0.0340171 255 0 0
-0.0132961 0.0691070 -0.0340309 255 0 0
-0.0110041 0.0691075 -0.0340452 255 0 0
-0.0087044 0.0691053 -0.0340764 255 0 0
-0.0064085 0.0691044 -0.0341075 255 0 0
-0.0041156 0.0691350 -0.0341885 255 0 0
-0.0017953 0.0691669 -0.0342043 255 0 0
0.0003996 0.0690776 -0.0344992 255 0 0
0.0026938 0.0690232 -0.0345979 255 0 0
-0.0842783 0.0714566 -0.0345020 255 0 0
-0.0819943 0.0714615 -0.0343532 255 0 0
-0.0796848 0.0714626 -0.0342504 255 0 0
-0.0773942 0.0714650 -0.0341924 255 0 0
-0.0751029 0.0714697 -0.0341581 255 0 0
-0.0728112 0.0714722 -0.0341308 255 0 0
-0.0705550 0.0714828 -0.0341077 255 0 0
-0.0683182 0.0714984 -0.0340910 255 0 0
-0.0659611 0.0714989 -0.0340883 255 0 0
-0.0636608 0.0715032 -0.0340858 255 0 0
-0.0613717 0.0715107 -0.0340792 255 0 0
-0.0590827 0.0715156 -0.0340698 255 0 0
-0.0567937 0.0715170 -0.0340598 255 0 0
-0.0545041 0.0715178 -0.0340524 255 0 0
-0.0522057 0.0715169 -0.0340449 255 0 0
-0.0499244 0.0715155 -0.0340384 255 0 0
-0.0476352 0.0715134 -0.0340329 255 0 0
-0.0454002 0.0715063 -0.0340199 255 0 0
-0.0431214 0.0715029 -0.0340126 255 0 0
-0.0407831 0.0715117 -0.0340141 255 0 0
-0.0384899 0.0715140 -0.0340169 255 0 0
-0.0362009 0.0715107 -0.0340204 255 0 0
-0.0338721 0.0715090 -0.0340237 255 0 0
-0.0315778 0.0715072 -0.0340338 255 0 0
-0.0292926 0.0714983 -0.0340412 255 0 0
-0.0269898 0.0714955 -0.0340505 255 0 0
-0.0247980 0.0715005 -0.0340641 255 0 0
-0.0225662 0.0715061 -0.0340805 255 0 0
-0.0202048 0.0715016 -0.0340874 255 0 0
-0.0178795 0.0714957 -0.0340990 255 0 0
-0.0155865 0.0714952 -0.0341157 255 0 0
-0.0132944 0.0714931 -0.0341286 255 0 0
-0.0109955 0.0714895 -0.0341429 255 0 0
-0.0087009 0.0714876 -0.0341627 255 0 0
-0.0064021 0.0714863 -0.0341900 255 0 0
-0.0041075 0.0714886 -0.0342380 255 0 0
-0.0017795 0.0714964 -0.0342662 255 0 0
0.0004003 0.0714341 -0.0345053 255 0 0
0.0026735 0.0713939 -0.0346453 255 0 0
-0.0866217 0.0737918 -0.0346845 255 0 0
-0.0842757 0.0738142 -0.0345186 255 0 0
-0.0820097 0.0738255 -0.0343799 255 0 0
-0.0796868 0.0738269 -0.0342877 255 0 0
-0.0773924 0.0738275 -0.0342369 255 0 0
-0.0751021 0.0738269 -0.0342048 255 0 0
-0.0728071 0.0738265 -0.0341764 255 0 0
-0.0705710 0.0738316 -0.0341510 255 0 0
-0.0683351 0.0738368 -0.0341322 255 0 0
-0.0659686 0.0738404 -0.0341240 255 0 0
-0.0636591 0.0738443 -0.0341168 255 0 0
-0.0613714 0.0738509 -0.0341092 255 0 0
-0.0590826 0.0738550 -0.0341002 255 0 0
-0.0567937 0.0738579 -0.0340909 255 0 0
-0.0545018 0.0738593 -0.0340819 255 0 0
-0.0522027 0.0738605 -0.0340702 255 0 0
-0.0499185 0.0738601 -0.0340587 255 0 0
-0.0476298 0.0738587 -0.0340514 255 0 0
-0.0454032 0.0738620 -0.0340452 255 0 0
-0.0431251 0.0738632 -0.0340420 255 0 0
-0.0407942 0.0738634 -0.0340441 255 0 0
-0.0384896 0.0738629 -0.0340459 255 0 0
-0.0362003 0.0738625 -0.0340477 255 0 0
-0.0338695 0.0738623 -0.0340508 255 0 0
-0.0315768 0.0738624 -0.0340563 255 0 0
-0.0292877 0.0738616 -0.0340654 255 0 0
-0.0269787 0.0738615 -0.0340748 255 0 0
-0.0248005 0.0738597 -0.0341016 255 0 0
-0.0225746 0.0738583 -0.0341166 255 0 0
-0.0202089 0.0738560 -0.0341254 255 0 0
-0.0178781 0.0738548 -0.0341354 255 0 0
-0.0155849 0.0738556 -0.0341516 255 0 0
-0.0132885 0.0738552 -0.0341697 255 0 0
-0.0109946 0.0738521 -0.0341853 255 0 0
-0.0086968 0.0738515 -0.0342044 255 0 0
-0.0063985 0.0738510 -0.0342291 255 0 0
-0.0041042 0.0738521 -0.0342666 255 0 0
-0.0017780 0.0738493 -0.0343079 255 0 0
0.0004084 0.0738104 -0.0345118 255 0 0
0.0026743 0.0738077 -0.0346403 255 0 0
0.0051697 0.0737166 -0.0347265 255 0 0
-0.0866347 0.0760771 -0.0345743 255 0 0
-0.0843198 0.0760867 -0.0344219 255 0 0
-0.0820156 0.0760958 -0.0343256 255 0 0
-0.0796823 0.0761023 -0.0342578 255 0 0
-0.0773916 0.0761063 -0.0342176 255 0 0
-0.0751016 0.0761120 -0.0341887 255 0 0
-0.0728061 0.0761186 -0.0341655 255 0 0
-0.0705711 0.0761270 -0.0341368 255 0 0
-0.0683425 0.0761318 -0.0341163 255 0 0
-0.0659723 0.0761364 -0.0341132 255 0 0
-0.0636604 0.0761425 -0.0341035 255 0 0
-0.0613710 0.0761510 -0.0340940 255 0 0
-0.0590818 0.0761586 -0.0340836 255 0 0
-0.0567928 0.0761634 -0.0340758 255 0 0
-0.0544957 0.0761655 -0.0340672 255 0 0
-0.0522032 0.0761656 -0.0340599 255 0 0
-0.0499176 0.0761643 -0.0340481 255 0 0
-0.0476300 0.0761625 -0.0340362 255 0 0
-0.0454030 0.0761620 -0.0340284 255 0 0
-0.0431283 0.0761607 -0.0340242 255 0 0
-0.0407980 0.0761585 -0.0340261 255 0 0
-0.0384895 0.0761568 -0.0340283 255 0 0
-0.0361989 0.0761560 -0.0340309 255 0 0
-0.0338691 0.0761551 -0.0340347 255 0 0
-0.0315758 0.0761539 -0.0340412 255 0 0
-0.0292866 0.0761524 -0.0340549 255 0 0
-0.0269770 0.0761515 -0.0340639 255 0 0
-0.0248024 0.0761478 -0.0340817 255 0 0
-0.0225808 0.0761452 -0.0340987 255 0 0
-0.0202155 0.0761440 -0.0341088 255 0 0
-0.0178789 0.0761421 -0.0341227 255 0 0
-0.0155841 0.0761398 -0.0341386 255 0 0
-0.0132885 0.0761382 -0.0341520 255 0 0
-0.0109949 0.0761365 -0.0341673 255 0 0
-0.0086976 0.0761345 -0.0341903 255 0 0
-0.0063995 0.0761319 -0.0342106 255 0 0
-0.0041073 0.0761267 -0.0342445 255 0 0
-0.0017953 0.0761222 -0.0342890 255 0 0
0.0004267 0.0760848 -0.0344384 255 0 0
0.0027053 0.0761177 -0.0345511 255 0 0
0.0051184 0.0761133 -0.0346724 255 0 0
-0.0889078 0.0784371 -0.0347090 255 0 0
-0.0866434 0.0784433 -0.0345080 255 0 0
-0.0843559 0.0784372 -0.0343629 255 0 0
-0.0820158 0.0784323 -0.0342946 255 0 0
-0.0796817 0.0784357 -0.0342455 255 0 0
-0.0773914 0.0784505 -0.0342124 255 0 0
-0.0751007 0.0784661 -0.0341851 255 0 0
-0.0728018 0.0784773 -0.0341671 255 0 0
-0.0705699 0.0784820 -0.0341436 255 0 0
-0.0683464 0.0784842 -0.0341151 255 0 0
-0.0659728 0.0784890 -0.0341089 255 0 0
-0.0636593 0.0784934 -0.0341021 255 0 0
-0.0613710 0.0784983 -0.0340953 255 0 0
-0.0590822 0.0785022 -0.0340836 255 0 0
-0.0567931 0.0785067 -0.0340713 255 0 0
-0.0544956 0.0785113 -0.0340616 255 0 0
-0.0522018 0.0785141 -0.0340522 255 0 0
-0.0499171 0.0785182 -0.0340444 255 0 0
-0.0476294 0.0785175 -0.0340367 255 0 0
-0.0454037 0.0785160 -0.0340218 255 0 0
-0.0431296 0.0785138 -0.0340172 255 0 0
-0.0407993 0.0785123 -0.0340191 255 0 0
-0.0384898 0.0785106 -0.0340217 255 0 0
-0.0361983 0.0785099 -0.0340286 255 0 0
-0.0338698 0.0785082 -0.0340350 255 0 0
-0.0315756 0.0785069 -0.0340388 255 0 0
-0.0292855 0.0785052 -0.0340468 255 0 0
-0.0269758 0.0785041 -0.0340565 255 0 0
-0.0248036 0.0785001 -0.0340760 255 0 0
-0.0225862 0.0785003 -0.0340973 255 0 0
-0.0202164 0.0785031 -0.0341071 255 0 0
-0.0178786 0.0785052 -0.0341187 255 0 0
-0.0155826 0.0785063 -0.0341341 255 0 0
-0.0132880 0.0785055 -0.0341526 255 0 0
-0.0109945 0.0785049 -0.0341702 255 0 0
-0.0086974 0.0784996 -0.0341862 255 0 0
-0.0063995 0.0784938 -0.0342067 255 0 0
-0.0041093 0.0784938 -0.0342372 255 0 0
-0.0018078 0.0785060 -0.0342857 255 0 0
0.0004368 0.0784816 -0.0344019 255 0 0
0.0027219 0.0784632 -0.0344991 255 0 0
0.0050824 0.0784582 -0.0346304 255 0 0
-0.0888871 0.0807556 -0.0346493 255 0 0
-0.0866406 0.0807754 -0.0344644 255 0 0
-0.0843557 0.0807943 -0.0343355 255 0 0
-0.0820166 0.0808003 -0.0342867 255 0 0
-0.0796821 0.0808045 -0.0342484 255 0 0
-0.0773906 0.0808089 -0.0342206 255 0 0
-0.0751004 0.0808095 -0.0341954 255 0 0
-0.0728018 0.0808102 -0.0341752 255 0 0
-0.0705727 0.0808112 -0.0341483 255 0 0
-0.0683462 0.0808156 -0.0341283 255 0 0
-0.0659733 0.0808225 -0.0341122 255 0 0
-0.0636605 0.0808304 -0.0341034 255 0 0
-0.0613714 0.0808407 -0.0340967 255 0 0
-0.0590824 0.0808457 -0.0340901 255 0 0
-0.0567932 0.0808488 -0.0340811 255 0 0
-0.0544956 0.0808492 -0.0340628 255 0 0
-0.0522010 0.0808487 -0.0340515 255 0 0
-0.0499165 0.0808479 -0.0340410 255 0 0
-0.0476283 0.0808476 -0.0340335 255 0 0
-0.0454034 0.0808477 -0.0340281 255 0 0
-0.0431285 0.0808466 -0.0340254 255 0 0
-0.0407997 0.0808464 -0.0340276 255 0 0
-0.0384893 0.0808457 -0.0340293 255 0 0
-0.0361979 0.0808437 -0.0340313 255 0 0
-0.0338714 0.0808426 -0.0340336 255 0 0
-0.0315751 0.0808410 -0.0340365 255 0 0
-0.0292873 0.0808397 -0.0340446 255 0 0
-0.0269768 0.0808391 -0.0340545 255 0 0
-0.0248056 0.0808342 -0.0340802 255 0 0
-0.0225867 0.0808312 -0.0340965 255 0 0
-0.0202169 0.0808311 -0.0341081 255 0 0
-0.0178790 0.0808306 -0.0341213 255 0 0
-0.0155796 0.0808294 -0.0341396 255 0 0
-0.0132876 0.0808279 -0.0341576 255 0 0
-0.0109946 0.0808276 -0.0341711 255 0 0
-0.0086975 0.0808247 -0.0341901 255 0 0
-0.0064010 0.0808207 -0.0342130 255 0 0
-0.0041121 0.0808149 -0.0342373 255 0 0
-0.0018165 0.0808112 -0.0342818 255 0 0
0.0004390 0.0807805 -0.0343708 255 0 0
0.0027265 0.0807587 -0.0344605 255 0 0
0.0050593 0.0807897 -0.0345785 255 0 0
0.0074091 0.0808020 -0.0346588 255 0 0
-0.0912868 0.0830481 -0.0347549 255 0 0
-0.0888827 0.0830668 -0.0345729 255 0 0
-0.0866440 0.0830905 -0.0344204 255 0 0
-0.0843556 0.0831093 -0.0343124 255 0 0
-0.0819976 0.0831152 -0.0342741 255 0 0
-0.0796805 0.0831206 -0.0342397 255 0 0
-0.0773901 0.0831228 -0.0342143 255 0 0
-0.0750994 0.0831231 -0.0341911 255 0 0
-0.0727984 0.0831235 -0.0341705 255 0 0
-0.0705814 0.0831255 -0.0341421 255 0 0
-0.0683470 0.0831325 -0.0341204 255 0 0
-0.0659751 0.0831413 -0.0341016 255 0 0
-0.0636591 0.0831495 -0.0340932 255 0 0
-0.0613710 0.0831605 -0.0340858 255 0 0
-0.0590819 0.0831664 -0.0340787 255 0 0
-0.0567929 0.0831668 -0.0340656 255 0 0
-0.0544950 0.0831671 -0.0340511 255 0 0
-0.0521989 0.0831682 -0.0340393 255 0 0
-0.0499155 0.0831687 -0.0340294 255 0 0
-0.0476258 0.0831682 -0.0340234 255 0 0
-0.0454038 0.0831667 -0.0340198 255 0 0
-0.0431298 0.0831664 -0.0340172 255 0 0
-0.0407991 0.0831673 -0.0340196 255 0 0
-0.0384890 0.0831664 -0.0340208 255 0 0
-0.0361972 0.0831634 -0.0340224 255 0 0
-0.0338704 0.0831615 -0.0340240 255 0 0
-0.0315748 0.0831608 -0.0340271 255 0 0
-0.0292866 0.0831587 -0.0340340 255 0 0
-0.0269764 0.0831575 -0.0340439 255 0 0
-0.0248058 0.0831513 -0.0340638 255 0 0
-0.0225877 0.0831482 -0.0340830 255 0 0
-0.0202176 0.0831475 -0.0340944 255 0 0
-0.0178790 0.0831467 -0.0341075 255 0 0
-0.0155807 0.0831459 -0.0341261 255 0 0
-0.0132877 0.0831448 -0.0341459 255 0 0
-0.0109943 0.0831418 -0.0341627 255 0 0
-0.0086978 0.0831393 -0.0341794 255 0 0
-0.0064016 0.0831368 -0.0342024 255 0 0
-0.0041138 0.0831325 -0.0342276 255 0 0
-0.0018204 0.0831279 -0.0342659 255 0 0
0.0004365 0.0830988 -0.0343321 255 0 0
0.0027227 0.0830746 -0.0344071 255 0 0
0.0050530 0.0830569 -0.0345029 255 0 0
0.0073914 0.0830842 -0.0345874 255 0 0
-0.0912614 0.0854039 -0.0346443 255 0 0
-0.0889049 0.0854022 -0.0344648 255 0 0
-0.0866463 0.0854174 -0.0343701 255 0 0
-0.0843563 0.0854227 -0.0342846 255 0 0
-0.0819805 0.0854285 -0.0342384 255 0 0
-0.0796812 0.0854330 -0.0342022 255 0 0
-0.0773897 0.0854357 -0.0341786 255 0 0
-0.0750992 0.0854453 -0.0341595 255 0 0
-0.0727937 0.0854469 -0.0341370 255 0 0
-0.0705985 0.0854502 -0.0340998 255 0 0
-0.0683503 0.0854536 -0.0340763 255 0 0
-0.0659786 0.0854653 -0.0340591 255 0 0
-0.0636603 0.0854746 -0.0340484 255 0 0
-0.0613709 0.0854845 -0.0340371 255 0 0
-0.0590818 0.0854898 -0.0340279 255 0 0
-0.0567927 0.0854906 -0.0340128 255 0 0
-0.0544931 0.0854909 -0.0339991 255 0 0
-0.0521964 0.0854910 -0.0339886 255 0 0
-0.0499127 0.0854908 -0.0339808 255 0 0
-0.0476239 0.0854897 -0.0339754 255 0 0
-0.0454039 0.0854901 -0.0339719 255 0 0
-0.0431323 0.0854896 -0.0339709 255 0 0
-0.0408000 0.0854882 -0.0339721 255 0 0
-0.0384891 0.0854868 -0.0339742 255 0 0
-0.0361968 0.0854850 -0.0339758 255 0 0
-0.0338730 0.0854846 -0.0339780 255 0 0
-0.0315739 0.0854857 -0.0339816 255 0 0
-0.0292849 0.0854853 -0.0339868 255 0 0
-0.0269758 0.0854851 -0.0339945 255 0 0
-0.0248065 0.0854798 -0.0340177 255 0 0
-0.0225911 0.0854766 -0.0340357 255 0 0
-0.0202210 0.0854760 -0.0340476 255 0 0
-0.0178846 0.0854743 -0.0340627 255 0 0
-0.0155841 0.0854716 -0.0340845 255 0 0
-0.0132874 0.0854700 -0.0341049 255 0 0
-0.0109942 0.0854693 -0.0341208 255 0 0
-0.0086977 0.0854677 -0.0341404 255 0 0
-0.0064003 0.0854648 -0.0341658 255 0 0
-0.0041145 0.0854607 -0.0341989 255 0 0
-0.0018205 0.0854554 -0.0342356 255 0 0
0.0004298 0.0854287 -0.0342850 255 0 0
0.0027108 0.0853963 -0.0343211 255 0 0
0.0050556 0.0853869 -0.0343968 255 0 0
0.0073883 0.0853762 -0.0344767 255 0 0
0.0097060 0.0853733 -0.0345814 255 0 0
-0.0912314 0.0876461 -0.0345744 255 0 0
-0.0889370 0.0876522 -0.0343909 255 0 0
-0.0866472 0.0876593 -0.0342920 255 0 0
-0.0843315 0.0876491 -0.0342213 255 0 0
-0.0819713 0.0876540 -0.0341860 255 0 0
-0.0796814 0.0876635 -0.0341594 255 0 0
-0.0773898 0.0876627 -0.0341409 255 0 0
-0.0750995 0.0876567 -0.0341239 255 0 0
-0.0727981 0.0876559 -0.0341063 255 0 0
-0.0705822 0.0876509 -0.0340714 255 0 0
-0.0683498 0.0876555 -0.0340511 255 0 0
-0.0659822 0.0876672 -0.0340448 255 0 0
-0.0636600 0.0876786 -0.0340255 255 0 0
-0.0613712 0.0876858 -0.0340185 255 0 0
-0.0590824 0.0876903 -0.0340103 255 0 0
-0.0567926 0.0876918 -0.0340036 255 0 0
-0.0544925 0.0876919 -0.0339933 255 0 0
-0.0521958 0.0876910 -0.0339773 255 0 0
-0.0499146 0.0876892 -0.0339706 255 0 0
-0.0476247 0.0876874 -0.0339674 255 0 0
-0.0454050 0.0876891 -0.0339671 255 0 0
-0.0431303 0.0876889 -0.0339674 255 0 0
-0.0408007 0.0876880 -0.0339686 255 0 0
-0.0384896 0.0876877 -0.0339694 255 0 0
-0.0361951 0.0876874 -0.0339705 255 0 0
-0.0338694 0.0876876 -0.0339706 255 0 0
-0.0315734 0.0876871 -0.0339704 255 0 0
-0.0292842 0.0876861 -0.0339717 255 0 0
-0.0269785 0.0876859 -0.0339758 255 0 0
-0.0248080 0.0876825 -0.0339810 255 0 0
-0.0225891 0.0876802 -0.0339901 255 0 0
-0.0202182 0.0876789 -0.0340114 255 0 0
-0.0178790 0.0876772 -0.0340254 255 0 0
-0.0155813 0.0876754 -0.0340390 255 0 0
-0.0132861 0.0876721 -0.0340564 255 0 0
-0.0109943 0.0876705 -0.0340773 255 0 0
-0.0086932 0.0876694 -0.0340911 255 0 0
-0.0063994 0.0876658 -0.0341099 255 0 0
-0.0041148 0.0876571 -0.0341327 255 0 0
-0.0018183 0.0876475 -0.0341654 255 0 0
0.0004249 0.0876408 -0.0342183 255 0 0
0.0026989 0.0876504 -0.0342787 255 0 0
0.0050491 0.0876403 -0.0343358 255 0 0
0.0073739 0.0876370 -0.0344195 255 0 0
0.0096648 0.0876262 -0.0345405 255 0 0
-0.0912060 0.0899185 -0.0344515 255 0 0
-0.0889448 0.0899069 -0.0342276 255 0 0
-0.0866388 0.0898764 -0.0341384 255 0 0
-0.0842940 0.0898516 -0.0340781 255 0 0
-0.0819712 0.0898531 -0.0340491 255 0 0
-0.0796810 0.0898581 -0.0340208 255 0 0
-0.0773895 0.0898618 -0.0340010 255 0 0
-0.0750996 0.0898663 -0.0339878 255 0 0
-0.0728019 0.0898691 -0.0339794 255 0 0
-0.0705736 0.0898812 -0.0339380 255 0 0
-0.0683516 0.0898893 -0.0339144 255 0 0
-0.0659886 0.0898939 -0.0339057 255 0 0
-0.0636620 0.0898971 -0.0338886 255 0 0
-0.0613741 0.0899022 -0.0338808 255 0 0
-0.0590821 0.0899051 -0.0338716 255 0 0
-0.0567927 0.0899070 -0.0338654 255 0 0
-0.0544922 0.0899077 -0.0338589 255 0 0
-0.0521938 0.0899087 -0.0338546 255 0 0
-0.0499150 0.0899034 -0.0338516 255 0 0
-0.0476276 0.0898993 -0.0338502 255 0 0
-0.0454054 0.0898760 -0.0338522 255 0 0
-0.0431310 0.0898748 -0.0338543 255 0 0
-0.0408014 0.0898798 -0.0338563 255 0 0
-0.0384897 0.0898796 -0.0338583 255 0 0
-0.0361923 0.0898783 -0.0338583 255 0 0
-0.0338735 0.0898772 -0.0338574 255 0 0
-0.0315727 0.0898739 -0.0338557 255 0 0
-0.0292865 0.0898719 -0.0338554 255 0 0
-0.0269799 0.0898736 -0.0338575 255 0 0
-0.0248079 0.0898737 -0.0338593 255 0 0
-0.0225862 0.0898741 -0.0338639 255 0 0
-0.0202163 0.0898781 -0.0338778 255 0 0
-0.0178782 0.0898834 -0.0338923 255 0 0
-0.0155786 0.0898875 -0.0339103 255 0 0
-0.0132869 0.0898916 -0.0339325 255 0 0
-0.0109937 0.0898949 -0.0339433 255 0 0
-0.0086951 0.0898966 -0.0339552 255 0 0
-0.0063992 0.0898982 -0.0339731 255 0 0
-0.0041129 0.0899000 -0.0340031 255 0 0
-0.0018170 0.0898948 -0.0340291 255 0 0
0.0004218 0.0899184 -0.0340984 255 0 0
0.0026903 0.0899506 -0.0341921 255 0 0
0.0050404 0.0899672 -0.0342648 255 0 0
0.0073582 0.0899500 -0.0343712 255 0 0
0.0096280 0.0899091 -0.0344926 255 0 0
0.0119618 0.0899078 -0.0345627 255 0 0
-0.0934603 0.0921598 -0.0347738 255 0 0
-0.0912399 0.0922236 -0.0345346 255 0 0
-0.0889679 0.0922620 -0.0343427 255 0 0
-0.0866415 0.0922566 -0.0342795 255 0 0
-0.0842693 0.0922415 -0.0342269 255 0 0
-0.0819703 0.0922376 -0.0341913 255 0 0
-0.0796813 0.0922352 -0.0341604 255 0 0
-0.0773897 0.0922313 -0.0341426 255 0 0
-0.0750999 0.0922307 -0.0341260 255 0 0
-0.0727999 0.0922313 -0.0341139 255 0 0
-0.0705968 0.0922395 -0.0340875 255 0 0
-0.0683528 0.0922452 -0.0340602 255 0 0
-0.0660107 0.0922571 -0.0340503 255 0 0
-0.0636603 0.0922663 -0.0340457 255 0 0
-0.0613712 0.0922751 -0.0340415 255 0 0
-0.0590821 0.0922820 -0.0340317 255 0 0
-0.0567929 0.0922839 -0.0340195 255 0 0
-0.0544929 0.0922836 -0.0340040 255 0 0
-0.0521928 0.0922820 -0.0339967 255 0 0
-0.0499156 0.0922816 -0.0339917 255 0 0
-0.0476281 0.0922809 -0.0339849 255 0 0
-0.0454053 0.0922833 -0.0339882 255 0 0
-0.0431305 0.0922860 -0.0339879 255 0 0
-0.0408085 0.0922873 -0.0339905 255 0 0
-0.0384894 0.0922876 -0.0339917 255 0 0
-0.0361961 0.0922875 -0.0339919 255 0 0
-0.0338744 0.0922870 -0.0339914 255 0 0
-0.0315734 0.0922854 -0.0339901 255 0 0
-0.0292877 0.0922841 -0.0339912 255 0 0
-0.0269780 0.0922830 -0.0339951 255 0 0
-0.0248120 0.0922796 -0.0339980 255 0 0
-0.0225943 0.0922765 -0.0340042 255 0 0
-0.0202209 0.0922771 -0.0340250 255 0 0
-0.0178791 0.0922768 -0.0340434 255 0 0
-0.0155811 0.0922716 -0.0340578 255 0 0
-0.0132883 0.0922702 -0.0340709 255 0 0
-0.0109919 0.0922694 -0.0340875 255 0 0
-0.0086941 0.0922679 -0.0341072 255 0 0
-0.0063970 0.0922655 -0.0341233 255 0 0
-0.0041124 0.0922606 -0.0341522 255 0 0
-0.0018170 0.0922594 -0.0341789 255 0 0
0.0004152 0.0922452 -0.0342279 255 0 0
0.0026812 0.0922532 -0.0342888 255 0 0
0.0050372 0.0922555 -0.0343152 255 0 0
0.0073606 0.0922486 -0.0343847 255 0 0
0.0096357 0.0922321 -0.0344972 255 0 0
0.0119746 0.0922123 -0.0346005 255 0 0
-0.0934795 0.0945479 -0.0348596 255 0 0
-0.0912576 0.0945942 -0.0346037 255 0 0
-0.0889891 0.0946241 -0.0344123 255 0 0
-0.0866445 0.0946298 -0.0343620 255 0 0
-0.0842603 0.0946325 -0.0343156 255 0 0
-0.0819706 0.0946306 -0.0342735 255 0 0
-0.0796804 0.0946290 -0.0342455 255 0 0
-0.0773876 0.0946257 -0.0342215 255 0 0
-0.0750974 0.0946209 -0.0342040 255 0 0
-0.0727991 0.0946172 -0.0341913 255 0 0
-0.0706026 0.0946142 -0.0341682 255 0 0
-0.0683525 0.0946193 -0.0341489 255 0 0
-0.0660176 0.0946293 -0.0341318 255 0 0
-0.0636594 0.0946352 -0.0341260 255 0 0
-0.0613710 0.0946385 -0.0341225 255 0 0
-0.0590817 0.0946402 -0.0341170 255 0 0
-0.0567921 0.0946393 -0.0341106 255 0 0
-0.0544939 0.0946362 -0.0340973 255 0 0
-0.0521902 0.0946352 -0.0340885 255 0 0
-0.0499155 0.0946352 -0.0340792 255 0 0
-0.0476273 0.0946375 -0.0340747 255 0 0
-0.0454057 0.0946362 -0.0340710 255 0 0
-0.0431315 0.0946370 -0.0340707 255 0 0
-0.0408114 0.0946371 -0.0340758 255 0 0
-0.0384900 0.0946354 -0.0340785 255 0 0
-0.0361983 0.0946341 -0.0340791 255 0 0
-0.0338725 0.0946324 -0.0340785 255 0 0
-0.0315733 0.0946312 -0.0340779 255 0 0
-0.0292871 0.0946289 -0.0340791 255 0 0
-0.0269760 0.0946293 -0.0340845 255 0 0
-0.0248131 0.0946262 -0.0340906 255 0 0
-0.0225979 0.0946257 -0.0340995 255 0 0
-0.0202232 0.0946252 -0.0341154 255 0 0
-0.0178793 0.0946263 -0.0341275 255 0 0
-0.0155819 0.0946285 -0.0341414 255 0 0
-0.0132880 0.0946337 -0.0341627 255 0 0
-0.0109898 0.0946378 -0.0341748 255 0 0
-0.0086934 0.0946430 -0.0341896 255 0 0
-0.0063955 0.0946427 -0.0342175 255 0 0
-0.0041112 0.0946516 -0.0342390 255 0 0
-0.0018163 0.0946546 -0.0342673 255 0 0
0.0004113 0.0946316 -0.0343128 255 0 0
0.0026759 0.0946044 -0.0343655 255 0 0
0.0050353 0.0945970 -0.0343806 255 0 0
0.0073630 0.0945825 -0.0344358 255 0 0
0.0096463 0.0945557 -0.0345333 255 0 0
0.0119836 0.0945243 -0.0346403 255 0 0
0.0143958 0.0944882 -0.0347540 255 0 0
-0.0934837 0.0968653 -0.0348260 255 0 0
-0.0912536 0.0968777 -0.0345497 255 0 0
-0.0889823 0.0968832 -0.0343484 255 0 0
-0.0866327 0.0968838 -0.0343012 255 0 0
-0.0842590 0.0968842 -0.0342575 255 0 0
-0.0819694 0.0968828 -0.0342197 255 0 0
-0.0796799 0.0968828 -0.0341937 255 0 0
-0.0773882 0.0968818 -0.0341755 255 0 0
-0.0750993 0.0968845 -0.0341512 255 0 0
-0.0727980 0.0968930 -0.0341375 255 0 0
-0.0706035 0.0969010 -0.0341135 255 0 0
-0.0683538 0.0969080 -0.0340921 255 0 0
-0.0660188 0.0969181 -0.0340868 255 0 0
-0.0636603 0.0969267 -0.0340790 255 0 0
-0.0613705 0.0969396 -0.0340645 255 0 0
-0.0590817 0.0969474 -0.0340565 255 0 0
-0.0567924 0.0969493 -0.0340489 255 0 0
-0.0544937 0.0969500 -0.0340410 255 0 0
-0.0521911 0.0969504 -0.0340313 255 0 0
-0.0499149 0.0969466 -0.0340207 255 0 0
-0.0476262 0.0969433 -0.0340155 255 0 0
-0.0454060 0.0969421 -0.0340134 255 0 0
-0.0431346 0.0969389 -0.0340133 255 0 0
-0.0408107 0.0969379 -0.0340162 255 0 0
-0.0384894 0.0969358 -0.0340186 255 0 0
-0.0361975 0.0969325 -0.0340192 255 0 0
-0.0338718 0.0969307 -0.0340193 255 0 0
-0.0315726 0.0969299 -0.0340195 255 0 0
-0.0292871 0.0969272 -0.0340220 255 0 0
-0.0269758 0.0969237 -0.0340261 255 0 0
-0.0248129 0.0969247 -0.0340392 255 0 0
-0.0225977 0.0969242 -0.0340469 255 0 0
-0.0202228 0.0969199 -0.0340607 255 0 0
-0.0178814 0.0969179 -0.0340773 255 0 0
-0.0155830 0.0969158 -0.0340944 255 0 0
-0.0132881 0.0969148 -0.0341074 255 0 0
-0.0109908 0.0969143 -0.0341219 255 0 0
-0.0086932 0.0969119 -0.0341465 255 0 0
-0.0063962 0.0969118 -0.0341642 255 0 0
-0.0041117 0.0969137 -0.0341864 255 0 0
-0.0018161 0.0969130 -0.0342138 255 0 0
0.0004107 0.0968888 -0.0342630 255 0 0
0.0026770 0.0968750 -0.0343085 255 0 0
0.0050335 0.0968752 -0.0343312 255 0 0
0.0073659 0.0968675 -0.0343863 255 0 0
0.0096665 0.0968534 -0.0344776 255 0 0
0.0119838 0.0968495 -0.0345701 255 0 0
0.0143354 0.0968865 -0.0346727 255 0 0
-0.0934798 0.0992422 -0.0348112 255 0 0
-0.0912516 0.0992344 -0.0345341 255 0 0
-0.0889779 0.0992347 -0.0343288 255 0 0
-0.0866370 0.0992077 -0.0342830 255 0 0
-0.0842594 0.0992082 -0.0342413 255 0 0
-0.0819698 0.0992073 -0.0342044 255 0 0
-0.0796802 0.0992066 -0.0341803 255 0 0
-0.0773885 0.0992045 -0.0341624 255 0 0
-0.0750982 0.0992088 -0.0341427 255 0 0
-0.0727981 0.0992105 -0.0341267 255 0 0
-0.0706011 0.0992141 -0.0340990 255 0 0
-0.0683523 0.0992215 -0.0340782 255 0 0
-0.0660172 0.0992290 -0.0340718 255 0 0
-0.0636598 0.0992384 -0.0340667 255 0 0
-0.0613712 0.0992523 -0.0340556 255 0 0
-0.0590821 0.0992602 -0.0340426 255 0 0
-0.0567925 0.0992615 -0.0340349 255 0 0
-0.0544947 0.0992637 -0.0340276 255 0 0
-0.0521894 0.0992647 -0.0340204 255 0 0
-0.0499139 0.0992646 -0.0340110 255 0 0
-0.0476255 0.0992635 -0.0340020 255 0 0
-0.0454068 0.0992634 -0.0339992 255 0 0
-0.0431348 0.0992629 -0.0339978 255 0 0
-0.0408084 0.0992615 -0.0340015 255 0 0
-0.0384897 0.0992597 -0.0340037 255 0 0
-0.0361988 0.0992578 -0.0340053 255 0 0
-0.0338707 0.0992565 -0.0340058 255 0 0
-0.0315723 0.0992557 -0.0340062 255 0 0
-0.0292860 0.0992540 -0.0340084 255 0 0
-0.0269764 0.0992511 -0.0340118 255 0 0
-0.0248129 0.0992480 -0.0340236 255 0 0
-0.0225978 0.0992444 -0.0340321 255 0 0
-0.0202225 0.0992405 -0.0340454 255 0 0
-0.0178795 0.0992382 -0.0340613 255 0 0
-0.0155841 0.0992365 -0.0340792 255 0 0
-0.0132852 0.0992352 -0.0340917 255 0 0
-0.0109929 0.0992336 -0.0341071 255 0 0
-0.0086920 0.0992289 -0.0341273 255 0 0
-0.0063959 0.0992271 -0.0341495 255 0 0
-0.0041113 0.0992251 -0.0341691 255 0 0
-0.0018150 0.0992246 -0.0341934 255 0 0
0.0004113 0.0992093 -0.0342400 255 0 0
0.0026782 0.0991970 -0.0342891 255 0 0
0.0050370 0.0991955 -0.0343117 255 0 0
0.0073693 0.0991890 -0.0343695 255 0 0
0.0096741 0.0991897 -0.0344566 255 0 0
0.0119909 0.0992596 -0.0345502 255 0 0
-0.0934629 0.1015513 -0.0348206 255 0 0
-0.0912427 0.1015105 -0.0345427 255 0 0
-0.0889713 0.1015214 -0.0343376 255 0 0
-0.0866364 0.1015135 -0.0342857 255 0 0
-0.0842589 0.1015102 -0.0342434 255 0 0
-0.0819697 0.1015070 -0.0342090 255 0 0
-0.0796803 0.1015018 -0.0341805 255 0 0
-0.0773885 0.1014939 -0.0341603 255 0 0
-0.0750989 0.1014925 -0.0341413 255 0 0
-0.0727991 0.1014954 -0.0341283 255 0 0
-0.0705898 0.1015068 -0.0341073 255 0 0
-0.0683503 0.1015118 -0.0340806 255 0 0
-0.0660025 0.1015186 -0.0340715 255 0 0
-0.0636601 0.1015260 -0.0340628 255 0 0
-0.0613713 0.1015346 -0.0340588 255 0 0
-0.0590821 0.1015387 -0.0340536 255 0 0
-0.0567928 0.1015406 -0.0340427 255 0 0
-0.0544960 0.1015416 -0.0340319 255 0 0
-0.0521943 0.1015418 -0.0340213 255 0 0
-0.0499169 0.1015407 -0.0340098 255 0 0
-0.0476290 0.1015387 -0.0340053 255 0 0
-0.0454052 0.1015381 -0.0340045 255 0 0
-0.0431310 0.1015370 -0.0340046 255 0 0
-0.0408036 0.1015351 -0.0340043 255 0 0
-0.0384893 0.1015333 -0.0340052 255 0 0
-0.0361999 0.1015314 -0.0340107 255 0 0
-0.0338755 0.1015295 -0.0340130 255 0 0
-0.0315719 0.1015276 -0.0340134 255 0 0
-0.0292881 0.1015248 -0.0340152 255 0 0
-0.0269787 0.1015221 -0.0340184 255 0 0
-0.0248110 0.1015192 -0.0340249 255 0 0
-0.0225925 0.1015165 -0.0340366 255 0 0
-0.0202219 0.1015136 -0.0340523 255 0 0
-0.0178782 0.1015114 -0.0340681 255 0 0
-0.0155844 0.1015078 -0.0340796 255 0 0
-0.0132883 0.1015051 -0.0340922 255 0 0
-0.0109936 0.1015016 -0.0341122 255 0 0
-0.0086945 0.1014984 -0.0341347 255 0 0
-0.0063978 0.1014960 -0.0341496 255 0 0
-0.0041132 0.1014931 -0.0341700 255 0 0
-0.0018172 0.1014948 -0.0341966 255 0 0
0.0004129 0.1014845 -0.0342428 255 0 0
0.0026804 0.1014964 -0.0342896 255 0 0
0.0050382 0.1015178 -0.0343160 255 0 0
0.0073693 0.1015340 -0.0343763 255 0 0
0.0096628 0.1015327 -0.0344789 255 0 0
0.0120057 0.1015563 -0.0345774 255 0 0
-0.0934314 0.1038484 -0.0347976 255 0 0
-0.0912323 0.1038322 -0.0345387 255 0 0
-0.0889631 0.1038248 -0.0343421 255 0 0
-0.0866399 0.1038221 -0.0342850 255 0 0
-0.0842748 0.1038169 -0.0342364 255 0 0
-0.0819690 0.1038114 -0.0342062 255 0 0
-0.0796792 0.1038083 -0.0341821 255 0 0
-0.0773892 0.1038038 -0.0341661 255 0 0
-0.0750989 0.1038017 -0.0341519 255 0 0
-0.0728004 0.1038009 -0.0341296 255 0 0
-0.0705690 0.1038110 -0.0341033 255 0 0
-0.0683484 0.1038198 -0.0340879 255 0 0
-0.0659827 0.1038238 -0.0340836 255 0 0
-0.0636595 0.1038240 -0.0340747 255 0 0
-0.0613716 0.1038306 -0.0340603 255 0 0
-0.0590825 0.1038358 -0.0340519 255 0 0
-0.0567929 0.1038389 -0.0340456 255 0 0
-0.0544971 0.1038396 -0.0340385 255 0 0
-0.0521978 0.1038405 -0.0340320 255 0 0
-0.0499177 0.1038434 -0.0340214 255 0 0
-0.0476292 0.1038438 -0.0340128 255 0 0
-0.0453995 0.1038434 -0.0340095 255 0 0
-0.0431294 0.1038432 -0.0340083 255 0 0
-0.0407986 0.1038409 -0.0340106 255 0 0
-0.0384897 0.1038397 -0.0340137 255 0 0
-0.0361999 0.1038391 -0.0340153 255 0 0
-0.0338758 0.1038375 -0.0340153 255 0 0
-0.0315727 0.1038354 -0.0340159 255 0 0
-0.0292892 0.1038332 -0.0340180 255 0 0
-0.0269793 0.1038310 -0.0340242 255 0 0
-0.0248096 0.1038291 -0.0340356 255 0 0
-0.0225884 0.1038275 -0.0340427 255 0 0
-0.0202202 0.1038264 -0.0340547 255 0 0
-0.0178782 0.1038253 -0.0340677 255 0 0
-0.0155840 0.1038221 -0.0340853 255 0 0
-0.0132884 0.1038182 -0.0341076 255 0 0
-0.0109935 0.1038168 -0.0341197 255 0 0
-0.0086953 0.1038158 -0.0341320 255 0 0
-0.0064002 0.1038153 -0.0341481 255 0 0
-0.0041148 0.1038181 -0.0341761 255 0 0
-0.0018195 0.1038235 -0.0341974 255 0 0
0.0004160 0.1038273 -0.0342439 255 0 0
0.0026862 0.1038300 -0.0342903 255 0 0
0.0050393 0.1038365 -0.0343169 255 0 0
0.0073692 0.1038423 -0.0343808 255 0 0
0.0096619 0.1038525 -0.0344889 255 0 0
0.0120152 0.1039129 -0.0345854 255 0 0
-0.0911987 0.1061604 -0.0345100 255 0 0
