ply
format ascii 1.0
element vertex 1229
property float x
property float y
property float z
property uchar red
property uchar green
property uchar blue
end_header
-0.0453440 0.1061004 0.0108355 255 0 0
-0.0430561 0.1061000 0.0108351 255 0 0
-0.0407684 0.1060999 0.0108349 255 0 0
-0.0384806 0.1060997 0.0108346 255 0 0
-0.0361929 0.1060995 0.0108343 255 0 0
-0.0339051 0.1060993 0.0108340 255 0 0
-0.0316173 0.1060990 0.0108337 255 0 0
-0.0293295 0.1060987 0.0108334 255 0 0
-0.0270417 0.1060985 0.0108332 255 0 0
-0.0247539 0.1060979 0.0108323 255 0 0
-0.0224660 0.1060974 0.0108317 255 0 0
-0.0201783 0.1060973 0.0108317 255 0 0
-0.0178906 0.1060973 0.0108316 255 0 0
-0.0156027 0.1060970 0.0108313 255 0 0
-0.0133149 0.1060968 0.0108310 255 0 0
-0.0110272 0.1060966 0.0108308 255 0 0
-0.0087394 0.1060964 0.0108305 255 0 0
-0.0064516 0.1060962 0.0108303 255 0 0
-0.0041638 0.1060960 0.0108301 255 0 0
-0.0018760 0.1060958 0.0108298 255 0 0
0.0004118 0.1060955 0.0108295 255 0 0
0.0026997 0.1060953 0.0108292 255 0 0
0.0049874 0.1060952 0.0108291 255 0 0
0.0072752 0.1060951 0.0108290 255 0 0
0.0095630 0.1060950 0.0108288 255 0 0
0.0118508 0.1060949 0.0108286 255 0 0
0.0141385 0.1060948 0.0108284 255 0 0
0.0164263 0.1060941 0.0108280 255 0 0
0.0187140 0.1060937 0.0108275 255 0 0
-0.1002505 0.1083933 0.0108423 255 0 0
-0.0979630 0.1083922 0.0108408 255 0 0
-0.0956753 0.1083909 0.0108395 255 0 0
-0.0933876 0.1083900 0.0108384 255 0 0
-0.0910998 0.1083892 0.0108374 255 0 0
-0.0888121 0.1083887 0.0108366 255 0 0
-0.0865243 0.1083884 0.0108363 255 0 0
-0.0842365 0.1083881 0.0108359 255 0 0
-0.0819487 0.1083878 0.0108355 255 0 0
-0.0796609 0.1083875 0.0108350 255 0 0
-0.0773731 0.1083871 0.0108346 255 0 0
-0.0750853 0.1083868 0.0108341 255 0 0
-0.0727976 0.1083866 0.0108337 255 0 0
-0.0705091 0.1083856 0.0108327 255 0 0
-0.0682213 0.1083850 0.0108319 255 0 0
-0.0659336 0.1083848 0.0108317 255 0 0
-0.0636459 0.1083847 0.0108314 255 0 0
-0.0613585 0.1083843 0.0108310 255 0 0
-0.0590708 0.1083839 0.0108305 255 0 0
-0.0567830 0.1083836 0.0108301 255 0 0
-0.0544952 0.1083833 0.0108297 255 0 0
-0.0522075 0.1083830 0.0108293 255 0 0
-0.0499197 0.1083827 0.0108289 255 0 0
-0.0476319 0.1083825 0.0108285 255 0 0
-0.0453441 0.1083821 0.0108280 255 0 0
-0.0430564 0.1083818 0.0108275 255 0 0
-0.0407686 0.1083817 0.0108273 255 0 0
-0.0384808 0.1083814 0.0108270 255 0 0
-0.0361930 0.1083812 0.0108267 255 0 0
-0.0339053 0.1083810 0.0108264 255 0 0
-0.0316175 0.1083808 0.0108261 255 0 0
-0.0293296 0.1083806 0.0108258 255 0 0
-0.0270419 0.1083805 0.0108257 255 0 0
-0.0247540 0.1083797 0.0108248 255 0 0
-0.0224661 0.1083792 0.0108241 255 0 0
-0.0201784 0.1083793 0.0108242 255 0 0
-0.0178907 0.1083792 0.0108241 255 0 0
-0.0156029 0.1083790 0.0108238 255 0 0
-0.0133152 0.1083788 0.0108235 255 0 0
-0.0110274 0.1083786 0.0108233 255 0 0
-0.0087396 0.1083784 0.0108231 255 0 0
-0.0064518 0.1083783 0.0108229 255 0 0
-0.0041640 0.1083781 0.0108226 255 0 0
-0.0018762 0.1083779 0.0108224 255 0 0
0.0004117 0.1083777 0.0108220 255 0 0
0.0026996 0.1083774 0.0108217 255 0 0
0.0049873 0.1083773 0.0108216 255 0 0
0.0072750 0.1083771 0.0108214 255 0 0
0.0095627 0.1083767 0.0108212 255 0 0
0.0118505 0.1083764 0.0108209 255 0 0
0.0141383 0.1083762 0.0108205 255 0 0
0.0164260 0.1083755 0.0108198 255 0 0
0.0187137 0.1083748 0.0108188 255 0 0
-0.0979631 0.1106769 0.0108368 255 0 0
-0.0956754 0.1106744 0.0108343 255 0 0
-0.0933876 0.1106735 0.0108325 255 0 0
-0.0911000 0.1106724 0.0108313 255 0 0
-0.0888122 0.1106717 0.0108304 255 0 0
-0.0865245 0.1106713 0.0108301 255 0 0
-0.0842367 0.1106710 0.0108297 255 0 0
-0.0819490 0.1106707 0.0108292 255 0 0
-0.0796612 0.1106703 0.0108287 255 0 0
-0.0773735 0.1106699 0.0108283 255 0 0
-0.0750857 0.1106696 0.0108278 255 0 0
-0.0727980 0.1106693 0.0108273 255 0 0
-0.0705102 0.1106684 0.0108263 255 0 0
-0.0682222 0.1106679 0.0108255 255 0 0
-0.0659347 0.1106676 0.0108252 255 0 0
-0.0636469 0.1106674 0.0108249 255 0 0
-0.0613586 0.1106670 0.0108245 255 0 0
-0.0590708 0.1106667 0.0108240 255 0 0
-0.0567830 0.1106664 0.0108236 255 0 0
-0.0544953 0.1106661 0.0108233 255 0 0
-0.0522075 0.1106658 0.0108229 255 0 0
-0.0499197 0.1106655 0.0108225 255 0 0
-0.0476319 0.1106652 0.0108221 255 0 0
-0.0453442 0.1106648 0.0108216 255 0 0
-0.0430564 0.1106645 0.0108212 255 0 0
-0.0407686 0.1106644 0.0108210 255 0 0
-0.0384809 0.1106642 0.0108207 255 0 0
-0.0361931 0.1106640 0.0108204 255 0 0
-0.0339053 0.1106639 0.0108202 255 0 0
-0.0316175 0.1106637 0.0108200 255 0 0
-0.0293299 0.1106635 0.0108197 255 0 0
-0.0270422 0.1106634 0.0108196 255 0 0
-0.0247543 0.1106627 0.0108187 255 0 0
-0.0224661 0.1106623 0.0108181 255 0 0
-0.0201787 0.1106622 0.0108182 255 0 0
-0.0178910 0.1106622 0.0108182 255 0 0
-0.0156031 0.1106620 0.0108179 255 0 0
-0.0133153 0.1106619 0.0108177 255 0 0
-0.0110275 0.1106617 0.0108175 255 0 0
-0.0087397 0.1106616 0.0108173 255 0 0
-0.0064519 0.1106614 0.0108171 255 0 0
-0.0041641 0.1106611 0.0108169 255 0 0
-0.0018764 0.1106609 0.0108166 255 0 0
0.0004116 0.1106606 0.0108163 255 0 0
0.0026995 0.1106603 0.0108160 255 0 0
0.0049872 0.1106602 0.0108158 255 0 0
0.0072749 0.1106600 0.0108155 255 0 0
0.0095626 0.1106598 0.0108151 255 0 0
0.0118504 0.1106591 0.0108145 255 0 0
0.0141380 0.1106587 0.0108138 255 0 0
0.0164258 0.1106581 0.0108132 255 0 0
0.0187136 0.1106586 0.0108136 255 0 0
-0.0979644 0.1129490 0.0108174 255 0 0
-0.0956766 0.1129490 0.0108170 255 0 0
-0.0933889 0.1129485 0.0108166 255 0 0
-0.0911011 0.1129479 0.0108157 255 0 0
-0.0888134 0.1129477 0.0108150 255 0 0
-0.0865256 0.1129474 0.0108147 255 0 0
-0.0842378 0.1129472 0.0108143 255 0 0
-0.0819500 0.1129469 0.0108139 255 0 0
-0.0796623 0.1129467 0.0108135 255 0 0
-0.0773745 0.1129464 0.0108131 255 0 0
-0.0750867 0.1129461 0.0108126 255 0 0
-0.0727989 0.1129458 0.0108123 255 0 0
-0.0705112 0.1129453 0.0108117 255 0 0
-0.0682227 0.1129450 0.0108112 255 0 0
-0.0659356 0.1129449 0.0108111 255 0 0
-0.0636479 0.1129447 0.0108109 255 0 0
-0.0613591 0.1129445 0.0108107 255 0 0
-0.0590713 0.1129444 0.0108105 255 0 0
-0.0567835 0.1129443 0.0108103 255 0 0
-0.0544957 0.1129441 0.0108101 255 0 0
-0.0522079 0.1129440 0.0108100 255 0 0
-0.0499201 0.1129439 0.0108098 255 0 0
-0.0476323 0.1129438 0.0108096 255 0 0
-0.0453446 0.1129436 0.0108095 255 0 0
-0.0430568 0.1129436 0.0108093 255 0 0
-0.0407690 0.1129434 0.0108092 255 0 0
-0.0384812 0.1129433 0.0108090 255 0 0
-0.0361934 0.1129431 0.0108087 255 0 0
-0.0339057 0.1129429 0.0108085 255 0 0
-0.0316179 0.1129428 0.0108083 255 0 0
-0.0293302 0.1129427 0.0108082 255 0 0
-0.0270427 0.1129427 0.0108083 255 0 0
-0.0247544 0.1129424 0.0108074 255 0 0
-0.0224664 0.1129421 0.0108069 255 0 0
-0.0201788 0.1129423 0.0108073 255 0 0
-0.0178911 0.1129425 0.0108074 255 0 0
-0.0156033 0.1129424 0.0108074 255 0 0
-0.0133155 0.1129423 0.0108073 255 0 0
-0.0110278 0.1129423 0.0108073 255 0 0
-0.0087400 0.1129422 0.0108072 255 0 0
-0.0064522 0.1129421 0.0108071 255 0 0
-0.0041644 0.1129420 0.0108070 255 0 0
-0.0018766 0.1129419 0.0108069 255 0 0
0.0004115 0.1129415 0.0108067 255 0 0
0.0026994 0.1129412 0.0108064 255 0 0
0.0049870 0.1129410 0.0108062 255 0 0
0.0072746 0.1129408 0.0108059 255 0 0
0.0095623 0.1129406 0.0108055 255 0 0
0.0118500 0.1129401 0.0108046 255 0 0
0.0141377 0.1129386 0.0108033 255 0 0
0.0164251 0.1129366 0.0108005 255 0 0
-0.0979644 0.1152275 0.0108055 255 0 0
-0.0956767 0.1152279 0.0108061 255 0 0
-0.0933890 0.1152283 0.0108062 255 0 0
-0.0911013 0.1152283 0.0108058 255 0 0
-0.0888135 0.1152282 0.0108055 255 0 0
-0.0865257 0.1152281 0.0108053 255 0 0
-0.0842379 0.1152279 0.0108051 255 0 0
-0.0819501 0.1152277 0.0108047 255 0 0
-0.0796624 0.1152274 0.0108044 255 0 0
-0.0773746 0.1152273 0.0108041 255 0 0
-0.0750868 0.1152271 0.0108039 255 0 0
-0.0727991 0.1152270 0.0108036 255 0 0
-0.0705113 0.1152267 0.0108034 255 0 0
-0.0682229 0.1152266 0.0108032 255 0 0
-0.0659358 0.1152266 0.0108031 255 0 0
-0.0636480 0.1152266 0.0108031 255 0 0
-0.0613594 0.1152265 0.0108030 255 0 0
-0.0590715 0.1152265 0.0108030 255 0 0
-0.0567837 0.1152265 0.0108030 255 0 0
-0.0544960 0.1152265 0.0108030 255 0 0
-0.0522082 0.1152266 0.0108030 255 0 0
-0.0499204 0.1152266 0.0108030 255 0 0
-0.0476326 0.1152266 0.0108030 255 0 0
-0.0453446 0.1152269 0.0108031 255 0 0
-0.0430568 0.1152271 0.0108031 255 0 0
-0.0407690 0.1152271 0.0108030 255 0 0
-0.0384812 0.1152271 0.0108029 255 0 0
-0.0361935 0.1152271 0.0108027 255 0 0
-0.0339057 0.1152270 0.0108026 255 0 0
-0.0316180 0.1152269 0.0108025 255 0 0
-0.0293304 0.1152269 0.0108024 255 0 0
-0.0270428 0.1152272 0.0108026 255 0 0
-0.0247544 0.1152268 0.0108020 255 0 0
-0.0224664 0.1152265 0.0108016 255 0 0
-0.0201788 0.1152269 0.0108021 255 0 0
-0.0178912 0.1152270 0.0108024 255 0 0
-0.0156035 0.1152270 0.0108024 255 0 0
-0.0133157 0.1152271 0.0108025 255 0 0
-0.0110279 0.1152271 0.0108026 255 0 0
-0.0087402 0.1152271 0.0108026 255 0 0
-0.0064524 0.1152271 0.0108026 255 0 0
-0.0041645 0.1152270 0.0108026 255 0 0
-0.0018768 0.1152269 0.0108025 255 0 0
0.0004114 0.1152267 0.0108023 255 0 0
0.0026994 0.1152265 0.0108020 255 0 0
0.0049869 0.1152260 0.0108016 255 0 0
0.0072745 0.1152253 0.0108010 255 0 0
0.0095622 0.1152248 0.0108002 255 0 0
0.0118498 0.1152233 0.0107988 255 0 0
0.0141373 0.1152216 0.0107967 255 0 0
0.0164248 0.1152183 0.0107928 255 0 0
-0.0956768 0.1175166 0.0108070 255 0 0
-0.0933891 0.1175154 0.0108053 255 0 0
-0.0911013 0.1175161 0.0108054 255 0 0
-0.0888136 0.1175162 0.0108054 255 0 0
-0.0865258 0.1175162 0.0108054 255 0 0
-0.0842380 0.1175162 0.0108054 255 0 0
-0.0819502 0.1175161 0.0108053 255 0 0
-0.0796624 0.1175161 0.0108052 255 0 0
-0.0773746 0.1175160 0.0108051 255 0 0
-0.0750869 0.1175160 0.0108050 255 0 0
-0.0727991 0.1175159 0.0108049 255 0 0
-0.0705112 0.1175164 0.0108049 255 0 0
-0.0682227 0.1175163 0.0108049 255 0 0
-0.0659356 0.1175163 0.0108049 255 0 0
-0.0636480 0.1175163 0.0108049 255 0 0
-0.0613592 0.1175163 0.0108049 255 0 0
-0.0590715 0.1175163 0.0108049 255 0 0
-0.0567837 0.1175163 0.0108050 255 0 0
-0.0544959 0.1175164 0.0108051 255 0 0
-0.0522081 0.1175164 0.0108052 255 0 0
-0.0499202 0.1175165 0.0108053 255 0 0
-0.0476324 0.1175166 0.0108054 255 0 0
-0.0453446 0.1175169 0.0108055 255 0 0
-0.0430568 0.1175171 0.0108056 255 0 0
-0.0407690 0.1175171 0.0108056 255 0 0
-0.0384812 0.1175172 0.0108056 255 0 0
-0.0361934 0.1175173 0.0108056 255 0 0
-0.0339057 0.1175174 0.0108057 255 0 0
-0.0316179 0.1175174 0.0108057 255 0 0
-0.0293303 0.1175175 0.0108058 255 0 0
-0.0270428 0.1175178 0.0108062 255 0 0
-0.0247543 0.1175177 0.0108058 255 0 0
-0.0224663 0.1175176 0.0108057 255 0 0
-0.0201787 0.1175179 0.0108061 255 0 0
-0.0178912 0.1175181 0.0108064 255 0 0
-0.0156033 0.1175181 0.0108065 255 0 0
-0.0133155 0.1175183 0.0108066 255 0 0
-0.0110278 0.1175183 0.0108067 255 0 0
-0.0087400 0.1175183 0.0108067 255 0 0
-0.0064523 0.1175183 0.0108067 255 0 0
-0.0041644 0.1175182 0.0108067 255 0 0
-0.0018767 0.1175181 0.0108066 255 0 0
0.0004115 0.1175177 0.0108062 255 0 0
0.0026994 0.1175171 0.0108057 255 0 0
0.0049870 0.1175166 0.0108052 255 0 0
0.0072745 0.1175157 0.0108041 255 0 0
0.0095622 0.1175143 0.0108024 255 0 0
0.0118497 0.1175124 0.0108001 255 0 0
0.0141372 0.1175099 0.0107973 255 0 0
-0.0933891 0.1198022 0.0108040 255 0 0
-0.0911014 0.1198037 0.0108049 255 0 0
-0.0888136 0.1198042 0.0108057 255 0 0
-0.0865258 0.1198046 0.0108060 255 0 0
-0.0842380 0.1198050 0.0108063 255 0 0
-0.0819502 0.1198053 0.0108066 255 0 0
-0.0796624 0.1198057 0.0108068 255 0 0
-0.0773747 0.1198059 0.0108069 255 0 0
-0.0750869 0.1198059 0.0108070 255 0 0
-0.0727991 0.1198060 0.0108070 255 0 0
-0.0705109 0.1198061 0.0108073 255 0 0
-0.0682225 0.1198063 0.0108074 255 0 0
-0.0659352 0.1198062 0.0108075 255 0 0
-0.0636480 0.1198063 0.0108075 255 0 0
-0.0613590 0.1198064 0.0108076 255 0 0
-0.0590712 0.1198065 0.0108078 255 0 0
-0.0567835 0.1198065 0.0108079 255 0 0
-0.0544957 0.1198067 0.0108081 255 0 0
-0.0522079 0.1198068 0.0108083 255 0 0
-0.0499201 0.1198069 0.0108085 255 0 0
-0.0476323 0.1198071 0.0108087 255 0 0
-0.0453446 0.1198075 0.0108089 255 0 0
-0.0430566 0.1198077 0.0108090 255 0 0
-0.0407690 0.1198078 0.0108091 255 0 0
-0.0384812 0.1198080 0.0108091 255 0 0
-0.0361934 0.1198081 0.0108092 255 0 0
-0.0339057 0.1198083 0.0108093 255 0 0
-0.0316179 0.1198085 0.0108095 255 0 0
-0.0293301 0.1198087 0.0108098 255 0 0
-0.0270425 0.1198092 0.0108102 255 0 0
-0.0247542 0.1198092 0.0108102 255 0 0
-0.0224661 0.1198094 0.0108102 255 0 0
-0.0201787 0.1198096 0.0108106 255 0 0
-0.0178910 0.1198097 0.0108109 255 0 0
-0.0156033 0.1198098 0.0108110 255 0 0
-0.0133155 0.1198099 0.0108111 255 0 0
-0.0110277 0.1198100 0.0108113 255 0 0
-0.0087399 0.1198100 0.0108113 255 0 0
-0.0064522 0.1198099 0.0108113 255 0 0
-0.0041643 0.1198097 0.0108112 255 0 0
-0.0018766 0.1198095 0.0108110 255 0 0
0.0004116 0.1198090 0.0108103 255 0 0
0.0026995 0.1198080 0.0108094 255 0 0
0.0049870 0.1198072 0.0108086 255 0 0
0.0072745 0.1198059 0.0108069 255 0 0
0.0095622 0.1198038 0.0108042 255 0 0
0.0118496 0.1198008 0.0108008 255 0 0
-0.0933891 0.1220886 0.0108019 255 0 0
-0.0911012 0.1220908 0.0108044 255 0 0
-0.0888134 0.1220927 0.0108062 255 0 0
-0.0865257 0.1220936 0.0108071 255 0 0
-0.0842380 0.1220943 0.0108079 255 0 0
-0.0819502 0.1220950 0.0108085 255 0 0
-0.0796624 0.1220954 0.0108091 255 0 0
-0.0773747 0.1220957 0.0108094 255 0 0
-0.0750869 0.1220960 0.0108098 255 0 0
-0.0727991 0.1220961 0.0108100 255 0 0
-0.0705105 0.1220966 0.0108104 255 0 0
-0.0682222 0.1220969 0.0108108 255 0 0
-0.0659348 0.1220971 0.0108108 255 0 0
-0.0636476 0.1220972 0.0108110 255 0 0
-0.0613590 0.1220974 0.0108112 255 0 0
-0.0590712 0.1220975 0.0108114 255 0 0
-0.0567835 0.1220976 0.0108117 255 0 0
-0.0544957 0.1220977 0.0108120 255 0 0
-0.0522079 0.1220978 0.0108123 255 0 0
-0.0499201 0.1220979 0.0108127 255 0 0
-0.0476323 0.1220981 0.0108130 255 0 0
-0.0453444 0.1220984 0.0108131 255 0 0
-0.0430564 0.1220987 0.0108132 255 0 0
-0.0407690 0.1220990 0.0108132 255 0 0
-0.0384812 0.1220993 0.0108133 255 0 0
-0.0361934 0.1220995 0.0108134 255 0 0
-0.0339057 0.1220998 0.0108136 255 0 0
-0.0316179 0.1221000 0.0108139 255 0 0
-0.0293301 0.1221003 0.0108142 255 0 0
-0.0270423 0.1221007 0.0108146 255 0 0
-0.0247541 0.1221011 0.0108150 255 0 0
-0.0224660 0.1221013 0.0108153 255 0 0
-0.0201785 0.1221015 0.0108156 255 0 0
-0.0178909 0.1221016 0.0108158 255 0 0
-0.0156031 0.1221017 0.0108160 255 0 0
-0.0133153 0.1221018 0.0108162 255 0 0
-0.0110275 0.1221019 0.0108163 255 0 0
-0.0087398 0.1221019 0.0108164 255 0 0
-0.0064520 0.1221018 0.0108163 255 0 0
-0.0041642 0.1221015 0.0108162 255 0 0
-0.0018765 0.1221012 0.0108158 255 0 0
0.0004117 0.1221003 0.0108147 255 0 0
0.0026995 0.1220988 0.0108132 255 0 0
0.0049871 0.1220978 0.0108119 255 0 0
0.0072745 0.1220957 0.0108093 255 0 0
0.0095620 0.1220924 0.0108055 255 0 0
-0.0911009 0.1243790 0.0108049 255 0 0
-0.0888130 0.1243816 0.0108076 255 0 0
-0.0865253 0.1243832 0.0108093 255 0 0
-0.0842376 0.1243846 0.0108109 255 0 0
-0.0819499 0.1243856 0.0108122 255 0 0
-0.0796621 0.1243864 0.0108132 255 0 0
-0.0773744 0.1243870 0.0108138 255 0 0
-0.0750867 0.1243874 0.0108142 255 0 0
-0.0727991 0.1243876 0.0108144 255 0 0
-0.0705101 0.1243881 0.0108150 255 0 0
-0.0682220 0.1243885 0.0108155 255 0 0
-0.0659345 0.1243886 0.0108155 255 0 0
-0.0636470 0.1243887 0.0108157 255 0 0
-0.0613590 0.1243888 0.0108160 255 0 0
-0.0590712 0.1243890 0.0108164 255 0 0
-0.0567835 0.1243891 0.0108168 255 0 0
-0.0544957 0.1243892 0.0108174 255 0 0
-0.0522079 0.1243892 0.0108181 255 0 0
-0.0499201 0.1243892 0.0108187 255 0 0
-0.0476323 0.1243893 0.0108192 255 0 0
-0.0453443 0.1243896 0.0108193 255 0 0
-0.0430564 0.1243900 0.0108193 255 0 0
-0.0407688 0.1243904 0.0108190 255 0 0
-0.0384812 0.1243906 0.0108188 255 0 0
-0.0361934 0.1243908 0.0108187 255 0 0
-0.0339057 0.1243911 0.0108188 255 0 0
-0.0316179 0.1243917 0.0108190 255 0 0
-0.0293299 0.1243922 0.0108194 255 0 0
-0.0270423 0.1243925 0.0108198 255 0 0
-0.0247539 0.1243932 0.0108205 255 0 0
-0.0224659 0.1243936 0.0108210 255 0 0
-0.0201783 0.1243936 0.0108212 255 0 0
-0.0178907 0.1243938 0.0108214 255 0 0
-0.0156030 0.1243938 0.0108216 255 0 0
-0.0133152 0.1243939 0.0108217 255 0 0
-0.0110274 0.1243938 0.0108217 255 0 0
-0.0087396 0.1243937 0.0108217 255 0 0
-0.0064519 0.1243935 0.0108215 255 0 0
-0.0041641 0.1243932 0.0108212 255 0 0
-0.0018763 0.1243929 0.0108208 255 0 0
0.0004117 0.1243911 0.0108188 255 0 0
0.0026996 0.1243893 0.0108167 255 0 0
0.0049871 0.1243881 0.0108152 255 0 0
0.0072745 0.1243857 0.0108122 255 0 0
0.0095620 0.1243820 0.0108077 255 0 0
-0.0888126 0.1266713 0.0108097 255 0 0
-0.0865247 0.1266732 0.0108129 255 0 0
-0.0842369 0.1266755 0.0108157 255 0 0
-0.0819491 0.1266777 0.0108183 255 0 0
-0.0796613 0.1266787 0.0108198 255 0 0
-0.0773737 0.1266790 0.0108203 255 0 0
-0.0750859 0.1266795 0.0108205 255 0 0
-0.0727986 0.1266798 0.0108203 255 0 0
-0.0705097 0.1266803 0.0108209 255 0 0
-0.0682216 0.1266808 0.0108214 255 0 0
-0.0659341 0.1266809 0.0108215 255 0 0
-0.0636463 0.1266810 0.0108218 255 0 0
-0.0613590 0.1266813 0.0108221 255 0 0
-0.0590712 0.1266813 0.0108227 255 0 0
-0.0567834 0.1266813 0.0108235 255 0 0
-0.0544956 0.1266813 0.0108248 255 0 0
-0.0522077 0.1266811 0.0108264 255 0 0
-0.0499200 0.1266809 0.0108280 255 0 0
-0.0476322 0.1266807 0.0108291 255 0 0
-0.0453445 0.1266810 0.0108291 255 0 0
-0.0430565 0.1266811 0.0108287 255 0 0
-0.0407688 0.1266813 0.0108273 255 0 0
-0.0384811 0.1266814 0.0108262 255 0 0
-0.0361934 0.1266821 0.0108254 255 0 0
-0.0339056 0.1266829 0.0108249 255 0 0
-0.0316178 0.1266838 0.0108249 255 0 0
-0.0293298 0.1266842 0.0108252 255 0 0
-0.0270421 0.1266846 0.0108255 255 0 0
-0.0247537 0.1266854 0.0108265 255 0 0
-0.0224658 0.1266860 0.0108272 255 0 0
-0.0201782 0.1266861 0.0108273 255 0 0
-0.0178906 0.1266861 0.0108273 255 0 0
-0.0156028 0.1266861 0.0108274 255 0 0
-0.0133150 0.1266860 0.0108273 255 0 0
-0.0110272 0.1266856 0.0108270 255 0 0
-0.0087395 0.1266853 0.0108267 255 0 0
-0.0064517 0.1266850 0.0108263 255 0 0
-0.0041639 0.1266843 0.0108260 255 0 0
-0.0018761 0.1266839 0.0108258 255 0 0
0.0004118 0.1266816 0.0108226 255 0 0
0.0026996 0.1266799 0.0108197 255 0 0
0.0049871 0.1266782 0.0108184 255 0 0
-0.0865242 0.1289643 0.0108180 255 0 0
-0.0842361 0.1289686 0.0108239 255 0 0
-0.0819481 0.1289723 0.0108300 255 0 0
-0.0796603 0.1289739 0.0108319 255 0 0
-0.0773728 0.1289736 0.0108306 255 0 0
-0.0750851 0.1289735 0.0108289 255 0 0
-0.0727975 0.1289729 0.0108271 255 0 0
-0.0705089 0.1289732 0.0108277 255 0 0
-0.0682212 0.1289735 0.0108282 255 0 0
-0.0659334 0.1289735 0.0108284 255 0 0
-0.0636456 0.1289736 0.0108288 255 0 0
-0.0613588 0.1289736 0.0108292 255 0 0
-0.0590711 0.1289739 0.0108304 255 0 0
-0.0567831 0.1289742 0.0108323 255 0 0
-0.0544952 0.1289743 0.0108357 255 0 0
-0.0522073 0.1289739 0.0108402 255 0 0
-0.0499197 0.1289728 0.0108445 255 0 0
-0.0476322 0.1289712 0.0108474 255 0 0
-0.0453447 0.1289704 0.0108489 255 0 0
-0.0430571 0.1289708 0.0108480 255 0 0
-0.0407692 0.1289719 0.0108427 255 0 0
-0.0384813 0.1289725 0.0108383 255 0 0
-0.0361934 0.1289734 0.0108346 255 0 0
-0.0339054 0.1289739 0.0108323 255 0 0
-0.0316176 0.1289749 0.0108313 255 0 0
-0.0293295 0.1289762 0.0108312 255 0 0
-0.0270417 0.1289768 0.0108312 255 0 0
-0.0247537 0.1289776 0.0108325 255 0 0
-0.0224657 0.1289781 0.0108333 255 0 0
-0.0201781 0.1289779 0.0108331 255 0 0
-0.0178904 0.1289777 0.0108328 255 0 0
-0.0156027 0.1289775 0.0108325 255 0 0
-0.0133149 0.1289769 0.0108318 255 0 0
-0.0110271 0.1289760 0.0108306 255 0 0
-0.0087394 0.1289751 0.0108295 255 0 0
-0.0064515 0.1289741 0.0108288 255 0 0
-0.0041637 0.1289739 0.0108291 255 0 0
-0.0018758 0.1289746 0.0108304 255 0 0
0.0004119 0.1289710 0.0108249 255 0 0
0.0026996 0.1289686 0.0108210 255 0 0
-0.0819466 0.1312679 0.0108459 255 0 0
-0.0796590 0.1312696 0.0108481 255 0 0
-0.0773719 0.1312689 0.0108440 255 0 0
-0.0750839 0.1312689 0.0108443 255 0 0
-0.0727961 0.1312713 0.0108479 255 0 0
-0.0705088 0.1312691 0.0108418 255 0 0
-0.0682211 0.1312672 0.0108384 255 0 0
-0.0659333 0.1312680 0.0108397 255 0 0
-0.0636453 0.1312681 0.0108425 255 0 0
-0.0613581 0.1312659 0.0108452 255 0 0
-0.0590697 0.1312652 0.0108548 255 0 0
-0.0567816 0.1312628 0.0108711 255 0 0
-0.0544939 0.1312582 0.0108977 255 0 0
-0.0522074 0.1312497 0.0109363 255 0 0
-0.0499241 0.1312419 0.0109962 255 0 0
-0.0476400 0.1312537 0.0110523 255 0 0
-0.0453497 0.1312468 0.0109624 255 0 0
-0.0430584 0.1312547 0.0108804 255 0 0
-0.0407699 0.1312565 0.0108668 255 0 0
-0.0384818 0.1312581 0.0108550 255 0 0
-0.0361937 0.1312600 0.0108447 255 0 0
-0.0339058 0.1312609 0.0108372 255 0 0
-0.0316179 0.1312615 0.0108325 255 0 0
-0.0293298 0.1312626 0.0108301 255 0 0
-0.0270419 0.1312630 0.0108282 255 0 0
-0.0247538 0.1312654 0.0108308 255 0 0
-0.0224658 0.1312657 0.0108312 255 0 0
-0.0201781 0.1312642 0.0108292 255 0 0
-0.0178904 0.1312607 0.0108241 255 0 0
-0.0156027 0.1312571 0.0108190 255 0 0
-0.0133152 0.1312467 0.0108044 255 0 0
-0.0110276 0.1312358 0.0107894 255 0 0
-0.0087397 0.1312397 0.0107954 255 0 0
-0.0064515 0.1312525 0.0108155 255 0 0
-0.0041634 0.1312584 0.0108262 255 0 0
-0.0750851 0.1335535 0.0108299 255 0 0
-0.0727996 0.1335419 0.0108075 255 0 0
-0.0705098 0.1335487 0.0108188 255 0 0
-0.0682216 0.1335529 0.0108214 255 0 0
-0.0659340 0.1335525 0.0108187 255 0 0
-0.0636466 0.1335537 0.0108139 255 0 0
-0.0613593 0.1335544 0.0108094 255 0 0
-0.0590717 0.1334267 0.0107972 255 0 0
-0.0567840 0.1333248 0.0107772 255 0 0
-0.0544950 0.1333417 0.0107493 255 0 0
-0.0522030 0.1334873 0.0106935 255 0 0
-0.0499072 0.1335848 0.0105563 255 0 0
-0.0316165 0.1335658 0.0108511 255 0 0
-0.0293286 0.1335675 0.0108532 255 0 0
-0.0270412 0.1335687 0.0108562 255 0 0
-0.0247531 0.1335680 0.0108554 255 0 0
-0.0224652 0.1335692 0.0108568 255 0 0
-0.0201775 0.1335707 0.0108596 255 0 0
-0.0178898 0.1335768 0.0108681 255 0 0
-0.0156020 0.1335824 0.0108762 255 0 0
-0.0133140 0.1335992 0.0109005 255 0 0
-0.0110260 0.1336170 0.0109244 255 0 0
-0.0224655 0.0329053 0.0131407 255 0 0
-0.0201778 0.0329053 0.0131407 255 0 0
-0.0636456 0.0351931 0.0131407 255 0 0
-0.0613578 0.0351931 0.0131407 255 0 0
-0.0590700 0.0351931 0.0131407 255 0 0
-0.0567822 0.0351931 0.0131407 255 0 0
-0.0544945 0.0351931 0.0131407 255 0 0
-0.0522067 0.0351931 0.0131407 255 0 0
-0.0499189 0.0351931 0.0131407 255 0 0
-0.0476311 0.0351931 0.0131407 255 0 0
-0.0453433 0.0351931 0.0131407 255 0 0
-0.0430556 0.0351931 0.0131407 255 0 0
-0.0407678 0.0351931 0.0131407 255 0 0
-0.0384800 0.0351931 0.0131407 255 0 0
-0.0361922 0.0351931 0.0131407 255 0 0
-0.0339044 0.0351931 0.0131407 255 0 0
-0.0316167 0.0351931 0.0131407 255 0 0
-0.0293289 0.0351931 0.0131407 255 0 0
-0.0270411 0.0351931 0.0131407 255 0 0
-0.0247533 0.0351931 0.0131407 255 0 0
-0.0224655 0.0351931 0.0131407 255 0 0
-0.0201778 0.0351931 0.0131407 255 0 0
-0.0178900 0.0351931 0.0131407 255 0 0
-0.0156022 0.0351931 0.0131407 255 0 0
-0.0133144 0.0351931 0.0131407 255 0 0
-0.0682212 0.0374809 0.0131407 255 0 0
-0.0659334 0.0374809 0.0131407 255 0 0
-0.0636456 0.0374809 0.0131407 255 0 0
-0.0613578 0.0374809 0.0131407 255 0 0
-0.0590700 0.0374809 0.0131407 255 0 0
-0.0567822 0.0374809 0.0131407 255 0 0
-0.0544945 0.0374809 0.0131407 255 0 0
-0.0522067 0.0374809 0.0131407 255 0 0
-0.0499189 0.0374809 0.0131407 255 0 0
-0.0476311 0.0374809 0.0131407 255 0 0
-0.0453433 0.0374809 0.0131407 255 0 0
-0.0430556 0.0374809 0.0131407 255 0 0
-0.0407678 0.0374809 0.0131407 255 0 0
-0.0384800 0.0374809 0.0131407 255 0 0
-0.0361922 0.0374809 0.0131407 255 0 0
-0.0339044 0.0374809 0.0131407 255 0 0
-0.0316167 0.0374809 0.0131407 255 0 0
-0.0293289 0.0374809 0.0131407 255 0 0
-0.0270411 0.0374809 0.0131407 255 0 0
-0.0247533 0.0374809 0.0131407 255 0 0
-0.0224655 0.0374809 0.0131407 255 0 0
-0.0201778 0.0374809 0.0131407 255 0 0
-0.0178900 0.0374809 0.0131407 255 0 0
-0.0156022 0.0374809 0.0131407 255 0 0
-0.0133144 0.0374809 0.0131407 255 0 0
-0.0110266 0.0374808 0.0131407 255 0 0
-0.0087389 0.0374808 0.0131407 255 0 0
-0.0727967 0.0397687 0.0131407 255 0 0
-0.0705089 0.0397687 0.0131407 255 0 0
-0.0682212 0.0397687 0.0131407 255 0 0
-0.0659334 0.0397687 0.0131407 255 0 0
-0.0636456 0.0397687 0.0131407 255 0 0
-0.0613578 0.0397687 0.0131407 255 0 0
-0.0590700 0.0397687 0.0131407 255 0 0
-0.0567822 0.0397687 0.0131407 255 0 0
-0.0544945 0.0397687 0.0131407 255 0 0
-0.0522067 0.0397687 0.0131407 255 0 0
-0.0499189 0.0397687 0.0131407 255 0 0
-0.0476311 0.0397687 0.0131407 255 0 0
-0.0453433 0.0397687 0.0131407 255 0 0
-0.0430556 0.0397687 0.0131407 255 0 0
-0.0407678 0.0397687 0.0131407 255 0 0
-0.0384800 0.0397687 0.0131407 255 0 0
-0.0361922 0.0397687 0.0131407 255 0 0
-0.0339044 0.0397687 0.0131407 255 0 0
-0.0316167 0.0397687 0.0131407 255 0 0
-0.0293289 0.0397687 0.0131407 255 0 0
-0.0270411 0.0397687 0.0131407 255 0 0
-0.0247533 0.0397687 0.0131407 255 0 0
-0.0224655 0.0397686 0.0131407 255 0 0
-0.0201778 0.0397687 0.0131407 255 0 0
-0.0178900 0.0397687 0.0131407 255 0 0
-0.0156022 0.0397686 0.0131407 255 0 0
-0.0133144 0.0397686 0.0131407 255 0 0
-0.0110266 0.0397686 0.0131407 255 0 0
-0.0087389 0.0397686 0.0131407 255 0 0
-0.0064511 0.0397685 0.0131407 255 0 0
-0.0750845 0.0420564 0.0131407 255 0 0
-0.0727967 0.0420564 0.0131407 255 0 0
-0.0705089 0.0420564 0.0131407 255 0 0
-0.0682212 0.0420564 0.0131407 255 0 0
-0.0659334 0.0420564 0.0131407 255 0 0
-0.0636456 0.0420564 0.0131407 255 0 0
-0.0613578 0.0420564 0.0131407 255 0 0
-0.0590700 0.0420564 0.0131407 255 0 0
-0.0567822 0.0420564 0.0131407 255 0 0
-0.0544945 0.0420564 0.0131407 255 0 0
-0.0522067 0.0420564 0.0131407 255 0 0
-0.0499189 0.0420564 0.0131407 255 0 0
-0.0476311 0.0420564 0.0131407 255 0 0
-0.0453433 0.0420564 0.0131407 255 0 0
-0.0430556 0.0420564 0.0131407 255 0 0
-0.0407678 0.0420564 0.0131407 255 0 0
-0.0384800 0.0420564 0.0131407 255 0 0
-0.0361922 0.0420564 0.0131407 255 0 0
-0.0339044 0.0420564 0.0131407 255 0 0
-0.0316167 0.0420564 0.0131407 255 0 0
-0.0293289 0.0420564 0.0131407 255 0 0
-0.0270411 0.0420564 0.0131407 255 0 0
-0.0247533 0.0420564 0.0131407 255 0 0
-0.0224655 0.0420564 0.0131407 255 0 0
-0.0201778 0.0420564 0.0131407 255 0 0
-0.0178900 0.0420564 0.0131407 255 0 0
-0.0156022 0.0420564 0.0131407 255 0 0
-0.0133144 0.0420564 0.0131407 255 0 0
-0.0110266 0.0420563 0.0131407 255 0 0
-0.0087389 0.0420562 0.0131407 255 0 0
-0.0064511 0.0420559 0.0131407 255 0 0
-0.0041633 0.0420553 0.0131407 255 0 0
-0.0773723 0.0443442 0.0131407 255 0 0
-0.0750845 0.0443442 0.0131407 255 0 0
-0.0727967 0.0443442 0.0131407 255 0 0
-0.0705089 0.0443442 0.0131407 255 0 0
-0.0682212 0.0443442 0.0131407 255 0 0
-0.0659334 0.0443442 0.0131407 255 0 0
-0.0636456 0.0443442 0.0131407 255 0 0
-0.0613578 0.0443442 0.0131407 255 0 0
-0.0590700 0.0443442 0.0131407 255 0 0
-0.0567822 0.0443442 0.0131407 255 0 0
-0.0544945 0.0443442 0.0131407 255 0 0
-0.0522067 0.0443442 0.0131407 255 0 0
-0.0499189 0.0443442 0.0131407 255 0 0
-0.0476311 0.0443442 0.0131407 255 0 0
-0.0453433 0.0443442 0.0131407 255 0 0
-0.0430556 0.0443442 0.0131407 255 0 0
-0.0407678 0.0443442 0.0131407 255 0 0
-0.0384800 0.0443442 0.0131407 255 0 0
-0.0361922 0.0443442 0.0131407 255 0 0
-0.0339044 0.0443442 0.0131407 255 0 0
-0.0316167 0.0443442 0.0131407 255 0 0
-0.0293289 0.0443442 0.0131407 255 0 0
-0.0270411 0.0443442 0.0131407 255 0 0
-0.0247533 0.0443442 0.0131407 255 0 0
-0.0224655 0.0443442 0.0131407 255 0 0
-0.0201778 0.0443442 0.0131407 255 0 0
-0.0178900 0.0443442 0.0131407 255 0 0
-0.0156022 0.0443442 0.0131407 255 0 0
-0.0133144 0.0443441 0.0131407 255 0 0
-0.0110267 0.0443441 0.0131407 255 0 0
-0.0087389 0.0443439 0.0131407 255 0 0
-0.0064511 0.0443435 0.0131407 255 0 0
-0.0041634 0.0443427 0.0131407 255 0 0
-0.0018795 0.0443367 0.0131407 255 0 0
-0.0773723 0.0466320 0.0131407 255 0 0
-0.0750845 0.0466320 0.0131407 255 0 0
-0.0727967 0.0466320 0.0131407 255 0 0
-0.0705089 0.0466320 0.0131407 255 0 0
-0.0682212 0.0466320 0.0131407 255 0 0
-0.0659334 0.0466320 0.0131407 255 0 0
-0.0636456 0.0466320 0.0131407 255 0 0
-0.0613578 0.0466320 0.0131407 255 0 0
-0.0590700 0.0466320 0.0131407 255 0 0
-0.0567822 0.0466320 0.0131407 255 0 0
-0.0544945 0.0466320 0.0131407 255 0 0
-0.0522067 0.0466320 0.0131407 255 0 0
-0.0499189 0.0466320 0.0131407 255 0 0
-0.0476311 0.0466320 0.0131407 255 0 0
-0.0453433 0.0466320 0.0131407 255 0 0
-0.0430556 0.0466320 0.0131407 255 0 0
-0.0407678 0.0466320 0.0131407 255 0 0
-0.0384800 0.0466320 0.0131407 255 0 0
-0.0361922 0.0466320 0.0131407 255 0 0
-0.0339044 0.0466320 0.0131407 255 0 0
-0.0316167 0.0466320 0.0131407 255 0 0
-0.0293289 0.0466320 0.0131407 255 0 0
-0.0270411 0.0466320 0.0131407 255 0 0
-0.0247533 0.0466320 0.0131407 255 0 0
-0.0224655 0.0466320 0.0131407 255 0 0
-0.0201778 0.0466320 0.0131407 255 0 0
-0.0178900 0.0466320 0.0131407 255 0 0
-0.0156022 0.0466320 0.0131407 255 0 0
-0.0133144 0.0466319 0.0131407 255 0 0
-0.0110267 0.0466319 0.0131407 255 0 0
-0.0087389 0.0466318 0.0131407 255 0 0
-0.0064511 0.0466316 0.0131407 255 0 0
-0.0041634 0.0466313 0.0131407 255 0 0
-0.0018779 0.0466288 0.0131406 255 0 0
0.0004122 0.0466384 0.0131408 255 0 0
-0.0796601 0.0489198 0.0131407 255 0 0
-0.0773723 0.0489198 0.0131407 255 0 0
-0.0750845 0.0489198 0.0131407 255 0 0
-0.0727967 0.0489198 0.0131407 255 0 0
-0.0705089 0.0489198 0.0131407 255 0 0
-0.0682212 0.0489198 0.0131407 255 0 0
-0.0659334 0.0489198 0.0131407 255 0 0
-0.0636456 0.0489198 0.0131407 255 0 0
-0.0613578 0.0489198 0.0131407 255 0 0
-0.0590700 0.0489198 0.0131407 255 0 0
-0.0567822 0.0489198 0.0131407 255 0 0
-0.0544945 0.0489198 0.0131407 255 0 0
-0.0522067 0.0489198 0.0131407 255 0 0
-0.0499189 0.0489198 0.0131407 255 0 0
-0.0476311 0.0489198 0.0131407 255 0 0
-0.0453433 0.0489198 0.0131407 255 0 0
-0.0430556 0.0489198 0.0131407 255 0 0
-0.0407678 0.0489198 0.0131407 255 0 0
-0.0384800 0.0489198 0.0131407 255 0 0
-0.0361922 0.0489198 0.0131407 255 0 0
-0.0339044 0.0489198 0.0131407 255 0 0
-0.0316167 0.0489198 0.0131407 255 0 0
-0.0293289 0.0489198 0.0131407 255 0 0
-0.0270411 0.0489198 0.0131407 255 0 0
-0.0247533 0.0489198 0.0131407 255 0 0
-0.0224655 0.0489198 0.0131407 255 0 0
-0.0201778 0.0489198 0.0131407 255 0 0
-0.0178900 0.0489198 0.0131407 255 0 0
-0.0156022 0.0489197 0.0131407 255 0 0
-0.0133144 0.0489197 0.0131407 255 0 0
-0.0110267 0.0489197 0.0131407 255 0 0
-0.0087389 0.0489197 0.0131407 255 0 0
-0.0064511 0.0489196 0.0131407 255 0 0
-0.0041634 0.0489196 0.0131407 255 0 0
-0.0018764 0.0489192 0.0131406 255 0 0
0.0004123 0.0489206 0.0131408 255 0 0
-0.0819478 0.0512076 0.0131407 255 0 0
-0.0796601 0.0512076 0.0131407 255 0 0
-0.0773723 0.0512076 0.0131407 255 0 0
-0.0750845 0.0512076 0.0131407 255 0 0
-0.0727967 0.0512076 0.0131407 255 0 0
-0.0705089 0.0512076 0.0131407 255 0 0
-0.0682212 0.0512076 0.0131407 255 0 0
-0.0659334 0.0512076 0.0131407 255 0 0
-0.0636456 0.0512076 0.0131407 255 0 0
-0.0613578 0.0512076 0.0131407 255 0 0
-0.0590700 0.0512076 0.0131407 255 0 0
-0.0567822 0.0512076 0.0131407 255 0 0
-0.0544945 0.0512076 0.0131407 255 0 0
-0.0522067 0.0512076 0.0131407 255 0 0
-0.0499189 0.0512076 0.0131407 255 0 0
-0.0476311 0.0512076 0.0131407 255 0 0
-0.0453433 0.0512076 0.0131407 255 0 0
-0.0430556 0.0512076 0.0131407 255 0 0
-0.0407678 0.0512076 0.0131407 255 0 0
-0.0384800 0.0512076 0.0131407 255 0 0
-0.0361922 0.0512076 0.0131407 255 0 0
-0.0339044 0.0512076 0.0131407 255 0 0
-0.0316167 0.0512076 0.0131407 255 0 0
-0.0293289 0.0512076 0.0131407 255 0 0
-0.0270411 0.0512076 0.0131407 255 0 0
-0.0247533 0.0512076 0.0131407 255 0 0
-0.0224655 0.0512076 0.0131407 255 0 0
-0.0201778 0.0512076 0.0131407 255 0 0
-0.0178900 0.0512076 0.0131407 255 0 0
-0.0156022 0.0512075 0.0131407 255 0 0
-0.0133144 0.0512075 0.0131407 255 0 0
-0.0110267 0.0512075 0.0131407 255 0 0
-0.0087389 0.0512075 0.0131407 255 0 0
-0.0064511 0.0512075 0.0131407 255 0 0
-0.0041633 0.0512074 0.0131407 255 0 0
-0.0018754 0.0512073 0.0131406 255 0 0
0.0004116 0.0512074 0.0131408 255 0 0
0.0026983 0.0512073 0.0131410 255 0 0
-0.0842356 0.0534954 0.0131407 255 0 0
-0.0819478 0.0534954 0.0131407 255 0 0
-0.0796601 0.0534954 0.0131407 255 0 0
-0.0773723 0.0534954 0.0131407 255 0 0
-0.0750845 0.0534954 0.0131407 255 0 0
-0.0727967 0.0534954 0.0131407 255 0 0
-0.0705089 0.0534954 0.0131407 255 0 0
-0.0682212 0.0534954 0.0131407 255 0 0
-0.0659334 0.0534954 0.0131407 255 0 0
-0.0636456 0.0534954 0.0131407 255 0 0
-0.0613578 0.0534954 0.0131407 255 0 0
-0.0590700 0.0534954 0.0131407 255 0 0
-0.0567822 0.0534954 0.0131407 255 0 0
-0.0544945 0.0534954 0.0131407 255 0 0
-0.0522067 0.0534954 0.0131407 255 0 0
-0.0499189 0.0534954 0.0131407 255 0 0
-0.0476311 0.0534954 0.0131407 255 0 0
-0.0453433 0.0534954 0.0131407 255 0 0
-0.0430556 0.0534954 0.0131407 255 0 0
-0.0407678 0.0534954 0.0131407 255 0 0
-0.0384800 0.0534954 0.0131407 255 0 0
-0.0361922 0.0534954 0.0131407 255 0 0
-0.0339044 0.0534954 0.0131407 255 0 0
-0.0316167 0.0534954 0.0131407 255 0 0
-0.0293289 0.0534954 0.0131407 255 0 0
-0.0270411 0.0534954 0.0131407 255 0 0
-0.0247533 0.0534954 0.0131407 255 0 0
-0.0224655 0.0534954 0.0131407 255 0 0
-0.0201778 0.0534954 0.0131407 255 0 0
-0.0178900 0.0534954 0.0131407 255 0 0
-0.0156022 0.0534954 0.0131407 255 0 0
-0.0133144 0.0534953 0.0131407 255 0 0
-0.0110267 0.0534953 0.0131407 255 0 0
-0.0087389 0.0534953 0.0131407 255 0 0
-0.0064511 0.0534953 0.0131407 255 0 0
-0.0041633 0.0534953 0.0131407 255 0 0
-0.0018740 0.0534953 0.0131407 255 0 0
0.0004113 0.0534947 0.0131408 255 0 0
0.0026974 0.0534943 0.0131410 255 0 0
0.0049882 0.0534946 0.0131408 255 0 0
-0.0842356 0.0557831 0.0131407 255 0 0
-0.0819478 0.0557831 0.0131407 255 0 0
-0.0796601 0.0557831 0.0131407 255 0 0
-0.0773723 0.0557831 0.0131407 255 0 0
-0.0750845 0.0557831 0.0131407 255 0 0
-0.0727967 0.0557831 0.0131407 255 0 0
-0.0705089 0.0557831 0.0131407 255 0 0
-0.0682212 0.0557831 0.0131407 255 0 0
-0.0659334 0.0557831 0.0131407 255 0 0
-0.0636456 0.0557831 0.0131407 255 0 0
-0.0613578 0.0557831 0.0131407 255 0 0
-0.0590700 0.0557831 0.0131407 255 0 0
-0.0567822 0.0557831 0.0131407 255 0 0
-0.0544945 0.0557831 0.0131407 255 0 0
-0.0522067 0.0557831 0.0131407 255 0 0
-0.0499189 0.0557831 0.0131407 255 0 0
-0.0476311 0.0557831 0.0131407 255 0 0
-0.0453433 0.0557831 0.0131407 255 0 0
-0.0430556 0.0557831 0.0131407 255 0 0
-0.0407678 0.0557831 0.0131407 255 0 0
-0.0384800 0.0557831 0.0131407 255 0 0
-0.0361922 0.0557831 0.0131407 255 0 0
-0.0339044 0.0557831 0.0131407 255 0 0
-0.0316167 0.0557831 0.0131407 255 0 0
-0.0293289 0.0557831 0.0131407 255 0 0
-0.0270411 0.0557831 0.0131407 255 0 0
-0.0247533 0.0557831 0.0131407 255 0 0
-0.0224655 0.0557831 0.0131407 255 0 0
-0.0201778 0.0557831 0.0131407 255 0 0
-0.0178900 0.0557831 0.0131407 255 0 0
-0.0156022 0.0557831 0.0131407 255 0 0
-0.0133144 0.0557831 0.0131407 255 0 0
-0.0110267 0.0557831 0.0131407 255 0 0
-0.0087389 0.0557831 0.0131407 255 0 0
-0.0064511 0.0557831 0.0131407 255 0 0
-0.0041633 0.0557831 0.0131407 255 0 0
-0.0018740 0.0557831 0.0131407 255 0 0
0.0004116 0.0557823 0.0131408 255 0 0
0.0026975 0.0557819 0.0131409 255 0 0
0.0049882 0.0557823 0.0131408 255 0 0
-0.0865234 0.0580709 0.0131407 255 0 0
-0.0842356 0.0580709 0.0131407 255 0 0
-0.0819478 0.0580709 0.0131407 255 0 0
-0.0796601 0.0580709 0.0131407 255 0 0
-0.0773723 0.0580709 0.0131407 255 0 0
-0.0750845 0.0580709 0.0131407 255 0 0
-0.0727967 0.0580709 0.0131407 255 0 0
-0.0705089 0.0580709 0.0131407 255 0 0
-0.0682212 0.0580709 0.0131407 255 0 0
-0.0659334 0.0580709 0.0131407 255 0 0
-0.0636456 0.0580709 0.0131407 255 0 0
-0.0613578 0.0580709 0.0131407 255 0 0
-0.0590700 0.0580709 0.0131407 255 0 0
-0.0567822 0.0580709 0.0131407 255 0 0
-0.0544945 0.0580709 0.0131407 255 0 0
-0.0522067 0.0580709 0.0131407 255 0 0
-0.0499189 0.0580709 0.0131407 255 0 0
-0.0476311 0.0580709 0.0131407 255 0 0
-0.0453433 0.0580709 0.0131407 255 0 0
-0.0430556 0.0580709 0.0131407 255 0 0
-0.0407678 0.0580709 0.0131407 255 0 0
-0.0384800 0.0580709 0.0131407 255 0 0
-0.0361922 0.0580709 0.0131407 255 0 0
-0.0339044 0.0580709 0.0131407 255 0 0
-0.0316167 0.0580709 0.0131407 255 0 0
-0.0293289 0.0580709 0.0131407 255 0 0
-0.0270411 0.0580709 0.0131407 255 0 0
-0.0247533 0.0580709 0.0131407 255 0 0
-0.0224655 0.0580709 0.0131407 255 0 0
-0.0201778 0.0580709 0.0131407 255 0 0
-0.0178900 0.0580709 0.0131407 255 0 0
-0.0156022 0.0580709 0.0131407 255 0 0
-0.0133144 0.0580710 0.0131407 255 0 0
-0.0110267 0.0580709 0.0131407 255 0 0
-0.0087389 0.0580709 0.0131407 255 0 0
-0.0064511 0.0580709 0.0131407 255 0 0
-0.0041633 0.0580709 0.0131407 255 0 0
-0.0018740 0.0580709 0.0131407 255 0 0
0.0004117 0.0580701 0.0131408 255 0 0
0.0026975 0.0580697 0.0131409 255 0 0
0.0049882 0.0580701 0.0131409 255 0 0
0.0072760 0.0580702 0.0131408 255 0 0
-0.0865234 0.0603587 0.0131407 255 0 0
-0.0842356 0.0603587 0.0131407 255 0 0
-0.0819478 0.0603587 0.0131407 255 0 0
-0.0796601 0.0603587 0.0131407 255 0 0
-0.0773723 0.0603587 0.0131407 255 0 0
-0.0750845 0.0603587 0.0131407 255 0 0
-0.0727967 0.0603587 0.0131407 255 0 0
-0.0705089 0.0603587 0.0131407 255 0 0
-0.0682212 0.0603587 0.0131407 255 0 0
-0.0659334 0.0603587 0.0131407 255 0 0
-0.0636456 0.0603587 0.0131407 255 0 0
-0.0613578 0.0603587 0.0131407 255 0 0
-0.0590700 0.0603587 0.0131407 255 0 0
-0.0567822 0.0603587 0.0131407 255 0 0
-0.0544945 0.0603587 0.0131407 255 0 0
-0.0522067 0.0603587 0.0131407 255 0 0
-0.0499189 0.0603587 0.0131407 255 0 0
-0.0476311 0.0603587 0.0131407 255 0 0
-0.0453433 0.0603587 0.0131407 255 0 0
-0.0430556 0.0603587 0.0131407 255 0 0
-0.0407678 0.0603587 0.0131407 255 0 0
-0.0384800 0.0603587 0.0131407 255 0 0
-0.0361922 0.0603587 0.0131407 255 0 0
-0.0339044 0.0603587 0.0131407 255 0 0
-0.0316167 0.0603587 0.0131407 255 0 0
-0.0293289 0.0603587 0.0131407 255 0 0
-0.0270411 0.0603587 0.0131407 255 0 0
-0.0247533 0.0603587 0.0131407 255 0 0
-0.0224655 0.0603587 0.0131407 255 0 0
-0.0201778 0.0603587 0.0131407 255 0 0
-0.0178900 0.0603587 0.0131407 255 0 0
-0.0156022 0.0603587 0.0131407 255 0 0
-0.0133144 0.0603587 0.0131407 255 0 0
-0.0110267 0.0603587 0.0131407 255 0 0
-0.0087389 0.0603587 0.0131407 255 0 0
-0.0064511 0.0603587 0.0131407 255 0 0
-0.0041633 0.0603587 0.0131407 255 0 0
-0.0018740 0.0603587 0.0131407 255 0 0
0.0004120 0.0603580 0.0131408 255 0 0
0.0026996 0.0603577 0.0131409 255 0 0
0.0049882 0.0603579 0.0131408 255 0 0
0.0072760 0.0603581 0.0131408 255 0 0
-0.0888112 0.0626465 0.0131407 255 0 0
-0.0865234 0.0626465 0.0131407 255 0 0
-0.0842356 0.0626465 0.0131407 255 0 0
-0.0819478 0.0626465 0.0131407 255 0 0
-0.0796601 0.0626465 0.0131407 255 0 0
-0.0773723 0.0626465 0.0131407 255 0 0
-0.0750845 0.0626465 0.0131407 255 0 0
-0.0727967 0.0626465 0.0131407 255 0 0
-0.0705089 0.0626465 0.0131407 255 0 0
-0.0682212 0.0626465 0.0131407 255 0 0
-0.0659334 0.0626465 0.0131407 255 0 0
-0.0636456 0.0626465 0.0131407 255 0 0
-0.0613578 0.0626465 0.0131407 255 0 0
-0.0590700 0.0626465 0.0131407 255 0 0
-0.0567822 0.0626465 0.0131407 255 0 0
-0.0544945 0.0626465 0.0131407 255 0 0
-0.0522067 0.0626465 0.0131407 255 0 0
-0.0499189 0.0626465 0.0131407 255 0 0
-0.0476311 0.0626465 0.0131407 255 0 0
-0.0453433 0.0626465 0.0131407 255 0 0
-0.0430556 0.0626465 0.0131407 255 0 0
-0.0407678 0.0626465 0.0131407 255 0 0
-0.0384800 0.0626465 0.0131407 255 0 0
-0.0361922 0.0626465 0.0131407 255 0 0
-0.0339044 0.0626465 0.0131407 255 0 0
-0.0316167 0.0626465 0.0131407 255 0 0
-0.0293289 0.0626465 0.0131407 255 0 0
-0.0270411 0.0626465 0.0131407 255 0 0
-0.0247533 0.0626465 0.0131407 255 0 0
-0.0224655 0.0626465 0.0131407 255 0 0
-0.0201778 0.0626465 0.0131407 255 0 0
-0.0178900 0.0626465 0.0131407 255 0 0
-0.0156022 0.0626465 0.0131407 255 0 0
-0.0133144 0.0626465 0.0131407 255 0 0
-0.0110266 0.0626465 0.0131407 255 0 0
-0.0087389 0.0626465 0.0131407 255 0 0
-0.0064511 0.0626465 0.0131407 255 0 0
-0.0041633 0.0626465 0.0131407 255 0 0
-0.0018740 0.0626465 0.0131407 255 0 0
0.0004120 0.0626459 0.0131408 255 0 0
0.0027000 0.0626457 0.0131408 255 0 0
0.0049882 0.0626458 0.0131408 255 0 0
0.0072759 0.0626460 0.0131408 255 0 0
0.0095637 0.0626460 0.0131408 255 0 0
-0.0888112 0.0649343 0.0131407 255 0 0
-0.0865234 0.0649343 0.0131407 255 0 0
-0.0842356 0.0649343 0.0131407 255 0 0
-0.0819478 0.0649343 0.0131407 255 0 0
-0.0796601 0.0649343 0.0131407 255 0 0
-0.0773723 0.0649343 0.0131407 255 0 0
-0.0750845 0.0649343 0.0131407 255 0 0
-0.0727967 0.0649343 0.0131407 255 0 0
-0.0705089 0.0649343 0.0131407 255 0 0
-0.0682212 0.0649343 0.0131407 255 0 0
-0.0659334 0.0649343 0.0131407 255 0 0
-0.0636456 0.0649343 0.0131407 255 0 0
-0.0613578 0.0649343 0.0131407 255 0 0
-0.0590700 0.0649343 0.0131407 255 0 0
-0.0567822 0.0649343 0.0131407 255 0 0
-0.0544945 0.0649343 0.0131407 255 0 0
-0.0522067 0.0649343 0.0131407 255 0 0
-0.0499189 0.0649343 0.0131407 255 0 0
-0.0476311 0.0649343 0.0131407 255 0 0
-0.0453433 0.0649343 0.0131407 255 0 0
-0.0430556 0.0649343 0.0131407 255 0 0
-0.0407678 0.0649343 0.0131407 255 0 0
-0.0384800 0.0649343 0.0131407 255 0 0
-0.0361922 0.0649343 0.0131407 255 0 0
-0.0339044 0.0649343 0.0131407 255 0 0
-0.0316167 0.0649343 0.0131407 255 0 0
-0.0293289 0.0649343 0.0131407 255 0 0
-0.0270411 0.0649343 0.0131407 255 0 0
-0.0247533 0.0649343 0.0131407 255 0 0
-0.0224655 0.0649343 0.0131407 255 0 0
-0.0201778 0.0649343 0.0131407 255 0 0
-0.0178900 0.0649343 0.0131407 255 0 0
-0.0156022 0.0649343 0.0131407 255 0 0
-0.0133144 0.0649343 0.0131407 255 0 0
-0.0110266 0.0649343 0.0131407 255 0 0
-0.0087389 0.0649343 0.0131407 255 0 0
-0.0064511 0.0649343 0.0131407 255 0 0
-0.0041633 0.0649343 0.0131407 255 0 0
-0.0018755 0.0649343 0.0131407 255 0 0
0.0004123 0.0649339 0.0131408 255 0 0
0.0027002 0.0649337 0.0131408 255 0 0
0.0049881 0.0649338 0.0131408 255 0 0
0.0072758 0.0649339 0.0131408 255 0 0
0.0095636 0.0649339 0.0131407 255 0 0
-0.0910990 0.0672220 0.0131407 255 0 0
-0.0888112 0.0672220 0.0131407 255 0 0
-0.0865234 0.0672220 0.0131407 255 0 0
-0.0842356 0.0672220 0.0131407 255 0 0
-0.0819478 0.0672220 0.0131407 255 0 0
-0.0796601 0.0672220 0.0131407 255 0 0
-0.0773723 0.0672220 0.0131407 255 0 0
-0.0750845 0.0672220 0.0131407 255 0 0
-0.0727967 0.0672220 0.0131407 255 0 0
-0.0705089 0.0672220 0.0131407 255 0 0
-0.0682212 0.0672220 0.0131407 255 0 0
-0.0659334 0.0672220 0.0131407 255 0 0
-0.0636456 0.0672220 0.0131407 255 0 0
-0.0613578 0.0672220 0.0131407 255 0 0
-0.0590700 0.0672220 0.0131407 255 0 0
-0.0567822 0.0672220 0.0131407 255 0 0
-0.0544945 0.0672220 0.0131407 255 0 0
-0.0522067 0.0672220 0.0131407 255 0 0
-0.0499189 0.0672220 0.0131407 255 0 0
-0.0476311 0.0672220 0.0131407 255 0 0
-0.0453433 0.0672220 0.0131407 255 0 0
-0.0430556 0.0672220 0.0131407 255 0 0
-0.0407678 0.0672220 0.0131407 255 0 0
-0.0384800 0.0672220 0.0131407 255 0 0
-0.0361922 0.0672220 0.0131407 255 0 0
-0.0339044 0.0672220 0.0131407 255 0 0
-0.0316167 0.0672220 0.0131407 255 0 0
-0.0293289 0.0672220 0.0131407 255 0 0
-0.0270411 0.0672220 0.0131407 255 0 0
-0.0247533 0.0672220 0.0131407 255 0 0
-0.0224655 0.0672220 0.0131407 255 0 0
-0.0201778 0.0672220 0.0131407 255 0 0
-0.0178900 0.0672220 0.0131407 255 0 0
-0.0156022 0.0672220 0.0131407 255 0 0
-0.0133144 0.0672220 0.0131407 255 0 0
-0.0110266 0.0672220 0.0131407 255 0 0
-0.0087388 0.0672220 0.0131407 255 0 0
-0.0064511 0.0672220 0.0131407 255 0 0
-0.0041633 0.0672220 0.0131407 255 0 0
-0.0018755 0.0672220 0.0131407 255 0 0
0.0004123 0.0672218 0.0131407 255 0 0
0.0027002 0.0672217 0.0131407 255 0 0
0.0049880 0.0672218 0.0131407 255 0 0
0.0072757 0.0672218 0.0131407 255 0 0
0.0095635 0.0672218 0.0131407 255 0 0
0.0118513 0.0672219 0.0131407 255 0 0
-0.0910990 0.0695098 0.0131407 255 0 0
-0.0888112 0.0695098 0.0131407 255 0 0
-0.0865234 0.0695098 0.0131407 255 0 0
-0.0842356 0.0695098 0.0131407 255 0 0
-0.0819478 0.0695098 0.0131407 255 0 0
-0.0796601 0.0695098 0.0131407 255 0 0
-0.0773723 0.0695098 0.0131407 255 0 0
-0.0750845 0.0695098 0.0131407 255 0 0
-0.0727967 0.0695098 0.0131407 255 0 0
-0.0705089 0.0695098 0.0131407 255 0 0
-0.0682212 0.0695098 0.0131407 255 0 0
-0.0659334 0.0695098 0.0131407 255 0 0
-0.0636456 0.0695098 0.0131407 255 0 0
-0.0613578 0.0695098 0.0131407 255 0 0
-0.0590700 0.0695098 0.0131407 255 0 0
-0.0567822 0.0695098 0.0131407 255 0 0
-0.0544945 0.0695098 0.0131407 255 0 0
-0.0522067 0.0695098 0.0131407 255 0 0
-0.0499189 0.0695098 0.0131407 255 0 0
-0.0476311 0.0695098 0.0131407 255 0 0
-0.0453433 0.0695098 0.0131407 255 0 0
-0.0430556 0.0695098 0.0131407 255 0 0
-0.0407678 0.0695098 0.0131407 255 0 0
-0.0384800 0.0695098 0.0131407 255 0 0
-0.0361922 0.0695098 0.0131407 255 0 0
-0.0339044 0.0695098 0.0131407 255 0 0
-0.0316167 0.0695098 0.0131407 255 0 0
-0.0293289 0.0695098 0.0131407 255 0 0
-0.0270411 0.0695098 0.0131407 255 0 0
-0.0247533 0.0695098 0.0131407 255 0 0
-0.0224655 0.0695098 0.0131407 255 0 0
-0.0201778 0.0695098 0.0131407 255 0 0
-0.0178900 0.0695098 0.0131407 255 0 0
-0.0156022 0.0695098 0.0131407 255 0 0
-0.0133144 0.0695098 0.0131407 255 0 0
-0.0110266 0.0695098 0.0131407 255 0 0
-0.0087388 0.0695098 0.0131407 255 0 0
-0.0064511 0.0695098 0.0131407 255 0 0
-0.0041633 0.0695098 0.0131407 255 0 0
-0.0018755 0.0695098 0.0131407 255 0 0
0.0004123 0.0695097 0.0131407 255 0 0
0.0027001 0.0695097 0.0131407 255 0 0
0.0049879 0.0695097 0.0131407 255 0 0
0.0072757 0.0695097 0.0131407 255 0 0
0.0095634 0.0695097 0.0131407 255 0 0
0.0118512 0.0695097 0.0131407 255 0 0
-0.0910990 0.0717976 0.0131407 255 0 0
-0.0888112 0.0717976 0.0131407 255 0 0
-0.0865234 0.0717976 0.0131407 255 0 0
-0.0842356 0.0717976 0.0131407 255 0 0
-0.0819478 0.0717976 0.0131407 255 0 0
-0.0796601 0.0717976 0.0131407 255 0 0
-0.0773723 0.0717976 0.0131407 255 0 0
-0.0750845 0.0717976 0.0131407 255 0 0
-0.0727967 0.0717976 0.0131407 255 0 0
-0.0705089 0.0717976 0.0131407 255 0 0
-0.0682212 0.0717976 0.0131407 255 0 0
-0.0659334 0.0717976 0.0131407 255 0 0
-0.0636456 0.0717976 0.0131407 255 0 0
-0.0613578 0.0717976 0.0131407 255 0 0
-0.0590700 0.0717976 0.0131407 255 0 0
-0.0567822 0.0717976 0.0131407 255 0 0
-0.0544945 0.0717976 0.0131407 255 0 0
-0.0522067 0.0717976 0.0131407 255 0 0
-0.0499189 0.0717976 0.0131407 255 0 0
-0.0476311 0.0717976 0.0131407 255 0 0
-0.0453433 0.0717976 0.0131407 255 0 0
-0.0430556 0.0717976 0.0131407 255 0 0
-0.0407678 0.0717976 0.0131407 255 0 0
-0.0384800 0.0717976 0.0131407 255 0 0
-0.0361922 0.0717976 0.0131407 255 0 0
-0.0339044 0.0717976 0.0131407 255 0 0
-0.0316167 0.0717976 0.0131407 255 0 0
-0.0293289 0.0717976 0.0131407 255 0 0
-0.0270411 0.0717976 0.0131407 255 0 0
-0.0247533 0.0717976 0.0131407 255 0 0
-0.0224655 0.0717976 0.0131407 255 0 0
-0.0201778 0.0717976 0.0131407 255 0 0
-0.0178900 0.0717976 0.0131407 255 0 0
-0.0156022 0.0717976 0.0131407 255 0 0
-0.0133144 0.0717976 0.0131407 255 0 0
-0.0110266 0.0717976 0.0131407 255 0 0
-0.0087388 0.0717976 0.0131407 255 0 0
-0.0064511 0.0717976 0.0131407 255 0 0
-0.0041633 0.0717976 0.0131407 255 0 0
-0.0018755 0.0717976 0.0131407 255 0 0
0.0004123 0.0717975 0.0131407 255 0 0
0.0027001 0.0717975 0.0131407 255 0 0
0.0049879 0.0717975 0.0131407 255 0 0
0.0072757 0.0717975 0.0131407 255 0 0
0.0095634 0.0717975 0.0131407 255 0 0
0.0118512 0.0717975 0.0131407 255 0 0
0.0141390 0.0717976 0.0131407 255 0 0
-0.0933868 0.0740854 0.0131407 255 0 0
-0.0910990 0.0740854 0.0131407 255 0 0
-0.0888112 0.0740854 0.0131407 255 0 0
-0.0865234 0.0740854 0.0131407 255 0 0
-0.0842356 0.0740854 0.0131407 255 0 0
-0.0819478 0.0740854 0.0131407 255 0 0
-0.0796601 0.0740854 0.0131407 255 0 0
-0.0773723 0.0740854 0.0131407 255 0 0
-0.0750845 0.0740854 0.0131407 255 0 0
-0.0727967 0.0740854 0.0131407 255 0 0
-0.0705089 0.0740854 0.0131407 255 0 0
-0.0682212 0.0740854 0.0131407 255 0 0
-0.0659334 0.0740854 0.0131407 255 0 0
-0.0636456 0.0740854 0.0131407 255 0 0
-0.0613578 0.0740854 0.0131407 255 0 0
-0.0590700 0.0740854 0.0131407 255 0 0
-0.0567822 0.0740854 0.0131407 255 0 0
-0.0544945 0.0740854 0.0131407 255 0 0
-0.0522067 0.0740854 0.0131407 255 0 0
