ply
format ascii 1.0
element vertex 1232
property float x
property float y
property float z
property uchar red
property uchar green
property uchar blue
end_header
-0.0568375 0.0692012 0.0030311 255 0 0
-0.0545722 0.0692025 0.0030322 255 0 0
-0.0523141 0.0692044 0.0030333 255 0 0
-0.0500233 0.0692065 0.0030342 255 0 0
-0.0477543 0.0692095 0.0030301 255 0 0
-0.0452541 0.0692098 0.0030491 255 0 0
-0.0428846 0.0692120 0.0030535 255 0 0
-0.0407321 0.0692169 0.0030326 255 0 0
-0.0385107 0.0692193 0.0030233 255 0 0
-0.0362258 0.0692181 0.0030294 255 0 0
-0.0339437 0.0692168 0.0030303 255 0 0
-0.0316707 0.0692172 0.0030320 255 0 0
-0.0294042 0.0692312 0.0030634 255 0 0
-0.0271312 0.0692741 0.0031228 255 0 0
-0.0248218 0.0692074 0.0030270 255 0 0
-0.0225196 0.0691808 0.0029651 255 0 0
-0.0201032 0.0692075 0.0030274 255 0 0
-0.0177822 0.0692254 0.0030598 255 0 0
-0.0155907 0.0692216 0.0030379 255 0 0
-0.0133539 0.0692210 0.0030280 255 0 0
-0.0110692 0.0692201 0.0030304 255 0 0
-0.0088035 0.0692201 0.0030310 255 0 0
-0.0065446 0.0692204 0.0030307 255 0 0
-0.0042597 0.0692204 0.0030323 255 0 0
-0.0020024 0.0692223 0.0030310 255 0 0
0.0004741 0.0692190 0.0030323 255 0 0
0.0028373 0.0692214 0.0030250 255 0 0
0.0050140 0.0692270 0.0030027 255 0 0
0.0072117 0.0692373 0.0029846 255 0 0
0.0094526 0.0692497 0.0029706 255 0 0
0.0116290 0.0692786 0.0029656 255 0 0
0.0137417 0.0693189 0.0029707 255 0 0
-0.0953991 0.0716228 0.0028757 255 0 0
-0.0932329 0.0716040 0.0029263 255 0 0
-0.0909481 0.0715438 0.0029952 255 0 0
-0.0886922 0.0715178 0.0030358 255 0 0
-0.0865021 0.0715183 0.0030316 255 0 0
-0.0842778 0.0715154 0.0030333 255 0 0
-0.0819924 0.0715091 0.0030422 255 0 0
-0.0797055 0.0715083 0.0030454 255 0 0
-0.0774472 0.0715079 0.0030485 255 0 0
-0.0751839 0.0714960 0.0030719 255 0 0
-0.0728973 0.0714603 0.0031231 255 0 0
-0.0705537 0.0715096 0.0030493 255 0 0
-0.0682489 0.0715315 0.0030066 255 0 0
-0.0658735 0.0715064 0.0030425 255 0 0
-0.0635646 0.0714948 0.0030584 255 0 0
-0.0613606 0.0715012 0.0030470 255 0 0
-0.0591277 0.0715061 0.0030420 255 0 0
-0.0568414 0.0715080 0.0030433 255 0 0
-0.0545778 0.0715117 0.0030443 255 0 0
-0.0523246 0.0715143 0.0030452 255 0 0
-0.0500348 0.0715184 0.0030462 255 0 0
-0.0477687 0.0715207 0.0030421 255 0 0
-0.0452365 0.0715205 0.0030610 255 0 0
-0.0428611 0.0715206 0.0030648 255 0 0
-0.0407270 0.0715238 0.0030434 255 0 0
-0.0385185 0.0715252 0.0030339 255 0 0
-0.0362227 0.0715256 0.0030401 255 0 0
-0.0339427 0.0715262 0.0030413 255 0 0
-0.0316725 0.0715281 0.0030429 255 0 0
-0.0294096 0.0715354 0.0030706 255 0 0
-0.0271370 0.0715672 0.0031246 255 0 0
-0.0248258 0.0715245 0.0030365 255 0 0
-0.0225216 0.0715100 0.0029713 255 0 0
-0.0200915 0.0715246 0.0030381 255 0 0
-0.0177671 0.0715311 0.0030683 255 0 0
-0.0155862 0.0715307 0.0030467 255 0 0
-0.0133545 0.0715293 0.0030368 255 0 0
-0.0110690 0.0715282 0.0030390 255 0 0
-0.0088048 0.0715277 0.0030394 255 0 0
-0.0065487 0.0715279 0.0030393 255 0 0
-0.0042640 0.0715297 0.0030426 255 0 0
-0.0020080 0.0715354 0.0030442 255 0 0
0.0004837 0.0715306 0.0030441 255 0 0
0.0028548 0.0715309 0.0030366 255 0 0
0.0050277 0.0715396 0.0030160 255 0 0
0.0072284 0.0715523 0.0029976 255 0 0
0.0094777 0.0715621 0.0029842 255 0 0
0.0116751 0.0716075 0.0029620 255 0 0
0.0138179 0.0716705 0.0029288 255 0 0
-0.0953940 0.0739907 0.0027964 255 0 0
-0.0932841 0.0738934 0.0029312 255 0 0
-0.0909656 0.0738600 0.0030070 255 0 0
-0.0886959 0.0738287 0.0030502 255 0 0
-0.0865071 0.0738302 0.0030425 255 0 0
-0.0842806 0.0738283 0.0030423 255 0 0
-0.0819925 0.0738265 0.0030512 255 0 0
-0.0797054 0.0738280 0.0030543 255 0 0
-0.0774465 0.0738278 0.0030571 255 0 0
-0.0751823 0.0738088 0.0030806 255 0 0
-0.0728950 0.0737720 0.0031316 255 0 0
-0.0705829 0.0738234 0.0030591 255 0 0
-0.0682471 0.0738547 0.0030173 255 0 0
-0.0658655 0.0738211 0.0030522 255 0 0
-0.0635557 0.0738078 0.0030676 255 0 0
-0.0613598 0.0738175 0.0030563 255 0 0
-0.0591251 0.0738241 0.0030514 255 0 0
-0.0568427 0.0738266 0.0030528 255 0 0
-0.0545838 0.0738296 0.0030539 255 0 0
-0.0523291 0.0738332 0.0030549 255 0 0
-0.0500354 0.0738373 0.0030561 255 0 0
-0.0477739 0.0738402 0.0030519 255 0 0
-0.0452308 0.0738374 0.0030704 255 0 0
-0.0428516 0.0738378 0.0030738 255 0 0
-0.0407251 0.0738422 0.0030520 255 0 0
-0.0385217 0.0738441 0.0030422 255 0 0
-0.0362217 0.0738417 0.0030487 255 0 0
-0.0339427 0.0738408 0.0030498 255 0 0
-0.0316721 0.0738415 0.0030510 255 0 0
-0.0294103 0.0738473 0.0030781 255 0 0
-0.0271387 0.0738779 0.0031303 255 0 0
-0.0248266 0.0738366 0.0030447 255 0 0
-0.0225219 0.0738287 0.0029809 255 0 0
-0.0200877 0.0738356 0.0030463 255 0 0
-0.0177616 0.0738423 0.0030757 255 0 0
-0.0155844 0.0738411 0.0030541 255 0 0
-0.0133546 0.0738409 0.0030442 255 0 0
-0.0110686 0.0738370 0.0030464 255 0 0
-0.0088062 0.0738357 0.0030467 255 0 0
-0.0065512 0.0738347 0.0030467 255 0 0
-0.0042664 0.0738344 0.0030506 255 0 0
-0.0020112 0.0738446 0.0030531 255 0 0
0.0004912 0.0738337 0.0030539 255 0 0
0.0028678 0.0738372 0.0030474 255 0 0
0.0050361 0.0738427 0.0030275 255 0 0
0.0072402 0.0738675 0.0030092 255 0 0
0.0094999 0.0738816 0.0029977 255 0 0
0.0117191 0.0739207 0.0029667 255 0 0
0.0138951 0.0739887 0.0029121 255 0 0
0.0159969 0.0740666 0.0028186 255 0 0
-0.0954737 0.0762874 0.0028743 255 0 0
-0.0933183 0.0762416 0.0029725 255 0 0
-0.0909937 0.0762113 0.0030196 255 0 0
-0.0887225 0.0761884 0.0030458 255 0 0
-0.0865297 0.0761901 0.0030379 255 0 0
-0.0842800 0.0761916 0.0030371 255 0 0
-0.0819920 0.0761900 0.0030450 255 0 0
-0.0797046 0.0761932 0.0030469 255 0 0
-0.0774420 0.0761964 0.0030486 255 0 0
-0.0751843 0.0761779 0.0030706 255 0 0
-0.0728968 0.0761322 0.0031186 255 0 0
-0.0705506 0.0761996 0.0030515 255 0 0
-0.0682488 0.0762388 0.0030126 255 0 0
-0.0658738 0.0761977 0.0030447 255 0 0
-0.0635609 0.0761817 0.0030588 255 0 0
-0.0613599 0.0761903 0.0030481 255 0 0
-0.0591255 0.0761960 0.0030434 255 0 0
-0.0568412 0.0761957 0.0030445 255 0 0
-0.0545782 0.0761965 0.0030452 255 0 0
-0.0523245 0.0761972 0.0030458 255 0 0
-0.0500339 0.0761976 0.0030468 255 0 0
-0.0477701 0.0761997 0.0030428 255 0 0
-0.0452373 0.0761967 0.0030606 255 0 0
-0.0428590 0.0761963 0.0030639 255 0 0
-0.0407257 0.0762015 0.0030422 255 0 0
-0.0385170 0.0762038 0.0030328 255 0 0
-0.0362216 0.0762021 0.0030401 255 0 0
-0.0339419 0.0762009 0.0030416 255 0 0
-0.0316728 0.0761996 0.0030432 255 0 0
-0.0294080 0.0762014 0.0030712 255 0 0
-0.0271350 0.0762294 0.0031249 255 0 0
-0.0248242 0.0761983 0.0030413 255 0 0
-0.0225202 0.0761969 0.0029796 255 0 0
-0.0200924 0.0761961 0.0030399 255 0 0
-0.0177671 0.0761993 0.0030672 255 0 0
-0.0155849 0.0762022 0.0030473 255 0 0
-0.0133532 0.0762042 0.0030384 255 0 0
-0.0110687 0.0762025 0.0030408 255 0 0
-0.0088060 0.0762020 0.0030416 255 0 0
-0.0065517 0.0762018 0.0030421 255 0 0
-0.0042657 0.0762024 0.0030457 255 0 0
-0.0020116 0.0762079 0.0030467 255 0 0
0.0004990 0.0762000 0.0030525 255 0 0
0.0028786 0.0761995 0.0030495 255 0 0
0.0050386 0.0762052 0.0030295 255 0 0
0.0072451 0.0762127 0.0030143 255 0 0
0.0095192 0.0762259 0.0030099 255 0 0
0.0117611 0.0762592 0.0029882 255 0 0
0.0139667 0.0762962 0.0029476 255 0 0
0.0161135 0.0763431 0.0028859 255 0 0
-0.0976816 0.0785997 0.0028348 255 0 0
-0.0955319 0.0785600 0.0029268 255 0 0
-0.0933490 0.0785359 0.0029952 255 0 0
-0.0910062 0.0785040 0.0030245 255 0 0
-0.0887218 0.0784885 0.0030398 255 0 0
-0.0865313 0.0784921 0.0030301 255 0 0
-0.0842806 0.0784950 0.0030279 255 0 0
-0.0819927 0.0784969 0.0030348 255 0 0
-0.0797055 0.0785017 0.0030358 255 0 0
-0.0774418 0.0785023 0.0030369 255 0 0
-0.0751830 0.0784822 0.0030595 255 0 0
-0.0728963 0.0784344 0.0031085 255 0 0
-0.0705496 0.0785045 0.0030416 255 0 0
-0.0682473 0.0785466 0.0030026 255 0 0
-0.0658755 0.0785086 0.0030349 255 0 0
-0.0635590 0.0784905 0.0030493 255 0 0
-0.0613605 0.0785002 0.0030387 255 0 0
-0.0591254 0.0785048 0.0030340 255 0 0
-0.0568418 0.0785020 0.0030349 255 0 0
-0.0545770 0.0784994 0.0030354 255 0 0
-0.0523211 0.0784964 0.0030357 255 0 0
-0.0500334 0.0784963 0.0030366 255 0 0
-0.0477708 0.0784972 0.0030325 255 0 0
-0.0452388 0.0784937 0.0030506 255 0 0
-0.0428632 0.0784928 0.0030539 255 0 0
-0.0407265 0.0784967 0.0030316 255 0 0
-0.0385138 0.0784982 0.0030221 255 0 0
-0.0362228 0.0784970 0.0030297 255 0 0
-0.0339421 0.0784948 0.0030314 255 0 0
-0.0316734 0.0784930 0.0030330 255 0 0
-0.0294076 0.0784944 0.0030618 255 0 0
-0.0271347 0.0785230 0.0031168 255 0 0
-0.0248244 0.0784937 0.0030339 255 0 0
-0.0225224 0.0784904 0.0029729 255 0 0
-0.0200932 0.0784895 0.0030317 255 0 0
-0.0177681 0.0784928 0.0030584 255 0 0
-0.0155853 0.0784969 0.0030388 255 0 0
-0.0133534 0.0784992 0.0030303 255 0 0
-0.0110691 0.0785002 0.0030331 255 0 0
-0.0088070 0.0785002 0.0030346 255 0 0
-0.0065529 0.0785006 0.0030356 255 0 0
-0.0042664 0.0785006 0.0030393 255 0 0
-0.0020132 0.0785070 0.0030399 255 0 0
0.0005035 0.0784975 0.0030492 255 0 0
0.0028855 0.0784965 0.0030486 255 0 0
0.0050405 0.0785009 0.0030284 255 0 0
0.0072488 0.0785071 0.0030153 255 0 0
0.0095319 0.0785133 0.0030153 255 0 0
0.0117883 0.0785387 0.0030009 255 0 0
0.0140145 0.0785636 0.0029720 255 0 0
0.0161931 0.0785955 0.0029334 255 0 0
0.0183099 0.0786301 0.0028765 255 0 0
-0.0977570 0.0808576 0.0028629 255 0 0
-0.0955902 0.0808134 0.0029477 255 0 0
-0.0933842 0.0807777 0.0030022 255 0 0
-0.0910089 0.0807456 0.0030263 255 0 0
-0.0886984 0.0807330 0.0030373 255 0 0
-0.0865250 0.0807399 0.0030244 255 0 0
-0.0842803 0.0807423 0.0030203 255 0 0
-0.0819925 0.0807414 0.0030272 255 0 0
-0.0797054 0.0807422 0.0030280 255 0 0
-0.0774426 0.0807399 0.0030292 255 0 0
-0.0751848 0.0807203 0.0030536 255 0 0
-0.0728981 0.0806756 0.0031066 255 0 0
-0.0705763 0.0807396 0.0030359 255 0 0
-0.0682481 0.0807774 0.0029949 255 0 0
-0.0658756 0.0807406 0.0030294 255 0 0
-0.0635580 0.0807258 0.0030448 255 0 0
-0.0613593 0.0807379 0.0030341 255 0 0
-0.0591245 0.0807438 0.0030294 255 0 0
-0.0568421 0.0807450 0.0030305 255 0 0
-0.0545790 0.0807460 0.0030312 255 0 0
-0.0523229 0.0807468 0.0030317 255 0 0
-0.0500347 0.0807479 0.0030327 255 0 0
-0.0477710 0.0807502 0.0030283 255 0 0
-0.0452363 0.0807473 0.0030474 255 0 0
-0.0428622 0.0807470 0.0030507 255 0 0
-0.0407263 0.0807516 0.0030272 255 0 0
-0.0385145 0.0807526 0.0030170 255 0 0
-0.0362222 0.0807516 0.0030248 255 0 0
-0.0339403 0.0807501 0.0030261 255 0 0
-0.0316732 0.0807488 0.0030271 255 0 0
-0.0294075 0.0807538 0.0030558 255 0 0
-0.0271360 0.0807845 0.0031108 255 0 0
-0.0248263 0.0807456 0.0030285 255 0 0
-0.0225248 0.0807324 0.0029677 255 0 0
-0.0200927 0.0807433 0.0030277 255 0 0
-0.0177671 0.0807507 0.0030548 255 0 0
-0.0155850 0.0807523 0.0030347 255 0 0
-0.0133539 0.0807522 0.0030262 255 0 0
-0.0110697 0.0807515 0.0030298 255 0 0
-0.0088078 0.0807507 0.0030317 255 0 0
-0.0065540 0.0807502 0.0030331 255 0 0
-0.0042678 0.0807502 0.0030373 255 0 0
-0.0020155 0.0807513 0.0030380 255 0 0
0.0005052 0.0807458 0.0030491 255 0 0
0.0028890 0.0807433 0.0030495 255 0 0
0.0050421 0.0807483 0.0030288 255 0 0
0.0072511 0.0807519 0.0030162 255 0 0
0.0095384 0.0807529 0.0030178 255 0 0
0.0118007 0.0807632 0.0030058 255 0 0
0.0140369 0.0807829 0.0029811 255 0 0
0.0162379 0.0808137 0.0029519 255 0 0
0.0183827 0.0808498 0.0029069 255 0 0
0.0204399 0.0808761 0.0028269 255 0 0
-0.0998617 0.0831701 0.0028898 255 0 0
-0.0977982 0.0831078 0.0028993 255 0 0
-0.0956298 0.0830749 0.0029696 255 0 0
-0.0934233 0.0830541 0.0030134 255 0 0
-0.0910107 0.0830272 0.0030359 255 0 0
-0.0886863 0.0830003 0.0030445 255 0 0
-0.0865153 0.0830055 0.0030279 255 0 0
-0.0842803 0.0830072 0.0030221 255 0 0
-0.0819922 0.0830051 0.0030295 255 0 0
-0.0797053 0.0830035 0.0030304 255 0 0
-0.0774411 0.0830007 0.0030314 255 0 0
-0.0751855 0.0829825 0.0030571 255 0 0
-0.0728979 0.0829564 0.0031130 255 0 0
-0.0705820 0.0830024 0.0030390 255 0 0
-0.0682486 0.0830371 0.0029960 255 0 0
-0.0658753 0.0830026 0.0030318 255 0 0
-0.0635565 0.0829880 0.0030478 255 0 0
-0.0613592 0.0830003 0.0030369 255 0 0
-0.0591225 0.0830057 0.0030322 255 0 0
-0.0568423 0.0830068 0.0030336 255 0 0
-0.0545797 0.0830080 0.0030345 255 0 0
-0.0523240 0.0830084 0.0030352 255 0 0
-0.0500348 0.0830106 0.0030365 255 0 0
-0.0477714 0.0830128 0.0030321 255 0 0
-0.0452354 0.0830107 0.0030524 255 0 0
-0.0428615 0.0830114 0.0030560 255 0 0
-0.0407280 0.0830144 0.0030308 255 0 0
-0.0385174 0.0830166 0.0030199 255 0 0
-0.0362223 0.0830147 0.0030282 255 0 0
-0.0339396 0.0830132 0.0030294 255 0 0
-0.0316710 0.0830129 0.0030299 255 0 0
-0.0294071 0.0830199 0.0030591 255 0 0
-0.0271363 0.0830513 0.0031149 255 0 0
-0.0248267 0.0830091 0.0030316 255 0 0
-0.0225267 0.0829938 0.0029695 255 0 0
-0.0200925 0.0830068 0.0030312 255 0 0
-0.0177663 0.0830157 0.0030591 255 0 0
-0.0155847 0.0830158 0.0030383 255 0 0
-0.0133537 0.0830162 0.0030297 255 0 0
-0.0110696 0.0830147 0.0030336 255 0 0
-0.0088073 0.0830142 0.0030358 255 0 0
-0.0065537 0.0830141 0.0030373 255 0 0
-0.0042677 0.0830214 0.0030419 255 0 0
-0.0020161 0.0830264 0.0030427 255 0 0
0.0005061 0.0830134 0.0030554 255 0 0
0.0028908 0.0830117 0.0030563 255 0 0
0.0050433 0.0830107 0.0030342 255 0 0
0.0072537 0.0830128 0.0030215 255 0 0
0.0095438 0.0830277 0.0030246 255 0 0
0.0118119 0.0830365 0.0030150 255 0 0
0.0140568 0.0830455 0.0029940 255 0 0
0.0162720 0.0830630 0.0029736 255 0 0
0.0184391 0.0830915 0.0029374 255 0 0
0.0205242 0.0831170 0.0028570 255 0 0
-0.0999088 0.0854001 0.0029700 255 0 0
-0.0978180 0.0853602 0.0029599 255 0 0
-0.0956655 0.0853495 0.0030128 255 0 0
-0.0934662 0.0853467 0.0030486 255 0 0
-0.0910106 0.0853348 0.0030716 255 0 0
-0.0886710 0.0853192 0.0030794 255 0 0
-0.0865036 0.0853296 0.0030601 255 0 0
-0.0842778 0.0853325 0.0030530 255 0 0
-0.0819902 0.0853294 0.0030609 255 0 0
-0.0797028 0.0853283 0.0030616 255 0 0
-0.0774374 0.0853283 0.0030625 255 0 0
-0.0751834 0.0853127 0.0030890 255 0 0
-0.0728967 0.0852758 0.0031466 255 0 0
-0.0705800 0.0853303 0.0030695 255 0 0
-0.0682480 0.0853493 0.0030247 255 0 0
-0.0658761 0.0853283 0.0030617 255 0 0
-0.0635538 0.0853141 0.0030783 255 0 0
-0.0613575 0.0853189 0.0030671 255 0 0
-0.0591214 0.0853212 0.0030623 255 0 0
-0.0568419 0.0853226 0.0030637 255 0 0
-0.0545786 0.0853248 0.0030649 255 0 0
-0.0523216 0.0853276 0.0030658 255 0 0
-0.0500334 0.0853321 0.0030673 255 0 0
-0.0477702 0.0853324 0.0030628 255 0 0
-0.0452353 0.0853359 0.0030842 255 0 0
-0.0428619 0.0853360 0.0030880 255 0 0
-0.0407278 0.0853360 0.0030617 255 0 0
-0.0385155 0.0853333 0.0030503 255 0 0
-0.0362207 0.0853387 0.0030591 255 0 0
-0.0339381 0.0853391 0.0030602 255 0 0
-0.0316691 0.0853390 0.0030606 255 0 0
-0.0294058 0.0853454 0.0030902 255 0 0
-0.0271353 0.0853754 0.0031460 255 0 0
-0.0248260 0.0853373 0.0030621 255 0 0
-0.0225262 0.0853127 0.0029991 255 0 0
-0.0200925 0.0853352 0.0030618 255 0 0
-0.0177654 0.0853414 0.0030900 255 0 0
-0.0155845 0.0853396 0.0030689 255 0 0
-0.0133531 0.0853350 0.0030601 255 0 0
-0.0110686 0.0853345 0.0030643 255 0 0
-0.0088063 0.0853356 0.0030664 255 0 0
-0.0065521 0.0853370 0.0030679 255 0 0
-0.0042664 0.0853376 0.0030727 255 0 0
-0.0020146 0.0853390 0.0030736 255 0 0
0.0005063 0.0853351 0.0030871 255 0 0
0.0028907 0.0853317 0.0030884 255 0 0
0.0050442 0.0853359 0.0030650 255 0 0
0.0072564 0.0853337 0.0030523 255 0 0
0.0095482 0.0853346 0.0030568 255 0 0
0.0118203 0.0853385 0.0030492 255 0 0
0.0140726 0.0853397 0.0030315 255 0 0
0.0162986 0.0853471 0.0030171 255 0 0
0.0184830 0.0853696 0.0029836 255 0 0
0.0205915 0.0853760 0.0028928 255 0 0
-0.0999228 0.0875847 0.0029393 255 0 0
-0.0978389 0.0875679 0.0029200 255 0 0
-0.0956694 0.0875585 0.0029560 255 0 0
-0.0935026 0.0875483 0.0029805 255 0 0
-0.0910100 0.0875340 0.0030017 255 0 0
-0.0886654 0.0875289 0.0030077 255 0 0
-0.0865057 0.0875341 0.0029875 255 0 0
-0.0842822 0.0875357 0.0029798 255 0 0
-0.0819940 0.0875340 0.0029875 255 0 0
-0.0797071 0.0875339 0.0029882 255 0 0
-0.0774418 0.0875322 0.0029890 255 0 0
-0.0751882 0.0875163 0.0030157 255 0 0
-0.0729020 0.0874805 0.0030748 255 0 0
-0.0705768 0.0875354 0.0029950 255 0 0
-0.0682512 0.0875667 0.0029488 255 0 0
-0.0658797 0.0875348 0.0029878 255 0 0
-0.0635558 0.0875204 0.0030053 255 0 0
-0.0613597 0.0875310 0.0029936 255 0 0
-0.0591230 0.0875365 0.0029885 255 0 0
-0.0568438 0.0875374 0.0029898 255 0 0
-0.0545806 0.0875383 0.0029909 255 0 0
-0.0523252 0.0875396 0.0029918 255 0 0
-0.0500365 0.0875407 0.0029933 255 0 0
-0.0477738 0.0875436 0.0029887 255 0 0
-0.0452348 0.0875412 0.0030104 255 0 0
-0.0428600 0.0875408 0.0030143 255 0 0
-0.0407285 0.0875454 0.0029883 255 0 0
-0.0385089 0.0875470 0.0029769 255 0 0
-0.0362230 0.0875454 0.0029853 255 0 0
-0.0339400 0.0875436 0.0029862 255 0 0
-0.0316717 0.0875430 0.0029863 255 0 0
-0.0294082 0.0875499 0.0030153 255 0 0
-0.0271378 0.0875833 0.0030719 255 0 0
-0.0248287 0.0875406 0.0029872 255 0 0
-0.0225283 0.0875244 0.0029245 255 0 0
-0.0200928 0.0875390 0.0029875 255 0 0
-0.0177649 0.0875476 0.0030161 255 0 0
-0.0155852 0.0875479 0.0029951 255 0 0
-0.0133547 0.0875477 0.0029864 255 0 0
-0.0110706 0.0875468 0.0029905 255 0 0
-0.0088088 0.0875459 0.0029925 255 0 0
-0.0065549 0.0875456 0.0029940 255 0 0
-0.0042693 0.0875453 0.0029986 255 0 0
-0.0020183 0.0875464 0.0029994 255 0 0
0.0005065 0.0875404 0.0030133 255 0 0
0.0028928 0.0875383 0.0030150 255 0 0
0.0050452 0.0875429 0.0029920 255 0 0
0.0072566 0.0875443 0.0029801 255 0 0
0.0095488 0.0875421 0.0029854 255 0 0
0.0118232 0.0875412 0.0029799 255 0 0
0.0140791 0.0875447 0.0029655 255 0 0
0.0163123 0.0875688 0.0029551 255 0 0
0.0185068 0.0875665 0.0029309 255 0 0
0.0206376 0.0875747 0.0028622 255 0 0
0.0226367 0.0874678 0.0027100 255 0 0
-0.0999336 0.0897688 0.0029317 255 0 0
-0.0978406 0.0897674 0.0029133 255 0 0
-0.0956700 0.0897630 0.0029367 255 0 0
-0.0935055 0.0897602 0.0029513 255 0 0
-0.0910113 0.0897510 0.0029705 255 0 0
-0.0886565 0.0897464 0.0029756 255 0 0
-0.0865063 0.0897495 0.0029563 255 0 0
-0.0842838 0.0897513 0.0029489 255 0 0
-0.0819969 0.0897490 0.0029559 255 0 0
-0.0797088 0.0897491 0.0029566 255 0 0
-0.0774483 0.0897485 0.0029578 255 0 0
-0.0751900 0.0897372 0.0029836 255 0 0
-0.0729027 0.0897117 0.0030400 255 0 0
-0.0705604 0.0897546 0.0029619 255 0 0
-0.0682533 0.0897770 0.0029161 255 0 0
-0.0658823 0.0897544 0.0029569 255 0 0
-0.0635522 0.0897430 0.0029753 255 0 0
-0.0613601 0.0897514 0.0029637 255 0 0
-0.0591244 0.0897547 0.0029586 255 0 0
-0.0568457 0.0897560 0.0029598 255 0 0
-0.0545831 0.0897563 0.0029606 255 0 0
-0.0523273 0.0897571 0.0029612 255 0 0
-0.0500384 0.0897579 0.0029622 255 0 0
-0.0477756 0.0897597 0.0029575 255 0 0
-0.0452367 0.0897569 0.0029778 255 0 0
-0.0428603 0.0897565 0.0029817 255 0 0
-0.0407289 0.0897604 0.0029578 255 0 0
-0.0385093 0.0897619 0.0029470 255 0 0
-0.0362239 0.0897607 0.0029541 255 0 0
-0.0339413 0.0897594 0.0029546 255 0 0
-0.0316764 0.0897592 0.0029546 255 0 0
-0.0294098 0.0897643 0.0029811 255 0 0
-0.0271392 0.0897936 0.0030338 255 0 0
-0.0248290 0.0897590 0.0029535 255 0 0
-0.0225267 0.0897513 0.0028936 255 0 0
-0.0200934 0.0897574 0.0029552 255 0 0
-0.0177652 0.0897626 0.0029828 255 0 0
-0.0155859 0.0897632 0.0029633 255 0 0
-0.0133560 0.0897624 0.0029553 255 0 0
-0.0110723 0.0897619 0.0029591 255 0 0
-0.0088111 0.0897614 0.0029611 255 0 0
-0.0065576 0.0897610 0.0029624 255 0 0
-0.0042717 0.0897609 0.0029668 255 0 0
-0.0020208 0.0897624 0.0029677 255 0 0
0.0005063 0.0897574 0.0029809 255 0 0
0.0028937 0.0897551 0.0029829 255 0 0
0.0050463 0.0897598 0.0029624 255 0 0
0.0072573 0.0897618 0.0029518 255 0 0
0.0095486 0.0897601 0.0029569 255 0 0
0.0118230 0.0897596 0.0029526 255 0 0
0.0140800 0.0897601 0.0029407 255 0 0
0.0163182 0.0897640 0.0029315 255 0 0
0.0185199 0.0897821 0.0029133 255 0 0
0.0206708 0.0897749 0.0028629 255 0 0
0.0226899 0.0897825 0.0026988 255 0 0
-0.0999304 0.0921048 0.0029590 255 0 0
-0.0978389 0.0921064 0.0029355 255 0 0
-0.0956690 0.0921044 0.0029576 255 0 0
-0.0935035 0.0921035 0.0029711 255 0 0
-0.0910072 0.0920969 0.0029918 255 0 0
-0.0886505 0.0920940 0.0029970 255 0 0
-0.0865023 0.0920979 0.0029761 255 0 0
-0.0842809 0.0920992 0.0029679 255 0 0
-0.0819930 0.0920971 0.0029752 255 0 0
-0.0797057 0.0920966 0.0029758 255 0 0
-0.0774456 0.0920944 0.0029767 255 0 0
-0.0751889 0.0920799 0.0030030 255 0 0
-0.0729032 0.0920546 0.0030621 255 0 0
-0.0705800 0.0920966 0.0029805 255 0 0
-0.0682499 0.0921294 0.0029332 255 0 0
-0.0658774 0.0920957 0.0029731 255 0 0
-0.0635521 0.0920833 0.0029911 255 0 0
-0.0613583 0.0920939 0.0029795 255 0 0
-0.0591246 0.0920994 0.0029744 255 0 0
-0.0568441 0.0921011 0.0029757 255 0 0
-0.0545824 0.0921024 0.0029767 255 0 0
-0.0523277 0.0921038 0.0029776 255 0 0
-0.0500378 0.0921052 0.0029788 255 0 0
-0.0477753 0.0921073 0.0029741 255 0 0
-0.0452297 0.0921045 0.0029957 255 0 0
-0.0428529 0.0921045 0.0029997 255 0 0
-0.0407262 0.0921096 0.0029746 255 0 0
-0.0385086 0.0921119 0.0029634 255 0 0
-0.0362232 0.0921101 0.0029710 255 0 0
-0.0339412 0.0921085 0.0029717 255 0 0
-0.0316754 0.0921082 0.0029718 255 0 0
-0.0294100 0.0921157 0.0030010 255 0 0
-0.0271400 0.0921494 0.0030580 255 0 0
-0.0248299 0.0921038 0.0029705 255 0 0
-0.0225286 0.0920855 0.0029058 255 0 0
-0.0200866 0.0921026 0.0029716 255 0 0
-0.0177600 0.0921130 0.0030016 255 0 0
-0.0155836 0.0921133 0.0029804 255 0 0
-0.0133554 0.0921126 0.0029714 255 0 0
-0.0110714 0.0921114 0.0029755 255 0 0
-0.0088097 0.0921109 0.0029775 255 0 0
-0.0065573 0.0921105 0.0029789 255 0 0
-0.0042719 0.0921101 0.0029842 255 0 0
-0.0020215 0.0921108 0.0029868 255 0 0
0.0005081 0.0921038 0.0029978 255 0 0
0.0028966 0.0921006 0.0029985 255 0 0
0.0050483 0.0921059 0.0029776 255 0 0
0.0072592 0.0921076 0.0029668 255 0 0
0.0095506 0.0921044 0.0029720 255 0 0
0.0118274 0.0921014 0.0029673 255 0 0
0.0140857 0.0920957 0.0029544 255 0 0
0.0163247 0.0920902 0.0029442 255 0 0
0.0185330 0.0920955 0.0029258 255 0 0
0.0206836 0.0920415 0.0028817 255 0 0
0.0227234 0.0920202 0.0027368 255 0 0
-0.0999277 0.0944178 0.0029847 255 0 0
-0.0978377 0.0944211 0.0029588 255 0 0
-0.0956702 0.0944240 0.0029795 255 0 0
-0.0935044 0.0944269 0.0029915 255 0 0
-0.0910053 0.0944227 0.0030135 255 0 0
-0.0886426 0.0944200 0.0030189 255 0 0
-0.0865019 0.0944242 0.0029971 255 0 0
-0.0842800 0.0944251 0.0029882 255 0 0
-0.0819917 0.0944231 0.0029955 255 0 0
-0.0797039 0.0944219 0.0029960 255 0 0
-0.0774424 0.0944187 0.0029966 255 0 0
-0.0751883 0.0944002 0.0030226 255 0 0
-0.0729004 0.0943684 0.0030814 255 0 0
-0.0705764 0.0944118 0.0029989 255 0 0
-0.0682481 0.0944383 0.0029510 255 0 0
-0.0658666 0.0944088 0.0029904 255 0 0
-0.0635498 0.0943985 0.0030080 255 0 0
-0.0613570 0.0944083 0.0029966 255 0 0
-0.0591274 0.0944144 0.0029918 255 0 0
-0.0568446 0.0944177 0.0029933 255 0 0
-0.0545843 0.0944198 0.0029943 255 0 0
-0.0523303 0.0944216 0.0029952 255 0 0
-0.0500382 0.0944235 0.0029965 255 0 0
-0.0477760 0.0944267 0.0029918 255 0 0
-0.0452276 0.0944251 0.0030141 255 0 0
-0.0428495 0.0944254 0.0030182 255 0 0
-0.0407253 0.0944316 0.0029925 255 0 0
-0.0385175 0.0944339 0.0029809 255 0 0
-0.0362229 0.0944322 0.0029888 255 0 0
-0.0339413 0.0944309 0.0029897 255 0 0
-0.0316751 0.0944318 0.0029900 255 0 0
-0.0294096 0.0944389 0.0030200 255 0 0
-0.0271405 0.0944709 0.0030767 255 0 0
-0.0248311 0.0944202 0.0029876 255 0 0
-0.0225277 0.0943947 0.0029201 255 0 0
-0.0200827 0.0944190 0.0029885 255 0 0
-0.0177563 0.0944324 0.0030194 255 0 0
-0.0155824 0.0944323 0.0029973 255 0 0
-0.0133557 0.0944319 0.0029880 255 0 0
-0.0110712 0.0944316 0.0029919 255 0 0
-0.0088098 0.0944305 0.0029938 255 0 0
-0.0065577 0.0944296 0.0029952 255 0 0
-0.0042725 0.0944275 0.0030010 255 0 0
-0.0020229 0.0944240 0.0030044 255 0 0
0.0005099 0.0944184 0.0030141 255 0 0
0.0028996 0.0944137 0.0030138 255 0 0
0.0050504 0.0944169 0.0029928 255 0 0
0.0072607 0.0944170 0.0029820 255 0 0
0.0095521 0.0944119 0.0029870 255 0 0
0.0118285 0.0944077 0.0029819 255 0 0
0.0140891 0.0944042 0.0029685 255 0 0
0.0163284 0.0943938 0.0029586 255 0 0
0.0185341 0.0943651 0.0029399 255 0 0
0.0206846 0.0943438 0.0029027 255 0 0
0.0227074 0.0943099 0.0027322 255 0 0
-0.0999228 0.0967336 0.0030074 255 0 0
-0.0978379 0.0967364 0.0029834 255 0 0
-0.0956674 0.0967377 0.0029993 255 0 0
-0.0935030 0.0967395 0.0030078 255 0 0
-0.0910032 0.0967312 0.0030311 255 0 0
-0.0886441 0.0967281 0.0030372 255 0 0
-0.0865002 0.0967327 0.0030150 255 0 0
-0.0842801 0.0967343 0.0030062 255 0 0
-0.0819915 0.0967325 0.0030140 255 0 0
-0.0797038 0.0967330 0.0030153 255 0 0
-0.0774391 0.0967322 0.0030169 255 0 0
-0.0751888 0.0967147 0.0030447 255 0 0
-0.0729030 0.0966883 0.0031064 255 0 0
-0.0705767 0.0967382 0.0030225 255 0 0
-0.0682494 0.0967727 0.0029745 255 0 0
-0.0658706 0.0967366 0.0030175 255 0 0
-0.0635479 0.0967210 0.0030369 255 0 0
-0.0613563 0.0967319 0.0030251 255 0 0
-0.0591235 0.0967381 0.0030198 255 0 0
-0.0568443 0.0967398 0.0030210 255 0 0
-0.0545830 0.0967412 0.0030217 255 0 0
-0.0523284 0.0967422 0.0030220 255 0 0
-0.0500370 0.0967430 0.0030227 255 0 0
-0.0477760 0.0967459 0.0030175 255 0 0
-0.0452261 0.0967419 0.0030383 255 0 0
-0.0428460 0.0967424 0.0030416 255 0 0
-0.0407240 0.0967475 0.0030159 255 0 0
-0.0385191 0.0967498 0.0030041 255 0 0
-0.0362212 0.0967485 0.0030117 255 0 0
-0.0339379 0.0967473 0.0030118 255 0 0
-0.0316739 0.0967477 0.0030111 255 0 0
-0.0294102 0.0967560 0.0030389 255 0 0
-0.0271415 0.0967862 0.0030938 255 0 0
-0.0248307 0.0967448 0.0030120 255 0 0
-0.0225290 0.0967285 0.0029517 255 0 0
-0.0200830 0.0967430 0.0030138 255 0 0
-0.0177536 0.0967519 0.0030415 255 0 0
-0.0155821 0.0967536 0.0030203 255 0 0
-0.0133551 0.0967531 0.0030115 255 0 0
-0.0110707 0.0967521 0.0030159 255 0 0
-0.0088096 0.0967516 0.0030182 255 0 0
-0.0065576 0.0967508 0.0030202 255 0 0
-0.0042728 0.0967503 0.0030272 255 0 0
-0.0020231 0.0967597 0.0030322 255 0 0
0.0005069 0.0967423 0.0030424 255 0 0
0.0028960 0.0967381 0.0030434 255 0 0
0.0050490 0.0967435 0.0030242 255 0 0
0.0072605 0.0967453 0.0030150 255 0 0
0.0095506 0.0967419 0.0030217 255 0 0
0.0118256 0.0967386 0.0030190 255 0 0
0.0140827 0.0967327 0.0030085 255 0 0
0.0163190 0.0967212 0.0030016 255 0 0
0.0185228 0.0966881 0.0029834 255 0 0
0.0206768 0.0965986 0.0029301 255 0 0
0.0228542 0.0963795 0.0026806 255 0 0
-0.0999283 0.0990516 0.0030243 255 0 0
-0.0978354 0.0990558 0.0030029 255 0 0
-0.0956641 0.0990594 0.0030177 255 0 0
-0.0935022 0.0990684 0.0030249 255 0 0
-0.0910036 0.0990532 0.0030468 255 0 0
-0.0886446 0.0990489 0.0030523 255 0 0
-0.0865001 0.0990547 0.0030308 255 0 0
-0.0842804 0.0990573 0.0030224 255 0 0
-0.0819926 0.0990575 0.0030301 255 0 0
-0.0797058 0.0990600 0.0030315 255 0 0
-0.0774359 0.0990599 0.0030335 255 0 0
-0.0751895 0.0990434 0.0030611 255 0 0
-0.0729020 0.0990021 0.0031221 255 0 0
-0.0705773 0.0990734 0.0030412 255 0 0
-0.0682484 0.0991090 0.0029951 255 0 0
-0.0658735 0.0990718 0.0030372 255 0 0
-0.0635485 0.0990545 0.0030563 255 0 0
-0.0613569 0.0990672 0.0030449 255 0 0
-0.0591229 0.0990731 0.0030397 255 0 0
-0.0568449 0.0990738 0.0030408 255 0 0
-0.0545819 0.0990735 0.0030413 255 0 0
-0.0523266 0.0990736 0.0030415 255 0 0
-0.0500363 0.0990747 0.0030421 255 0 0
-0.0477765 0.0990763 0.0030368 255 0 0
-0.0452287 0.0990723 0.0030570 255 0 0
-0.0428478 0.0990715 0.0030600 255 0 0
-0.0407243 0.0990768 0.0030344 255 0 0
-0.0385182 0.0990783 0.0030228 255 0 0
-0.0362212 0.0990771 0.0030301 255 0 0
-0.0339382 0.0990754 0.0030300 255 0 0
-0.0316740 0.0990748 0.0030289 255 0 0
-0.0294090 0.0990806 0.0030554 255 0 0
-0.0271404 0.0991066 0.0031092 255 0 0
-0.0248287 0.0990779 0.0030312 255 0 0
-0.0225284 0.0990608 0.0029749 255 0 0
-0.0200846 0.0990730 0.0030331 255 0 0
-0.0177582 0.0990776 0.0030591 255 0 0
-0.0155834 0.0990815 0.0030389 255 0 0
-0.0133548 0.0990808 0.0030307 255 0 0
-0.0110710 0.0990802 0.0030351 255 0 0
-0.0088098 0.0990796 0.0030376 255 0 0
-0.0065569 0.0990793 0.0030399 255 0 0
-0.0042722 0.0990799 0.0030469 255 0 0
-0.0020224 0.0990826 0.0030516 255 0 0
0.0005061 0.0990742 0.0030632 255 0 0
0.0028944 0.0990709 0.0030651 255 0 0
0.0050474 0.0990769 0.0030462 255 0 0
0.0072587 0.0990794 0.0030376 255 0 0
0.0095488 0.0990761 0.0030450 255 0 0
0.0118223 0.0990741 0.0030436 255 0 0
0.0140776 0.0990698 0.0030351 255 0 0
0.0163100 0.0990570 0.0030305 255 0 0
0.0185102 0.0990132 0.0030141 255 0 0
0.0206636 0.0989139 0.0029604 255 0 0
0.0226498 0.0987890 0.0028188 255 0 0
-0.0999400 0.1013524 0.0030320 255 0 0
-0.0978369 0.1013472 0.0030099 255 0 0
-0.0956618 0.1013626 0.0030262 255 0 0
-0.0934993 0.1013764 0.0030342 255 0 0
-0.0910074 0.1013617 0.0030518 255 0 0
-0.0886552 0.1013571 0.0030554 255 0 0
-0.0864987 0.1013624 0.0030356 255 0 0
-0.0842794 0.1013650 0.0030277 255 0 0
-0.0819919 0.1013634 0.0030346 255 0 0
-0.0797046 0.1013663 0.0030352 255 0 0
-0.0774267 0.1013664 0.0030363 255 0 0
-0.0751896 0.1013504 0.0030617 255 0 0
-0.0729032 0.1013148 0.0031178 255 0 0
-0.0705753 0.1013723 0.0030427 255 0 0
-0.0682490 0.1014061 0.0029994 255 0 0
-0.0658831 0.1013714 0.0030363 255 0 0
-0.0635483 0.1013566 0.0030531 255 0 0
-0.0613561 0.1013673 0.0030429 255 0 0
-0.0591217 0.1013733 0.0030386 255 0 0
-0.0568453 0.1013742 0.0030401 255 0 0
-0.0545785 0.1013749 0.0030410 255 0 0
-0.0523224 0.1013751 0.0030416 255 0 0
-0.0500346 0.1013756 0.0030427 255 0 0
-0.0477771 0.1013774 0.0030380 255 0 0
-0.0452368 0.1013734 0.0030588 255 0 0
-0.0428552 0.1013729 0.0030623 255 0 0
-0.0407236 0.1013780 0.0030373 255 0 0
-0.0385078 0.1013804 0.0030261 255 0 0
-0.0362214 0.1013783 0.0030332 255 0 0
-0.0339382 0.1013759 0.0030336 255 0 0
-0.0316725 0.1013755 0.0030334 255 0 0
-0.0294073 0.1013852 0.0030599 255 0 0
-0.0271367 0.1014167 0.0031130 255 0 0
-0.0248241 0.1013737 0.0030333 255 0 0
-0.0225224 0.1013566 0.0029756 255 0 0
-0.0200900 0.1013713 0.0030347 255 0 0
-0.0177644 0.1013832 0.0030615 255 0 0
-0.0155852 0.1013818 0.0030421 255 0 0
-0.0133550 0.1013815 0.0030342 255 0 0
-0.0110704 0.1013805 0.0030382 255 0 0
-0.0088093 0.1013801 0.0030405 255 0 0
-0.0065557 0.1013799 0.0030423 255 0 0
-0.0042705 0.1013799 0.0030478 255 0 0
-0.0020211 0.1013817 0.0030500 255 0 0
0.0005082 0.1013747 0.0030633 255 0 0
0.0028960 0.1013724 0.0030654 255 0 0
0.0050463 0.1013765 0.0030452 255 0 0
0.0072561 0.1013779 0.0030355 255 0 0
0.0095462 0.1013748 0.0030421 255 0 0
0.0118190 0.1013714 0.0030404 255 0 0
0.0140726 0.1013660 0.0030319 255 0 0
0.0163013 0.1013434 0.0030284 255 0 0
0.0184949 0.1013061 0.0030165 255 0 0
0.0206324 0.1012266 0.0029732 255 0 0
0.0227077 0.1010919 0.0028736 255 0 0
-0.0999333 0.1035921 0.0030129 255 0 0
-0.0978287 0.1035924 0.0030015 255 0 0
-0.0956583 0.1036220 0.0030205 255 0 0
-0.0934597 0.1036493 0.0030278 255 0 0
-0.0910061 0.1036376 0.0030459 255 0 0
-0.0886641 0.1036314 0.0030500 255 0 0
-0.0864990 0.1036387 0.0030302 255 0 0
-0.0842791 0.1036419 0.0030222 255 0 0
-0.0819914 0.1036413 0.0030287 255 0 0
-0.0797048 0.1036417 0.0030289 255 0 0
-0.0774267 0.1036414 0.0030295 255 0 0
-0.0751880 0.1036273 0.0030546 255 0 0
-0.0729045 0.1035899 0.0031104 255 0 0
-0.0705667 0.1036460 0.0030349 255 0 0
-0.0682481 0.1036766 0.0029913 255 0 0
-0.0658916 0.1036460 0.0030273 255 0 0
-0.0635497 0.1036322 0.0030436 255 0 0
-0.0613558 0.1036422 0.0030335 255 0 0
-0.0591196 0.1036484 0.0030293 255 0 0
-0.0568446 0.1036499 0.0030309 255 0 0
-0.0545782 0.1036503 0.0030319 255 0 0
-0.0523217 0.1036514 0.0030327 255 0 0
-0.0500341 0.1036523 0.0030340 255 0 0
-0.0477771 0.1036546 0.0030294 255 0 0
-0.0452368 0.1036511 0.0030507 255 0 0
-0.0428551 0.1036505 0.0030545 255 0 0
-0.0407227 0.1036563 0.0030296 255 0 0
-0.0385073 0.1036581 0.0030184 255 0 0
-0.0362198 0.1036556 0.0030255 255 0 0
-0.0339373 0.1036532 0.0030261 255 0 0
-0.0316717 0.1036521 0.0030261 255 0 0
-0.0294068 0.1036623 0.0030526 255 0 0
-0.0271347 0.1036932 0.0031051 255 0 0
-0.0248235 0.1036504 0.0030249 255 0 0
-0.0225198 0.1036297 0.0029664 255 0 0
-0.0200903 0.1036462 0.0030264 255 0 0
-0.0177657 0.1036539 0.0030537 255 0 0
-0.0155868 0.1036524 0.0030345 255 0 0
-0.0133566 0.1036516 0.0030266 255 0 0
-0.0110706 0.1036501 0.0030306 255 0 0
-0.0088094 0.1036496 0.0030328 255 0 0
-0.0065558 0.1036489 0.0030344 255 0 0
-0.0042703 0.1036486 0.0030394 255 0 0
-0.0020214 0.1036499 0.0030407 255 0 0
0.0005097 0.1036422 0.0030548 255 0 0
0.0028976 0.1036379 0.0030570 255 0 0
0.0050456 0.1036409 0.0030360 255 0 0
0.0072539 0.1036413 0.0030258 255 0 0
0.0095440 0.1036381 0.0030321 255 0 0
0.0118132 0.1036345 0.0030304 255 0 0
0.0140627 0.1036286 0.0030223 255 0 0
0.0162850 0.1036043 0.0030196 255 0 0
0.0184702 0.1035710 0.0030098 255 0 0
0.0205949 0.1035117 0.0029703 255 0 0
-0.0999149 0.1058039 0.0029758 255 0 0
-0.0978109 0.1058019 0.0029936 255 0 0
-0.0956539 0.1058664 0.0030065 255 0 0
-0.0934449 0.1059073 0.0030123 255 0 0
-0.0910049 0.1059040 0.0030352 255 0 0
-0.0886754 0.1058959 0.0030417 255 0 0
-0.0865039 0.1059046 0.0030209 255 0 0
-0.0842793 0.1059068 0.0030123 255 0 0
-0.0819915 0.1059081 0.0030190 255 0 0
-0.0797046 0.1059093 0.0030190 255 0 0
-0.0774274 0.1059087 0.0030195 255 0 0
-0.0751914 0.1058967 0.0030458 255 0 0
-0.0729047 0.1058590 0.0031051 255 0 0
-0.0705716 0.1059150 0.0030243 255 0 0
-0.0682477 0.1059423 0.0029778 255 0 0
-0.0658903 0.1059161 0.0030169 255 0 0
-0.0635498 0.1059043 0.0030344 255 0 0
-0.0613555 0.1059165 0.0030234 255 0 0
-0.0591216 0.1059209 0.0030187 255 0 0
-0.0568451 0.1059224 0.0030203 255 0 0
-0.0545786 0.1059230 0.0030213 255 0 0
-0.0523240 0.1059227 0.0030221 255 0 0
-0.0500360 0.1059228 0.0030232 255 0 0
-0.0477771 0.1059239 0.0030185 255 0 0
-0.0452353 0.1059193 0.0030400 255 0 0
-0.0428532 0.1059181 0.0030440 255 0 0
-0.0407224 0.1059183 0.0030193 255 0 0
-0.0385124 0.1059148 0.0030081 255 0 0
-0.0362203 0.1059132 0.0030150 255 0 0
-0.0339370 0.1059107 0.0030154 255 0 0
-0.0316732 0.1059087 0.0030151 255 0 0
-0.0294070 0.1059197 0.0030411 255 0 0
-0.0271342 0.1059489 0.0030926 255 0 0
-0.0248229 0.1059077 0.0030141 255 0 0
-0.0225183 0.1058876 0.0029567 255 0 0
-0.0200897 0.1059016 0.0030164 255 0 0
-0.0177642 0.1059121 0.0030435 255 0 0
-0.0155869 0.1059090 0.0030243 255 0 0
-0.0133561 0.1059080 0.0030166 255 0 0
-0.0110708 0.1059070 0.0030209 255 0 0
-0.0088102 0.1059056 0.0030232 255 0 0
-0.0065567 0.1059049 0.0030250 255 0 0
-0.0042712 0.1059069 0.0030301 255 0 0
-0.0020223 0.1059135 0.0030315 255 0 0
0.0005105 0.1058968 0.0030462 255 0 0
0.0028986 0.1058930 0.0030489 255 0 0
0.0050452 0.1058957 0.0030278 255 0 0
0.0072512 0.1058930 0.0030177 255 0 0
0.0095403 0.1058858 0.0030243 255 0 0
0.0118069 0.1058788 0.0030235 255 0 0
0.0140494 0.1058668 0.0030168 255 0 0
0.0162625 0.1058507 0.0030153 255 0 0
0.0184372 0.1058203 0.0030056 255 0 0
0.0205551 0.1057698 0.0029631 255 0 0
-0.0998883 0.1080021 0.0029914 255 0 0
-0.0977814 0.1080581 0.0029959 255 0 0
-0.0956107 0.1081275 0.0030044 255 0 0
-0.0934158 0.1081820 0.0030086 255 0 0
-0.0910023 0.1081669 0.0030297 255 0 0
-0.0886840 0.1081548 0.0030360 255 0 0
-0.0865148 0.1081656 0.0030172 255 0 0
-0.0842781 0.1081706 0.0030095 255 0 0
-0.0819900 0.1081701 0.0030155 255 0 0
-0.0797027 0.1081716 0.0030152 255 0 0
-0.0774246 0.1081716 0.0030157 255 0 0
-0.0751905 0.1081572 0.0030418 255 0 0
-0.0729047 0.1081273 0.0031010 255 0 0
-0.0705421 0.1081798 0.0030196 255 0 0
-0.0682461 0.1082131 0.0029730 255 0 0
-0.0658905 0.1081801 0.0030135 255 0 0
-0.0635564 0.1081666 0.0030319 255 0 0
-0.0613546 0.1081779 0.0030210 255 0 0
-0.0591230 0.1081847 0.0030165 255 0 0
-0.0568448 0.1081861 0.0030183 255 0 0
-0.0545785 0.1081871 0.0030193 255 0 0
-0.0523237 0.1081886 0.0030201 255 0 0
-0.0500342 0.1081889 0.0030212 255 0 0
-0.0477770 0.1081888 0.0030168 255 0 0
-0.0452345 0.1081777 0.0030375 255 0 0
-0.0428536 0.1081759 0.0030418 255 0 0
-0.0407207 0.1081772 0.0030196 255 0 0
-0.0385111 0.1081788 0.0030092 255 0 0
-0.0362178 0.1081776 0.0030148 255 0 0
-0.0339341 0.1081786 0.0030139 255 0 0
-0.0316712 0.1081876 0.0030122 255 0 0
-0.0294054 0.1081968 0.0030358 255 0 0
-0.0271342 0.1082248 0.0030840 255 0 0
-0.0248218 0.1081871 0.0030114 255 0 0
-0.0225171 0.1081623 0.0029591 255 0 0
-0.0200896 0.1081792 0.0030149 255 0 0
-0.0177644 0.1081890 0.0030407 255 0 0
-0.0155871 0.1081855 0.0030239 255 0 0
-0.0133573 0.1081832 0.0030175 255 0 0
-0.0110723 0.1081822 0.0030218 255 0 0
-0.0088115 0.1081802 0.0030241 255 0 0
-0.0065585 0.1081791 0.0030256 255 0 0
-0.0042722 0.1081842 0.0030300 255 0 0
-0.0020232 0.1081869 0.0030310 255 0 0
0.0005117 0.1081696 0.0030449 255 0 0
0.0028996 0.1081659 0.0030480 255 0 0
0.0050433 0.1081706 0.0030298 255 0 0
0.0072461 0.1081698 0.0030216 255 0 0
0.0095325 0.1081629 0.0030279 255 0 0
0.0117927 0.1081458 0.0030288 255 0 0
0.0140264 0.1081355 0.0030252 255 0 0
0.0162286 0.1081015 0.0030274 255 0 0
0.0183932 0.1080563 0.0030199 255 0 0
0.0205070 0.1079792 0.0029734 255 0 0
-0.0977402 0.1103333 0.0030350 255 0 0
-0.0955520 0.1104004 0.0030365 255 0 0
-0.0933617 0.1104414 0.0030350 255 0 0
-0.0909984 0.1104489 0.0030483 255 0 0
-0.0887058 0.1104491 0.0030528 255 0 0
-0.0865211 0.1104558 0.0030379 255 0 0
-0.0842761 0.1104605 0.0030313 255 0 0
-0.0819882 0.1104578 0.0030358 255 0 0
-0.0797011 0.1104593 0.0030349 255 0 0
-0.0774200 0.1104599 0.0030355 255 0 0
-0.0751889 0.1104521 0.0030609 255 0 0
-0.0729044 0.1104258 0.0031180 255 0 0
-0.0705385 0.1104719 0.0030387 255 0 0
-0.0682430 0.1105023 0.0029963 255 0 0
-0.0658886 0.1104739 0.0030350 255 0 0
-0.0635753 0.1104659 0.0030539 255 0 0
-0.0613531 0.1104737 0.0030436 255 0 0
-0.0591242 0.1104783 0.0030394 255 0 0
-0.0568436 0.1104786 0.0030410 255 0 0
-0.0545745 0.1104808 0.0030414 255 0 0
-0.0523166 0.1104831 0.0030412 255 0 0
-0.0500263 0.1104850 0.0030418 255 0 0
-0.0477717 0.1104879 0.0030380 255 0 0
-0.0452380 0.1104800 0.0030583 255 0 0
-0.0428616 0.1104770 0.0030639 255 0 0
-0.0407221 0.1104804 0.0030458 255 0 0
-0.0385142 0.1104835 0.0030375 255 0 0
-0.0362147 0.1104826 0.0030420 255 0 0
-0.0339297 0.1104933 0.0030406 255 0 0
-0.0316605 0.1105155 0.0030420 255 0 0
-0.0293983 0.1105216 0.0030678 255 0 0
-0.0271315 0.1105320 0.0031197 255 0 0
-0.0248170 0.1105072 0.0030460 255 0 0
-0.0225125 0.1104869 0.0029967 255 0 0
-0.0200913 0.1104962 0.0030512 255 0 0
-0.0177704 0.1104993 0.0030776 255 0 0
-0.0155869 0.1104983 0.0030640 255 0 0
-0.0133558 0.1104970 0.0030582 255 0 0
-0.0110729 0.1104929 0.0030605 255 0 0
-0.0088113 0.1104875 0.0030610 255 0 0
-0.0065572 0.1104849 0.0030613 255 0 0
-0.0042698 0.1104804 0.0030632 255 0 0
-0.0020194 0.1104850 0.0030632 255 0 0
0.0005102 0.1104687 0.0030739 255 0 0
0.0028950 0.1104561 0.0030775 255 0 0
0.0050401 0.1104653 0.0030639 255 0 0
0.0072411 0.1104622 0.0030580 255 0 0
0.0095220 0.1104520 0.0030631 255 0 0
0.0117753 0.1104392 0.0030645 255 0 0
0.0139988 0.1104067 0.0030650 255 0 0
0.0161866 0.1103788 0.0030626 255 0 0
0.0183406 0.1103101 0.0030555 255 0 0
-0.0976967 0.1124814 0.0029523 255 0 0
-0.0955326 0.1125951 0.0029772 255 0 0
-0.0933232 0.1126915 0.0029921 255 0 0
-0.0909882 0.1126809 0.0030022 255 0 0
-0.0887063 0.1127012 0.0030031 255 0 0
-0.0865247 0.1127151 0.0029931 255 0 0
-0.0842760 0.1127334 0.0029810 255 0 0
-0.0819871 0.1127528 0.0029668 255 0 0
-0.0797000 0.1127653 0.0029546 255 0 0
-0.0774192 0.1127761 0.0029506 255 0 0
-0.0751927 0.1127733 0.0029770 255 0 0
-0.0729105 0.1127542 0.0030398 255 0 0
-0.0705388 0.1127970 0.0029633 255 0 0
-0.0682394 0.1128279 0.0029221 255 0 0
-0.0658884 0.1127994 0.0029682 255 0 0
-0.0635753 0.1127865 0.0029912 255 0 0
-0.0613548 0.1127979 0.0029841 255 0 0
-0.0591320 0.1128038 0.0029832 255 0 0
-0.0568455 0.1128075 0.0029882 255 0 0
-0.0545863 0.1128091 0.0029920 255 0 0
-0.0523288 0.1128127 0.0029949 255 0 0
-0.0500353 0.1128073 0.0029975 255 0 0
-0.0477699 0.1128033 0.0029961 255 0 0
-0.0452304 0.1127934 0.0030122 255 0 0
-0.0428539 0.1127944 0.0030159 255 0 0
-0.0407207 0.1128012 0.0030010 255 0 0
-0.0385039 0.1128088 0.0029901 255 0 0
-0.0362022 0.1128191 0.0029874 255 0 0
-0.0339121 0.1128352 0.0029666 255 0 0
-0.0316424 0.1128457 0.0029373 255 0 0
-0.0293935 0.1128665 0.0029415 255 0 0
-0.0271373 0.1129136 0.0029769 255 0 0
-0.0248238 0.1128882 0.0029092 255 0 0
-0.0225215 0.1128821 0.0028636 255 0 0
-0.0200845 0.1129142 0.0029142 255 0 0
-0.0177610 0.1129337 0.0029404 255 0 0
-0.0155881 0.1129369 0.0029306 255 0 0
-0.0133618 0.1129395 0.0029295 255 0 0
-0.0110794 0.1129385 0.0029375 255 0 0
-0.0088202 0.1129370 0.0029438 255 0 0
-0.0065674 0.1129349 0.0029496 255 0 0
-0.0042796 0.1129310 0.0029574 255 0 0
-0.0020319 0.1129297 0.0029623 255 0 0
0.0005141 0.1129153 0.0029788 255 0 0
0.0029028 0.1129106 0.0029862 255 0 0
0.0050365 0.1129132 0.0029759 255 0 0
0.0072274 0.1129062 0.0029735 255 0 0
0.0095002 0.1128904 0.0029811 255 0 0
0.0117406 0.1128476 0.0029913 255 0 0
0.0139486 0.1128116 0.0030056 255 0 0
0.0161329 0.1127455 0.0030382 255 0 0
0.0182995 0.1126655 0.0030715 255 0 0
-0.0977095 0.1146083 0.0029201 255 0 0
-0.0955006 0.1148309 0.0029617 255 0 0
-0.0932924 0.1149732 0.0029768 255 0 0
-0.0909811 0.1149861 0.0029855 255 0 0
-0.0887018 0.1150149 0.0029872 255 0 0
-0.0865118 0.1150292 0.0029830 255 0 0
-0.0842735 0.1150611 0.0029654 255 0 0
-0.0819447 0.1150926 0.0029316 255 0 0
-0.0796976 0.1151306 0.0029105 255 0 0
-0.0774201 0.1151612 0.0029058 255 0 0
-0.0751934 0.1151566 0.0029368 255 0 0
-0.0729119 0.1151204 0.0030071 255 0 0
-0.0705360 0.1151807 0.0029392 255 0 0
-0.0682225 0.1152051 0.0029058 255 0 0
-0.0658883 0.1151828 0.0029545 255 0 0
-0.0635875 0.1151697 0.0029805 255 0 0
-0.0613727 0.1151728 0.0029770 255 0 0
-0.0591319 0.1151807 0.0029794 255 0 0
-0.0568455 0.1151863 0.0029876 255 0 0
-0.0545865 0.1151897 0.0029941 255 0 0
-0.0523282 0.1151959 0.0029981 255 0 0
-0.0500296 0.1151992 0.0030005 255 0 0
-0.0477642 0.1151946 0.0029996 255 0 0
-0.0452362 0.1151879 0.0030125 255 0 0
-0.0428585 0.1151906 0.0030165 255 0 0
-0.0407249 0.1151994 0.0030057 255 0 0
-0.0385121 0.1152148 0.0029946 255 0 0
-0.0362020 0.1152266 0.0029886 255 0 0
-0.0339081 0.1152284 0.0029545 255 0 0
-0.0316354 0.1152254 0.0028966 255 0 0
-0.0293863 0.1152448 0.0028853 255 0 0
-0.0271370 0.1152879 0.0029149 255 0 0
-0.0248235 0.1152794 0.0028384 255 0 0
-0.0225189 0.1152837 0.0027871 255 0 0
-0.0200846 0.1153318 0.0028457 255 0 0
-0.0177615 0.1153563 0.0028765 255 0 0
-0.0155899 0.1153646 0.0028693 255 0 0
-0.0133644 0.1153691 0.0028713 255 0 0
-0.0110813 0.1153702 0.0028826 255 0 0
-0.0088208 0.1153701 0.0028931 255 0 0
-0.0065677 0.1153697 0.0029031 255 0 0
-0.0042789 0.1153693 0.0029154 255 0 0
-0.0020298 0.1153698 0.0029245 255 0 0
0.0005101 0.1153592 0.0029446 255 0 0
0.0028949 0.1153503 0.0029544 255 0 0
0.0050303 0.1153460 0.0029455 255 0 0
0.0072167 0.1153242 0.0029428 255 0 0
0.0094791 0.1152953 0.0029486 255 0 0
0.0117061 0.1152597 0.0029608 255 0 0
0.0139015 0.1151883 0.0029832 255 0 0
0.0161024 0.1151710 0.0030489 255 0 0
0.0182942 0.1151034 0.0031087 255 0 0
-0.0954300 0.1172234 0.0030107 255 0 0
-0.0932500 0.1173069 0.0029973 255 0 0
-0.0909485 0.1173962 0.0029874 255 0 0
-0.0886830 0.1174375 0.0029799 255 0 0
-0.0864861 0.1174523 0.0029798 255 0 0
-0.0842712 0.1174809 0.0029701 255 0 0
-0.0819599 0.1174952 0.0029500 255 0 0
-0.0796970 0.1175008 0.0029290 255 0 0
-0.0774200 0.1175004 0.0029145 255 0 0
-0.0751831 0.1174902 0.0029323 255 0 0
-0.0729138 0.1174632 0.0029872 255 0 0
-0.0705303 0.1175222 0.0029136 255 0 0
-0.0682194 0.1175549 0.0028754 255 0 0
-0.0658856 0.1175376 0.0029196 255 0 0
-0.0635934 0.1175314 0.0029426 255 0 0
-0.0613746 0.1175442 0.0029376 255 0 0
-0.0591287 0.1175493 0.0029379 255 0 0
-0.0568432 0.1175558 0.0029432 255 0 0
-0.0545840 0.1175623 0.0029471 255 0 0
-0.0523220 0.1175690 0.0029498 255 0 0
-0.0500321 0.1175796 0.0029522 255 0 0
-0.0477658 0.1175917 0.0029512 255 0 0
-0.0452402 0.1176264 0.0029714 255 0 0
-0.0428611 0.1176490 0.0029799 255 0 0
-0.0407253 0.1176517 0.0029716 255 0 0
-0.0385156 0.1176552 0.0029654 255 0 0
-0.0362118 0.1176581 0.0029637 255 0 0
-0.0339247 0.1176621 0.0029502 255 0 0
-0.0316599 0.1176627 0.0029323 255 0 0
-0.0293942 0.1176628 0.0029437 255 0 0
-0.0271270 0.1176810 0.0029794 255 0 0
-0.0248094 0.1176445 0.0029223 255 0 0
-0.0225000 0.1176400 0.0028822 255 0 0
-0.0200974 0.1176529 0.0029336 255 0 0
-0.0177827 0.1176579 0.0029613 255 0 0
-0.0155910 0.1176590 0.0029544 255 0 0
-0.0133573 0.1176526 0.0029554 255 0 0
-0.0110751 0.1176522 0.0029643 255 0 0
-0.0088122 0.1176527 0.0029727 255 0 0
-0.0065549 0.1176522 0.0029809 255 0 0
-0.0042662 0.1176521 0.0029906 255 0 0
-0.0020113 0.1176565 0.0029974 255 0 0
0.0004952 0.1176480 0.0030145 255 0 0
0.0028669 0.1176427 0.0030232 255 0 0
0.0050190 0.1176432 0.0030167 255 0 0
0.0072102 0.1176281 0.0030141 255 0 0
0.0094606 0.1175818 0.0030173 255 0 0
0.0116778 0.1175470 0.0030177 255 0 0
0.0138628 0.1174688 0.0030168 255 0 0
0.0160245 0.1173785 0.0030229 255 0 0
-0.0954031 0.1195938 0.0030575 255 0 0
-0.0932124 0.1196192 0.0030026 255 0 0
-0.0909256 0.1197450 0.0029931 255 0 0
-0.0886759 0.1198463 0.0029882 255 0 0
-0.0864814 0.1198606 0.0029934 255 0 0
-0.0842540 0.1198693 0.0029927 255 0 0
-0.0819598 0.1198794 0.0029860 255 0 0
-0.0796942 0.1198746 0.0029706 255 0 0
-0.0774189 0.1198603 0.0029545 255 0 0
-0.0751634 0.1198521 0.0029656 255 0 0
-0.0729095 0.1198340 0.0030085 255 0 0
-0.0705175 0.1198598 0.0029411 255 0 0
-0.0681811 0.1198877 0.0029060 255 0 0
-0.0658828 0.1198806 0.0029426 255 0 0
-0.0636054 0.1198889 0.0029617 255 0 0
-0.0613769 0.1198962 0.0029572 255 0 0
-0.0591237 0.1199066 0.0029572 255 0 0
-0.0568397 0.1199184 0.0029615 255 0 0
-0.0545779 0.1199268 0.0029651 255 0 0
-0.0523150 0.1199350 0.0029682 255 0 0
-0.0500205 0.1199483 0.0029712 255 0 0
-0.0477545 0.1199636 0.0029713 255 0 0
-0.0452479 0.1199928 0.0029921 255 0 0
-0.0428765 0.1200176 0.0030018 255 0 0
-0.0407288 0.1200213 0.0029957 255 0 0
-0.0385118 0.1200323 0.0029928 255 0 0
-0.0362140 0.1200314 0.0029943 255 0 0
-0.0339296 0.1200267 0.0029941 255 0 0
-0.0316704 0.1200200 0.0029963 255 0 0
-0.0293921 0.1200132 0.0030191 255 0 0
-0.0271189 0.1200021 0.0030562 255 0 0
-0.0247953 0.1199847 0.0030128 255 0 0
-0.0224842 0.1199754 0.0029803 255 0 0
-0.0201077 0.1199610 0.0030257 255 0 0
-0.0178007 0.1199588 0.0030502 255 0 0
-0.0155928 0.1199631 0.0030445 255 0 0
-0.0133490 0.1199623 0.0030455 255 0 0
-0.0110700 0.1199615 0.0030532 255 0 0
-0.0088047 0.1199605 0.0030603 255 0 0
-0.0065423 0.1199602 0.0030671 255 0 0
-0.0042538 0.1199611 0.0030747 255 0 0
-0.0019946 0.1199608 0.0030793 255 0 0
0.0004828 0.1199441 0.0030934 255 0 0
0.0028418 0.1199394 0.0030993 255 0 0
0.0050072 0.1199374 0.0030913 255 0 0
0.0072010 0.1199188 0.0030848 255 0 0
0.0094401 0.1198750 0.0030827 255 0 0
0.0116488 0.1198136 0.0030708 255 0 0
0.0138266 0.1197153 0.0030493 255 0 0
-0.0931283 0.1218698 0.0030028 255 0 0
-0.0909007 0.1220126 0.0029987 255 0 0
-0.0886672 0.1221099 0.0030002 255 0 0
-0.0864490 0.1221514 0.0030111 255 0 0
-0.0841942 0.1221874 0.0030174 255 0 0
-0.0819666 0.1222029 0.0030195 255 0 0
-0.0796920 0.1221987 0.0030195 255 0 0
-0.0774170 0.1221928 0.0030214 255 0 0
-0.0751666 0.1221934 0.0030397 255 0 0
-0.0729054 0.1221973 0.0030769 255 0 0
-0.0705090 0.1222068 0.0030391 255 0 0
-0.0681478 0.1222303 0.0030216 255 0 0
-0.0658796 0.1222237 0.0030470 255 0 0
-0.0636357 0.1222241 0.0030619 255 0 0
-0.0613784 0.1222344 0.0030618 255 0 0
-0.0591179 0.1222433 0.0030645 255 0 0
-0.0568350 0.1222494 0.0030699 255 0 0
-0.0545690 0.1222565 0.0030758 255 0 0
-0.0523018 0.1222722 0.0030821 255 0 0
-0.0500055 0.1222878 0.0030884 255 0 0
-0.0477306 0.1222928 0.0030924 255 0 0
-0.0452676 0.1222958 0.0031083 255 0 0
-0.0429149 0.1223007 0.0031167 255 0 0
-0.0407403 0.1223036 0.0031133 255 0 0
-0.0384966 0.1223066 0.0031127 255 0 0
-0.0362084 0.1223093 0.0031161 255 0 0
-0.0339296 0.1222964 0.0031171 255 0 0
-0.0316648 0.1222835 0.0031192 255 0 0
-0.0293835 0.1222864 0.0031373 255 0 0
-0.0271068 0.1223054 0.0031656 255 0 0
-0.0247761 0.1222939 0.0031300 255 0 0
-0.0224583 0.1223033 0.0031035 255 0 0
-0.0201223 0.1223072 0.0031416 255 0 0
-0.0178250 0.1223101 0.0031629 255 0 0
-0.0155947 0.1223169 0.0031596 255 0 0
-0.0133404 0.1223207 0.0031611 255 0 0
