ply
format ascii 1.0
element vertex 1208
property float x
property float y
property float z
property uchar red
property uchar green
property uchar blue
end_header
-0.0636456 0.0946754 -0.0005860 255 0 0
-0.0613578 0.0946754 -0.0005860 255 0 0
-0.0590700 0.0946754 -0.0005860 255 0 0
-0.0567822 0.0946754 -0.0005860 255 0 0
-0.0544945 0.0946754 -0.0005860 255 0 0
-0.0522067 0.0946754 -0.0005860 255 0 0
-0.0499189 0.0946754 -0.0005860 255 0 0
-0.0476311 0.0946754 -0.0005860 255 0 0
-0.0453433 0.0946754 -0.0005860 255 0 0
-0.0430556 0.0946754 -0.0005860 255 0 0
-0.0407678 0.0946754 -0.0005860 255 0 0
-0.0384800 0.0946754 -0.0005860 255 0 0
-0.0361922 0.0946754 -0.0005860 255 0 0
-0.0339044 0.0946754 -0.0005860 255 0 0
-0.0316167 0.0946754 -0.0005860 255 0 0
-0.0293289 0.0946754 -0.0005860 255 0 0
-0.0270411 0.0946754 -0.0005860 255 0 0
-0.0247533 0.0946754 -0.0005860 255 0 0
-0.0224655 0.0946754 -0.0005860 255 0 0
-0.0201778 0.0946754 -0.0005860 255 0 0
-0.0178900 0.0946754 -0.0005860 255 0 0
-0.0156022 0.0946754 -0.0005860 255 0 0
-0.0133144 0.0946754 -0.0005860 255 0 0
-0.0110266 0.0946754 -0.0005860 255 0 0
-0.0087388 0.0946754 -0.0005860 255 0 0
-0.0064511 0.0946754 -0.0005860 255 0 0
-0.0041633 0.0946754 -0.0005860 255 0 0
-0.0018755 0.0946754 -0.0005860 255 0 0
0.0004123 0.0946754 -0.0005860 255 0 0
0.0027001 0.0946754 -0.0005860 255 0 0
0.0049878 0.0946754 -0.0005860 255 0 0
0.0072756 0.0946754 -0.0005860 255 0 0
0.0095634 0.0946754 -0.0005860 255 0 0
0.0118512 0.0946754 -0.0005860 255 0 0
0.0141390 0.0946754 -0.0005860 255 0 0
0.0164268 0.0946754 -0.0005860 255 0 0
0.0187145 0.0946754 -0.0005860 255 0 0
0.0210023 0.0946754 -0.0005860 255 0 0
0.0232901 0.0946754 -0.0005860 255 0 0
-0.1002501 0.0969632 -0.0005860 255 0 0
-0.0979623 0.0969632 -0.0005860 255 0 0
-0.0956745 0.0969632 -0.0005860 255 0 0
-0.0933868 0.0969632 -0.0005860 255 0 0
-0.0910990 0.0969632 -0.0005860 255 0 0
-0.0888112 0.0969632 -0.0005860 255 0 0
-0.0865234 0.0969632 -0.0005860 255 0 0
-0.0842356 0.0969632 -0.0005860 255 0 0
-0.0819478 0.0969632 -0.0005860 255 0 0
-0.0796601 0.0969632 -0.0005860 255 0 0
-0.0773723 0.0969632 -0.0005860 255 0 0
-0.0750845 0.0969632 -0.0005860 255 0 0
-0.0727967 0.0969632 -0.0005860 255 0 0
-0.0705089 0.0969632 -0.0005860 255 0 0
-0.0682212 0.0969632 -0.0005860 255 0 0
-0.0659334 0.0969632 -0.0005860 255 0 0
-0.0636456 0.0969632 -0.0005860 255 0 0
-0.0613578 0.0969632 -0.0005860 255 0 0
-0.0590700 0.0969632 -0.0005860 255 0 0
-0.0567822 0.0969632 -0.0005860 255 0 0
-0.0544945 0.0969632 -0.0005860 255 0 0
-0.0522067 0.0969632 -0.0005860 255 0 0
-0.0499189 0.0969632 -0.0005860 255 0 0
-0.0476311 0.0969632 -0.0005860 255 0 0
-0.0453433 0.0969632 -0.0005860 255 0 0
-0.0430556 0.0969632 -0.0005860 255 0 0
-0.0407678 0.0969632 -0.0005860 255 0 0
-0.0384800 0.0969632 -0.0005860 255 0 0
-0.0361922 0.0969632 -0.0005860 255 0 0
-0.0339044 0.0969632 -0.0005860 255 0 0
-0.0316167 0.0969632 -0.0005860 255 0 0
-0.0293289 0.0969632 -0.0005860 255 0 0
-0.0270411 0.0969632 -0.0005860 255 0 0
-0.0247533 0.0969632 -0.0005860 255 0 0
-0.0224655 0.0969632 -0.0005860 255 0 0
-0.0201778 0.0969632 -0.0005860 255 0 0
-0.0178900 0.0969632 -0.0005860 255 0 0
-0.0156022 0.0969632 -0.0005860 255 0 0
-0.0133144 0.0969632 -0.0005860 255 0 0
-0.0110266 0.0969632 -0.0005860 255 0 0
-0.0087388 0.0969632 -0.0005860 255 0 0
-0.0064511 0.0969632 -0.0005860 255 0 0
-0.0041633 0.0969632 -0.0005860 255 0 0
-0.0018755 0.0969632 -0.0005860 255 0 0
0.0004123 0.0969632 -0.0005860 255 0 0
0.0027001 0.0969632 -0.0005860 255 0 0
0.0049878 0.0969632 -0.0005860 255 0 0
0.0072756 0.0969632 -0.0005860 255 0 0
0.0095634 0.0969632 -0.0005860 255 0 0
0.0118512 0.0969632 -0.0005860 255 0 0
0.0141390 0.0969632 -0.0005860 255 0 0
0.0164268 0.0969632 -0.0005860 255 0 0
0.0187145 0.0969632 -0.0005860 255 0 0
0.0210023 0.0969632 -0.0005860 255 0 0
0.0232901 0.0969632 -0.0005860 255 0 0
-0.1002501 0.0992510 -0.0005860 255 0 0
-0.0979623 0.0992510 -0.0005860 255 0 0
-0.0956745 0.0992510 -0.0005860 255 0 0
-0.0933868 0.0992510 -0.0005860 255 0 0
-0.0910990 0.0992510 -0.0005860 255 0 0
-0.0888112 0.0992510 -0.0005860 255 0 0
-0.0865234 0.0992510 -0.0005860 255 0 0
-0.0842356 0.0992510 -0.0005860 255 0 0
-0.0819478 0.0992510 -0.0005860 255 0 0
-0.0796601 0.0992510 -0.0005860 255 0 0
-0.0773723 0.0992510 -0.0005860 255 0 0
-0.0750845 0.0992510 -0.0005860 255 0 0
-0.0727967 0.0992510 -0.0005860 255 0 0
-0.0705089 0.0992510 -0.0005860 255 0 0
-0.0682212 0.0992510 -0.0005860 255 0 0
-0.0659334 0.0992510 -0.0005860 255 0 0
-0.0636456 0.0992510 -0.0005860 255 0 0
-0.0613578 0.0992510 -0.0005860 255 0 0
-0.0590700 0.0992510 -0.0005860 255 0 0
-0.0567822 0.0992510 -0.0005860 255 0 0
-0.0544945 0.0992510 -0.0005860 255 0 0
-0.0522067 0.0992510 -0.0005860 255 0 0
-0.0499189 0.0992510 -0.0005860 255 0 0
-0.0476311 0.0992510 -0.0005860 255 0 0
-0.0453433 0.0992510 -0.0005860 255 0 0
-0.0430556 0.0992510 -0.0005860 255 0 0
-0.0407678 0.0992510 -0.0005860 255 0 0
-0.0384800 0.0992510 -0.0005860 255 0 0
-0.0361922 0.0992510 -0.0005860 255 0 0
-0.0339044 0.0992510 -0.0005860 255 0 0
-0.0316167 0.0992510 -0.0005860 255 0 0
-0.0293289 0.0992510 -0.0005860 255 0 0
-0.0270411 0.0992510 -0.0005860 255 0 0
-0.0247533 0.0992510 -0.0005860 255 0 0
-0.0224655 0.0992510 -0.0005860 255 0 0
-0.0201778 0.0992510 -0.0005860 255 0 0
-0.0178900 0.0992510 -0.0005860 255 0 0
-0.0156022 0.0992510 -0.0005860 255 0 0
-0.0133144 0.0992510 -0.0005860 255 0 0
-0.0110266 0.0992510 -0.0005860 255 0 0
-0.0087388 0.0992510 -0.0005860 255 0 0
-0.0064511 0.0992510 -0.0005860 255 0 0
-0.0041633 0.0992510 -0.0005860 255 0 0
-0.0018755 0.0992510 -0.0005860 255 0 0
0.0004123 0.0992510 -0.0005860 255 0 0
0.0027001 0.0992510 -0.0005860 255 0 0
0.0049878 0.0992510 -0.0005860 255 0 0
0.0072756 0.0992510 -0.0005860 255 0 0
0.0095634 0.0992510 -0.0005860 255 0 0
0.0118512 0.0992510 -0.0005860 255 0 0
0.0141390 0.0992510 -0.0005860 255 0 0
0.0164268 0.0992510 -0.0005860 255 0 0
0.0187145 0.0992510 -0.0005860 255 0 0
0.0210023 0.0992510 -0.0005860 255 0 0
0.0232901 0.0992510 -0.0005860 255 0 0
-0.1002501 0.1015388 -0.0005860 255 0 0
-0.0979623 0.1015388 -0.0005860 255 0 0
-0.0956745 0.1015388 -0.0005860 255 0 0
-0.0933868 0.1015388 -0.0005860 255 0 0
-0.0910990 0.1015388 -0.0005860 255 0 0
-0.0888112 0.1015388 -0.0005860 255 0 0
-0.0865234 0.1015388 -0.0005860 255 0 0
-0.0842356 0.1015388 -0.0005860 255 0 0
-0.0819478 0.1015388 -0.0005860 255 0 0
-0.0796601 0.1015388 -0.0005860 255 0 0
-0.0773723 0.1015388 -0.0005860 255 0 0
-0.0750845 0.1015388 -0.0005860 255 0 0
-0.0727967 0.1015388 -0.0005860 255 0 0
-0.0705089 0.1015388 -0.0005860 255 0 0
-0.0682212 0.1015388 -0.0005860 255 0 0
-0.0659334 0.1015388 -0.0005860 255 0 0
-0.0636456 0.1015388 -0.0005860 255 0 0
-0.0613578 0.1015388 -0.0005860 255 0 0
-0.0590700 0.1015388 -0.0005860 255 0 0
-0.0567822 0.1015388 -0.0005860 255 0 0
-0.0544945 0.1015388 -0.0005860 255 0 0
-0.0522067 0.1015388 -0.0005860 255 0 0
-0.0499189 0.1015388 -0.0005860 255 0 0
-0.0476311 0.1015388 -0.0005860 255 0 0
-0.0453433 0.1015388 -0.0005860 255 0 0
-0.0430556 0.1015388 -0.0005860 255 0 0
-0.0407678 0.1015388 -0.0005860 255 0 0
-0.0384800 0.1015388 -0.0005860 255 0 0
-0.0361922 0.1015388 -0.0005860 255 0 0
-0.0339044 0.1015388 -0.0005860 255 0 0
-0.0316167 0.1015388 -0.0005860 255 0 0
-0.0293289 0.1015388 -0.0005860 255 0 0
-0.0270411 0.1015388 -0.0005860 255 0 0
-0.0247533 0.1015388 -0.0005860 255 0 0
-0.0224655 0.1015388 -0.0005860 255 0 0
-0.0201778 0.1015388 -0.0005860 255 0 0
-0.0178900 0.1015388 -0.0005860 255 0 0
-0.0156022 0.1015388 -0.0005860 255 0 0
-0.0133144 0.1015388 -0.0005860 255 0 0
-0.0110266 0.1015388 -0.0005860 255 0 0
-0.0087388 0.1015388 -0.0005860 255 0 0
-0.0064511 0.1015388 -0.0005860 255 0 0
-0.0041633 0.1015388 -0.0005860 255 0 0
-0.0018755 0.1015388 -0.0005860 255 0 0
0.0004123 0.1015388 -0.0005860 255 0 0
0.0027001 0.1015388 -0.0005860 255 0 0
0.0049878 0.1015388 -0.0005860 255 0 0
0.0072756 0.1015388 -0.0005860 255 0 0
0.0095634 0.1015388 -0.0005860 255 0 0
0.0118512 0.1015388 -0.0005860 255 0 0
0.0141390 0.1015388 -0.0005860 255 0 0
0.0164268 0.1015388 -0.0005860 255 0 0
0.0187145 0.1015388 -0.0005860 255 0 0
0.0210023 0.1015388 -0.0005860 255 0 0
0.0232901 0.1015388 -0.0005860 255 0 0
-0.1002501 0.1038265 -0.0005860 255 0 0
-0.0979623 0.1038265 -0.0005860 255 0 0
-0.0956745 0.1038265 -0.0005860 255 0 0
-0.0933868 0.1038265 -0.0005860 255 0 0
-0.0910990 0.1038265 -0.0005860 255 0 0
-0.0888112 0.1038265 -0.0005860 255 0 0
-0.0865234 0.1038265 -0.0005860 255 0 0
-0.0842356 0.1038265 -0.0005860 255 0 0
-0.0819478 0.1038265 -0.0005860 255 0 0
-0.0796601 0.1038265 -0.0005860 255 0 0
-0.0773723 0.1038265 -0.0005860 255 0 0
-0.0750845 0.1038265 -0.0005860 255 0 0
-0.0727967 0.1038265 -0.0005860 255 0 0
-0.0705089 0.1038265 -0.0005860 255 0 0
-0.0682212 0.1038265 -0.0005860 255 0 0
-0.0659334 0.1038265 -0.0005860 255 0 0
-0.0636456 0.1038265 -0.0005860 255 0 0
-0.0613578 0.1038265 -0.0005860 255 0 0
-0.0590700 0.1038265 -0.0005860 255 0 0
-0.0567822 0.1038265 -0.0005860 255 0 0
-0.0544945 0.1038265 -0.0005860 255 0 0
-0.0522067 0.1038265 -0.0005860 255 0 0
-0.0499189 0.1038265 -0.0005860 255 0 0
-0.0476311 0.1038265 -0.0005860 255 0 0
-0.0453433 0.1038265 -0.0005860 255 0 0
-0.0430556 0.1038265 -0.0005860 255 0 0
-0.0407678 0.1038265 -0.0005860 255 0 0
-0.0384800 0.1038265 -0.0005860 255 0 0
-0.0361922 0.1038265 -0.0005860 255 0 0
-0.0339044 0.1038265 -0.0005860 255 0 0
-0.0316167 0.1038265 -0.0005860 255 0 0
-0.0293289 0.1038265 -0.0005860 255 0 0
-0.0270411 0.1038265 -0.0005860 255 0 0
-0.0247533 0.1038265 -0.0005860 255 0 0
-0.0224655 0.1038265 -0.0005860 255 0 0
-0.0201778 0.1038265 -0.0005860 255 0 0
-0.0178900 0.1038265 -0.0005860 255 0 0
-0.0156022 0.1038265 -0.0005860 255 0 0
-0.0133144 0.1038265 -0.0005860 255 0 0
-0.0110266 0.1038265 -0.0005860 255 0 0
-0.0087388 0.1038265 -0.0005860 255 0 0
-0.0064511 0.1038265 -0.0005860 255 0 0
-0.0041633 0.1038265 -0.0005860 255 0 0
-0.0018755 0.1038265 -0.0005860 255 0 0
0.0004123 0.1038265 -0.0005860 255 0 0
0.0027001 0.1038265 -0.0005860 255 0 0
0.0049878 0.1038265 -0.0005860 255 0 0
0.0072756 0.1038265 -0.0005860 255 0 0
0.0095634 0.1038265 -0.0005860 255 0 0
0.0118512 0.1038265 -0.0005860 255 0 0
0.0141390 0.1038265 -0.0005860 255 0 0
0.0164268 0.1038265 -0.0005860 255 0 0
0.0187145 0.1038265 -0.0005860 255 0 0
0.0210023 0.1038265 -0.0005860 255 0 0
-0.1002501 0.1061143 -0.0005860 255 0 0
-0.0979623 0.1061143 -0.0005860 255 0 0
-0.0956745 0.1061143 -0.0005860 255 0 0
-0.0933868 0.1061143 -0.0005860 255 0 0
-0.0910990 0.1061143 -0.0005860 255 0 0
-0.0888112 0.1061143 -0.0005860 255 0 0
-0.0865234 0.1061143 -0.0005860 255 0 0
-0.0842356 0.1061143 -0.0005860 255 0 0
-0.0819478 0.1061143 -0.0005860 255 0 0
-0.0796601 0.1061143 -0.0005860 255 0 0
-0.0773723 0.1061143 -0.0005860 255 0 0
-0.0750845 0.1061143 -0.0005860 255 0 0
-0.0727967 0.1061143 -0.0005860 255 0 0
-0.0705089 0.1061143 -0.0005860 255 0 0
-0.0682212 0.1061143 -0.0005860 255 0 0
-0.0659334 0.1061143 -0.0005860 255 0 0
-0.0636456 0.1061143 -0.0005860 255 0 0
-0.0613578 0.1061143 -0.0005860 255 0 0
-0.0590700 0.1061143 -0.0005860 255 0 0
-0.0567822 0.1061143 -0.0005860 255 0 0
-0.0544945 0.1061143 -0.0005860 255 0 0
-0.0522067 0.1061143 -0.0005860 255 0 0
-0.0499189 0.1061143 -0.0005860 255 0 0
-0.0476311 0.1061143 -0.0005860 255 0 0
-0.0453433 0.1061143 -0.0005860 255 0 0
-0.0430556 0.1061143 -0.0005860 255 0 0
-0.0407678 0.1061143 -0.0005860 255 0 0
-0.0384800 0.1061143 -0.0005860 255 0 0
-0.0361922 0.1061143 -0.0005860 255 0 0
-0.0339044 0.1061143 -0.0005860 255 0 0
-0.0316167 0.1061143 -0.0005860 255 0 0
-0.0293289 0.1061143 -0.0005860 255 0 0
-0.0270411 0.1061143 -0.0005860 255 0 0
-0.0247533 0.1061143 -0.0005860 255 0 0
-0.0224655 0.1061143 -0.0005860 255 0 0
-0.0201778 0.1061143 -0.0005860 255 0 0
-0.0178900 0.1061143 -0.0005860 255 0 0
-0.0156022 0.1061143 -0.0005860 255 0 0
-0.0133144 0.1061143 -0.0005860 255 0 0
-0.0110266 0.1061143 -0.0005860 255 0 0
-0.0087388 0.1061143 -0.0005860 255 0 0
-0.0064511 0.1061143 -0.0005860 255 0 0
-0.0041633 0.1061143 -0.0005860 255 0 0
-0.0018755 0.1061143 -0.0005860 255 0 0
0.0004123 0.1061143 -0.0005860 255 0 0
0.0027001 0.1061143 -0.0005860 255 0 0
0.0049878 0.1061143 -0.0005860 255 0 0
0.0072756 0.1061143 -0.0005860 255 0 0
0.0095634 0.1061143 -0.0005860 255 0 0
0.0118512 0.1061143 -0.0005860 255 0 0
0.0141390 0.1061143 -0.0005860 255 0 0
0.0164268 0.1061143 -0.0005860 255 0 0
0.0187145 0.1061143 -0.0005860 255 0 0
0.0210023 0.1061143 -0.0005860 255 0 0
-0.1002501 0.1084021 -0.0005860 255 0 0
-0.0979623 0.1084021 -0.0005860 255 0 0
-0.0956745 0.1084021 -0.0005860 255 0 0
-0.0933868 0.1084021 -0.0005860 255 0 0
-0.0910990 0.1084021 -0.0005860 255 0 0
-0.0888112 0.1084021 -0.0005860 255 0 0
-0.0865234 0.1084021 -0.0005860 255 0 0
-0.0842356 0.1084021 -0.0005860 255 0 0
-0.0819478 0.1084021 -0.0005860 255 0 0
-0.0796601 0.1084021 -0.0005860 255 0 0
-0.0773723 0.1084021 -0.0005860 255 0 0
-0.0750845 0.1084021 -0.0005860 255 0 0
-0.0727967 0.1084021 -0.0005860 255 0 0
-0.0705089 0.1084021 -0.0005860 255 0 0
-0.0682212 0.1084021 -0.0005860 255 0 0
-0.0659334 0.1084021 -0.0005860 255 0 0
-0.0636456 0.1084021 -0.0005860 255 0 0
-0.0613578 0.1084021 -0.0005860 255 0 0
-0.0590700 0.1084021 -0.0005860 255 0 0
-0.0567822 0.1084021 -0.0005860 255 0 0
-0.0544945 0.1084021 -0.0005860 255 0 0
-0.0522067 0.1084021 -0.0005860 255 0 0
-0.0499189 0.1084021 -0.0005860 255 0 0
-0.0476311 0.1084021 -0.0005860 255 0 0
-0.0453433 0.1084021 -0.0005860 255 0 0
-0.0430556 0.1084021 -0.0005860 255 0 0
-0.0407678 0.1084021 -0.0005860 255 0 0
-0.0384800 0.1084021 -0.0005860 255 0 0
-0.0361922 0.1084021 -0.0005860 255 0 0
-0.0339044 0.1084021 -0.0005860 255 0 0
-0.0316167 0.1084021 -0.0005860 255 0 0
-0.0293289 0.1084021 -0.0005860 255 0 0
-0.0270411 0.1084021 -0.0005860 255 0 0
-0.0247533 0.1084021 -0.0005860 255 0 0
-0.0224655 0.1084021 -0.0005860 255 0 0
-0.0201778 0.1084021 -0.0005860 255 0 0
-0.0178900 0.1084021 -0.0005860 255 0 0
-0.0156022 0.1084021 -0.0005860 255 0 0
-0.0133144 0.1084021 -0.0005860 255 0 0
-0.0110266 0.1084021 -0.0005860 255 0 0
-0.0087388 0.1084021 -0.0005860 255 0 0
-0.0064511 0.1084021 -0.0005860 255 0 0
-0.0041633 0.1084021 -0.0005860 255 0 0
-0.0018755 0.1084021 -0.0005860 255 0 0
0.0004123 0.1084021 -0.0005860 255 0 0
0.0027001 0.1084021 -0.0005860 255 0 0
0.0049878 0.1084021 -0.0005860 255 0 0
0.0072756 0.1084021 -0.0005860 255 0 0
0.0095634 0.1084021 -0.0005860 255 0 0
0.0118512 0.1084021 -0.0005860 255 0 0
0.0141390 0.1084021 -0.0005860 255 0 0
0.0164268 0.1084021 -0.0005860 255 0 0
0.0187145 0.1084021 -0.0005860 255 0 0
0.0210023 0.1084021 -0.0005860 255 0 0
-0.0979623 0.1106899 -0.0005860 255 0 0
-0.0956745 0.1106899 -0.0005860 255 0 0
-0.0933868 0.1106899 -0.0005860 255 0 0
-0.0910990 0.1106899 -0.0005860 255 0 0
-0.0888112 0.1106899 -0.0005860 255 0 0
-0.0865234 0.1106899 -0.0005860 255 0 0
-0.0842356 0.1106899 -0.0005860 255 0 0
-0.0819478 0.1106899 -0.0005860 255 0 0
-0.0796601 0.1106899 -0.0005860 255 0 0
-0.0773723 0.1106899 -0.0005860 255 0 0
-0.0750845 0.1106899 -0.0005860 255 0 0
-0.0727967 0.1106899 -0.0005860 255 0 0
-0.0705089 0.1106899 -0.0005860 255 0 0
-0.0682212 0.1106899 -0.0005860 255 0 0
-0.0659334 0.1106899 -0.0005860 255 0 0
-0.0636456 0.1106899 -0.0005860 255 0 0
-0.0613578 0.1106899 -0.0005860 255 0 0
-0.0590700 0.1106899 -0.0005860 255 0 0
-0.0567822 0.1106899 -0.0005860 255 0 0
-0.0544945 0.1106899 -0.0005860 255 0 0
-0.0522067 0.1106899 -0.0005860 255 0 0
-0.0499189 0.1106899 -0.0005860 255 0 0
-0.0476311 0.1106899 -0.0005860 255 0 0
-0.0453433 0.1106899 -0.0005860 255 0 0
-0.0430556 0.1106899 -0.0005860 255 0 0
-0.0407678 0.1106899 -0.0005860 255 0 0
-0.0384800 0.1106899 -0.0005860 255 0 0
-0.0361922 0.1106899 -0.0005860 255 0 0
-0.0339044 0.1106899 -0.0005860 255 0 0
-0.0316167 0.1106899 -0.0005860 255 0 0
-0.0293289 0.1106899 -0.0005860 255 0 0
-0.0270411 0.1106899 -0.0005860 255 0 0
-0.0247533 0.1106899 -0.0005860 255 0 0
-0.0224655 0.1106899 -0.0005860 255 0 0
-0.0201778 0.1106899 -0.0005860 255 0 0
-0.0178900 0.1106899 -0.0005860 255 0 0
-0.0156022 0.1106899 -0.0005860 255 0 0
-0.0133144 0.1106899 -0.0005860 255 0 0
-0.0110266 0.1106899 -0.0005860 255 0 0
-0.0087388 0.1106899 -0.0005860 255 0 0
-0.0064511 0.1106899 -0.0005860 255 0 0
-0.0041633 0.1106899 -0.0005860 255 0 0
-0.0018755 0.1106899 -0.0005860 255 0 0
0.0004123 0.1106899 -0.0005860 255 0 0
0.0027001 0.1106899 -0.0005860 255 0 0
0.0049878 0.1106899 -0.0005860 255 0 0
0.0072756 0.1106899 -0.0005860 255 0 0
0.0095634 0.1106899 -0.0005859 255 0 0
0.0118512 0.1106899 -0.0005860 255 0 0
0.0141390 0.1106899 -0.0005860 255 0 0
0.0164268 0.1106899 -0.0005860 255 0 0
0.0187145 0.1106899 -0.0005860 255 0 0
-0.0979623 0.1129777 -0.0005860 255 0 0
-0.0956745 0.1129777 -0.0005860 255 0 0
-0.0933868 0.1129777 -0.0005860 255 0 0
-0.0910990 0.1129777 -0.0005859 255 0 0
-0.0888112 0.1129777 -0.0005859 255 0 0
-0.0865234 0.1129777 -0.0005859 255 0 0
-0.0842356 0.1129777 -0.0005859 255 0 0
-0.0819478 0.1129777 -0.0005859 255 0 0
-0.0796601 0.1129777 -0.0005859 255 0 0
-0.0773723 0.1129777 -0.0005859 255 0 0
-0.0750845 0.1129777 -0.0005859 255 0 0
-0.0727967 0.1129777 -0.0005859 255 0 0
-0.0705089 0.1129777 -0.0005859 255 0 0
-0.0682212 0.1129777 -0.0005859 255 0 0
-0.0659334 0.1129777 -0.0005859 255 0 0
-0.0636456 0.1129777 -0.0005859 255 0 0
-0.0613578 0.1129777 -0.0005859 255 0 0
-0.0590700 0.1129777 -0.0005859 255 0 0
-0.0567822 0.1129777 -0.0005859 255 0 0
-0.0544945 0.1129777 -0.0005859 255 0 0
-0.0522067 0.1129777 -0.0005859 255 0 0
-0.0499189 0.1129777 -0.0005859 255 0 0
-0.0476311 0.1129777 -0.0005859 255 0 0
-0.0453433 0.1129777 -0.0005860 255 0 0
-0.0430556 0.1129777 -0.0005860 255 0 0
-0.0407678 0.1129777 -0.0005860 255 0 0
-0.0384800 0.1129777 -0.0005859 255 0 0
-0.0361922 0.1129777 -0.0005859 255 0 0
-0.0339044 0.1129777 -0.0005859 255 0 0
-0.0316167 0.1129777 -0.0005859 255 0 0
-0.0293289 0.1129777 -0.0005859 255 0 0
-0.0270411 0.1129777 -0.0005859 255 0 0
-0.0247533 0.1129777 -0.0005859 255 0 0
-0.0224655 0.1129777 -0.0005859 255 0 0
-0.0201778 0.1129777 -0.0005859 255 0 0
-0.0178900 0.1129777 -0.0005859 255 0 0
-0.0156022 0.1129777 -0.0005859 255 0 0
-0.0133144 0.1129777 -0.0005859 255 0 0
-0.0110266 0.1129777 -0.0005859 255 0 0
-0.0087388 0.1129777 -0.0005859 255 0 0
-0.0064511 0.1129777 -0.0005859 255 0 0
-0.0041633 0.1129777 -0.0005859 255 0 0
-0.0018755 0.1129777 -0.0005859 255 0 0
0.0004123 0.1129777 -0.0005859 255 0 0
0.0027001 0.1129777 -0.0005859 255 0 0
0.0049878 0.1129777 -0.0005859 255 0 0
0.0072756 0.1129777 -0.0005859 255 0 0
0.0095634 0.1129777 -0.0005859 255 0 0
0.0118512 0.1129777 -0.0005859 255 0 0
0.0141390 0.1129777 -0.0005859 255 0 0
0.0164268 0.1129777 -0.0005859 255 0 0
0.0187145 0.1129777 -0.0005859 255 0 0
-0.0979623 0.1152655 -0.0005860 255 0 0
-0.0956745 0.1152655 -0.0005860 255 0 0
-0.0933868 0.1152655 -0.0005859 255 0 0
-0.0910990 0.1152655 -0.0005859 255 0 0
-0.0888112 0.1152655 -0.0005859 255 0 0
-0.0865234 0.1152655 -0.0005859 255 0 0
-0.0842356 0.1152655 -0.0005859 255 0 0
-0.0819478 0.1152654 -0.0005859 255 0 0
-0.0796601 0.1152654 -0.0005859 255 0 0
-0.0773723 0.1152654 -0.0005859 255 0 0
-0.0750845 0.1152654 -0.0005859 255 0 0
-0.0727967 0.1152654 -0.0005859 255 0 0
-0.0705089 0.1152655 -0.0005859 255 0 0
-0.0682212 0.1152655 -0.0005859 255 0 0
-0.0659334 0.1152655 -0.0005859 255 0 0
-0.0636456 0.1152655 -0.0005859 255 0 0
-0.0613578 0.1152655 -0.0005859 255 0 0
-0.0590700 0.1152655 -0.0005859 255 0 0
-0.0567822 0.1152654 -0.0005859 255 0 0
-0.0544945 0.1152654 -0.0005859 255 0 0
-0.0522067 0.1152654 -0.0005859 255 0 0
-0.0499189 0.1152654 -0.0005859 255 0 0
-0.0476311 0.1152654 -0.0005859 255 0 0
-0.0453433 0.1152654 -0.0005860 255 0 0
-0.0430556 0.1152655 -0.0005860 255 0 0
-0.0407678 0.1152655 -0.0005860 255 0 0
-0.0384800 0.1152654 -0.0005860 255 0 0
-0.0361922 0.1152654 -0.0005859 255 0 0
-0.0339044 0.1152654 -0.0005859 255 0 0
-0.0316167 0.1152654 -0.0005859 255 0 0
-0.0293289 0.1152654 -0.0005859 255 0 0
-0.0270411 0.1152654 -0.0005859 255 0 0
-0.0247533 0.1152655 -0.0005859 255 0 0
-0.0224655 0.1152655 -0.0005859 255 0 0
-0.0201778 0.1152655 -0.0005859 255 0 0
-0.0178900 0.1152655 -0.0005859 255 0 0
-0.0156022 0.1152655 -0.0005859 255 0 0
-0.0133144 0.1152655 -0.0005859 255 0 0
-0.0110266 0.1152655 -0.0005859 255 0 0
-0.0087388 0.1152655 -0.0005859 255 0 0
-0.0064511 0.1152655 -0.0005859 255 0 0
-0.0041633 0.1152655 -0.0005859 255 0 0
-0.0018755 0.1152655 -0.0005859 255 0 0
0.0004123 0.1152655 -0.0005859 255 0 0
0.0027001 0.1152655 -0.0005859 255 0 0
0.0049878 0.1152655 -0.0005859 255 0 0
0.0072756 0.1152655 -0.0005859 255 0 0
0.0095634 0.1152655 -0.0005859 255 0 0
0.0118512 0.1152655 -0.0005859 255 0 0
0.0141390 0.1152655 -0.0005859 255 0 0
0.0164268 0.1152655 -0.0005859 255 0 0
-0.0956745 0.1175532 -0.0005859 255 0 0
-0.0933868 0.1175532 -0.0005859 255 0 0
-0.0910990 0.1175532 -0.0005859 255 0 0
-0.0888112 0.1175532 -0.0005859 255 0 0
-0.0865234 0.1175532 -0.0005859 255 0 0
-0.0842356 0.1175532 -0.0005859 255 0 0
-0.0819478 0.1175531 -0.0005859 255 0 0
-0.0796601 0.1175532 -0.0005859 255 0 0
-0.0773723 0.1175532 -0.0005859 255 0 0
-0.0750845 0.1175532 -0.0005859 255 0 0
-0.0727967 0.1175532 -0.0005859 255 0 0
-0.0705089 0.1175532 -0.0005859 255 0 0
-0.0682212 0.1175532 -0.0005859 255 0 0
-0.0659334 0.1175532 -0.0005859 255 0 0
-0.0636456 0.1175532 -0.0005859 255 0 0
-0.0613578 0.1175532 -0.0005859 255 0 0
-0.0590700 0.1175532 -0.0005859 255 0 0
-0.0567822 0.1175531 -0.0005859 255 0 0
-0.0544945 0.1175531 -0.0005859 255 0 0
-0.0522067 0.1175531 -0.0005859 255 0 0
-0.0499189 0.1175531 -0.0005860 255 0 0
-0.0476311 0.1175531 -0.0005860 255 0 0
-0.0453433 0.1175531 -0.0005860 255 0 0
-0.0430556 0.1175531 -0.0005860 255 0 0
-0.0407678 0.1175531 -0.0005860 255 0 0
-0.0384800 0.1175532 -0.0005860 255 0 0
-0.0361922 0.1175532 -0.0005860 255 0 0
-0.0339044 0.1175532 -0.0005859 255 0 0
-0.0316167 0.1175532 -0.0005859 255 0 0
-0.0293289 0.1175532 -0.0005859 255 0 0
-0.0270411 0.1175532 -0.0005859 255 0 0
-0.0247533 0.1175532 -0.0005859 255 0 0
-0.0224655 0.1175532 -0.0005859 255 0 0
-0.0201778 0.1175532 -0.0005859 255 0 0
-0.0178900 0.1175532 -0.0005859 255 0 0
-0.0156022 0.1175532 -0.0005859 255 0 0
-0.0133144 0.1175532 -0.0005859 255 0 0
-0.0110266 0.1175532 -0.0005859 255 0 0
-0.0087388 0.1175532 -0.0005859 255 0 0
-0.0064511 0.1175532 -0.0005859 255 0 0
-0.0041633 0.1175532 -0.0005859 255 0 0
-0.0018755 0.1175532 -0.0005859 255 0 0
0.0004123 0.1175532 -0.0005859 255 0 0
0.0027001 0.1175532 -0.0005859 255 0 0
0.0049878 0.1175532 -0.0005859 255 0 0
0.0072756 0.1175532 -0.0005859 255 0 0
0.0095634 0.1175532 -0.0005859 255 0 0
0.0118512 0.1175532 -0.0005859 255 0 0
0.0141390 0.1175532 -0.0005859 255 0 0
0.0164268 0.1175532 -0.0005859 255 0 0
-0.0956745 0.1198410 -0.0005859 255 0 0
-0.0933868 0.1198410 -0.0005859 255 0 0
-0.0910990 0.1198410 -0.0005859 255 0 0
-0.0888112 0.1198410 -0.0005859 255 0 0
-0.0865234 0.1198409 -0.0005859 255 0 0
-0.0842356 0.1198410 -0.0005859 255 0 0
-0.0819478 0.1198410 -0.0005859 255 0 0
-0.0796601 0.1198410 -0.0005859 255 0 0
-0.0773723 0.1198409 -0.0005859 255 0 0
-0.0750845 0.1198410 -0.0005859 255 0 0
-0.0727967 0.1198410 -0.0005859 255 0 0
-0.0705089 0.1198410 -0.0005859 255 0 0
-0.0682212 0.1198409 -0.0005859 255 0 0
-0.0659334 0.1198409 -0.0005859 255 0 0
-0.0636456 0.1198409 -0.0005859 255 0 0
-0.0613578 0.1198409 -0.0005859 255 0 0
-0.0590700 0.1198409 -0.0005859 255 0 0
-0.0567822 0.1198409 -0.0005859 255 0 0
-0.0544945 0.1198409 -0.0005859 255 0 0
-0.0522067 0.1198409 -0.0005860 255 0 0
-0.0499189 0.1198409 -0.0005860 255 0 0
-0.0476311 0.1198409 -0.0005860 255 0 0
-0.0453433 0.1198409 -0.0005861 255 0 0
-0.0430556 0.1198409 -0.0005862 255 0 0
-0.0407678 0.1198409 -0.0005862 255 0 0
-0.0384800 0.1198408 -0.0005861 255 0 0
-0.0361922 0.1198408 -0.0005861 255 0 0
-0.0339044 0.1198408 -0.0005859 255 0 0
-0.0316167 0.1198409 -0.0005858 255 0 0
-0.0293289 0.1198409 -0.0005859 255 0 0
-0.0270411 0.1198409 -0.0005858 255 0 0
-0.0247533 0.1198410 -0.0005859 255 0 0
-0.0224655 0.1198410 -0.0005859 255 0 0
-0.0201778 0.1198410 -0.0005859 255 0 0
-0.0178900 0.1198410 -0.0005859 255 0 0
-0.0156022 0.1198410 -0.0005859 255 0 0
-0.0133144 0.1198410 -0.0005859 255 0 0
-0.0110266 0.1198410 -0.0005859 255 0 0
-0.0087388 0.1198410 -0.0005859 255 0 0
-0.0064511 0.1198410 -0.0005859 255 0 0
-0.0041633 0.1198410 -0.0005859 255 0 0
-0.0018755 0.1198410 -0.0005859 255 0 0
0.0004123 0.1198410 -0.0005859 255 0 0
0.0027001 0.1198410 -0.0005859 255 0 0
0.0049878 0.1198410 -0.0005859 255 0 0
0.0072756 0.1198410 -0.0005859 255 0 0
0.0095634 0.1198410 -0.0005859 255 0 0
0.0118512 0.1198410 -0.0005859 255 0 0
0.0141390 0.1198410 -0.0005859 255 0 0
-0.0933868 0.1221288 -0.0005859 255 0 0
-0.0910990 0.1221288 -0.0005859 255 0 0
-0.0888112 0.1221287 -0.0005859 255 0 0
-0.0865234 0.1221288 -0.0005859 255 0 0
-0.0842356 0.1221287 -0.0005859 255 0 0
-0.0819478 0.1221287 -0.0005859 255 0 0
-0.0796601 0.1221287 -0.0005859 255 0 0
-0.0773723 0.1221287 -0.0005859 255 0 0
-0.0750845 0.1221287 -0.0005859 255 0 0
-0.0727967 0.1221287 -0.0005859 255 0 0
-0.0705089 0.1221287 -0.0005859 255 0 0
-0.0682212 0.1221286 -0.0005859 255 0 0
-0.0659334 0.1221286 -0.0005859 255 0 0
-0.0636456 0.1221286 -0.0005859 255 0 0
-0.0613578 0.1221285 -0.0005859 255 0 0
-0.0590700 0.1221285 -0.0005859 255 0 0
-0.0567822 0.1221285 -0.0005859 255 0 0
-0.0544945 0.1221286 -0.0005860 255 0 0
-0.0522067 0.1221285 -0.0005860 255 0 0
-0.0499189 0.1221285 -0.0005860 255 0 0
-0.0476311 0.1221286 -0.0005861 255 0 0
-0.0453433 0.1221287 -0.0005861 255 0 0
-0.0430555 0.1221287 -0.0005859 255 0 0
-0.0407677 0.1221287 -0.0005859 255 0 0
-0.0384800 0.1221287 -0.0005859 255 0 0
-0.0361922 0.1221287 -0.0005858 255 0 0
-0.0339044 0.1221286 -0.0005856 255 0 0
-0.0316167 0.1221285 -0.0005855 255 0 0
-0.0293289 0.1221286 -0.0005854 255 0 0
-0.0270411 0.1221286 -0.0005854 255 0 0
-0.0247533 0.1221287 -0.0005858 255 0 0
-0.0224655 0.1221288 -0.0005859 255 0 0
-0.0201778 0.1221288 -0.0005859 255 0 0
-0.0178900 0.1221288 -0.0005859 255 0 0
-0.0156022 0.1221288 -0.0005859 255 0 0
-0.0133144 0.1221288 -0.0005859 255 0 0
-0.0110266 0.1221288 -0.0005859 255 0 0
-0.0087388 0.1221288 -0.0005859 255 0 0
-0.0064511 0.1221288 -0.0005859 255 0 0
-0.0041633 0.1221288 -0.0005859 255 0 0
-0.0018755 0.1221288 -0.0005859 255 0 0
0.0004123 0.1221288 -0.0005859 255 0 0
0.0027001 0.1221288 -0.0005859 255 0 0
0.0049878 0.1221288 -0.0005859 255 0 0
0.0072756 0.1221288 -0.0005859 255 0 0
0.0095634 0.1221288 -0.0005859 255 0 0
0.0118512 0.1221288 -0.0005859 255 0 0
-0.0910990 0.1244165 -0.0005859 255 0 0
-0.0888112 0.1244165 -0.0005859 255 0 0
-0.0865234 0.1244165 -0.0005859 255 0 0
-0.0842356 0.1244165 -0.0005859 255 0 0
-0.0819478 0.1244165 -0.0005859 255 0 0
-0.0796600 0.1244164 -0.0005858 255 0 0
-0.0773722 0.1244164 -0.0005858 255 0 0
-0.0750844 0.1244164 -0.0005858 255 0 0
-0.0727966 0.1244163 -0.0005858 255 0 0
-0.0705089 0.1244163 -0.0005858 255 0 0
-0.0682212 0.1244164 -0.0005859 255 0 0
-0.0659334 0.1244163 -0.0005859 255 0 0
-0.0636456 0.1244162 -0.0005859 255 0 0
-0.0613578 0.1244163 -0.0005859 255 0 0
-0.0590701 0.1244163 -0.0005859 255 0 0
-0.0567823 0.1244161 -0.0005859 255 0 0
-0.0544945 0.1244161 -0.0005860 255 0 0
-0.0522067 0.1244161 -0.0005860 255 0 0
-0.0499190 0.1244162 -0.0005859 255 0 0
-0.0476312 0.1244162 -0.0005858 255 0 0
-0.0453434 0.1244164 -0.0005862 255 0 0
-0.0430556 0.1244165 -0.0005864 255 0 0
-0.0407678 0.1244165 -0.0005865 255 0 0
-0.0384800 0.1244164 -0.0005864 255 0 0
-0.0361922 0.1244164 -0.0005862 255 0 0
-0.0339044 0.1244163 -0.0005860 255 0 0
-0.0316166 0.1244162 -0.0005855 255 0 0
-0.0293289 0.1244162 -0.0005854 255 0 0
-0.0270411 0.1244162 -0.0005853 255 0 0
-0.0247533 0.1244164 -0.0005853 255 0 0
-0.0224655 0.1244165 -0.0005857 255 0 0
-0.0201778 0.1244164 -0.0005856 255 0 0
-0.0178900 0.1244164 -0.0005856 255 0 0
-0.0156022 0.1244165 -0.0005858 255 0 0
-0.0133144 0.1244165 -0.0005858 255 0 0
-0.0110266 0.1244165 -0.0005859 255 0 0
-0.0087388 0.1244165 -0.0005859 255 0 0
-0.0064511 0.1244165 -0.0005859 255 0 0
-0.0041633 0.1244165 -0.0005859 255 0 0
-0.0018755 0.1244165 -0.0005859 255 0 0
0.0004123 0.1244166 -0.0005859 255 0 0
0.0027001 0.1244166 -0.0005859 255 0 0
0.0049878 0.1244166 -0.0005859 255 0 0
0.0072756 0.1244166 -0.0005859 255 0 0
0.0095634 0.1244166 -0.0005859 255 0 0
-0.0888112 0.1267043 -0.0005859 255 0 0
-0.0865234 0.1267043 -0.0005859 255 0 0
-0.0842356 0.1267043 -0.0005858 255 0 0
-0.0819478 0.1267044 -0.0005858 255 0 0
-0.0796600 0.1267043 -0.0005858 255 0 0
-0.0773722 0.1267042 -0.0005857 255 0 0
-0.0750845 0.1267042 -0.0005857 255 0 0
-0.0727966 0.1267041 -0.0005857 255 0 0
-0.0705089 0.1267041 -0.0005858 255 0 0
-0.0682212 0.1267041 -0.0005859 255 0 0
-0.0659334 0.1267040 -0.0005859 255 0 0
-0.0636456 0.1267038 -0.0005859 255 0 0
-0.0613579 0.1267041 -0.0005859 255 0 0
-0.0590701 0.1267040 -0.0005859 255 0 0
-0.0567824 0.1267037 -0.0005860 255 0 0
-0.0544946 0.1267036 -0.0005860 255 0 0
-0.0522068 0.1267037 -0.0005858 255 0 0
-0.0499190 0.1267041 -0.0005859 255 0 0
-0.0476312 0.1267041 -0.0005861 255 0 0
-0.0453433 0.1267043 -0.0005868 255 0 0
-0.0430555 0.1267046 -0.0005869 255 0 0
-0.0407677 0.1267045 -0.0005871 255 0 0
-0.0384799 0.1267044 -0.0005872 255 0 0
-0.0361922 0.1267043 -0.0005868 255 0 0
-0.0339044 0.1267041 -0.0005857 255 0 0
-0.0316166 0.1267038 -0.0005850 255 0 0
-0.0293289 0.1267039 -0.0005851 255 0 0
-0.0270411 0.1267039 -0.0005848 255 0 0
-0.0247533 0.1267041 -0.0005853 255 0 0
-0.0224655 0.1267042 -0.0005853 255 0 0
-0.0201778 0.1267042 -0.0005853 255 0 0
-0.0178900 0.1267042 -0.0005853 255 0 0
-0.0156022 0.1267043 -0.0005853 255 0 0
-0.0133144 0.1267043 -0.0005853 255 0 0
-0.0110266 0.1267043 -0.0005853 255 0 0
-0.0087388 0.1267043 -0.0005854 255 0 0
-0.0064511 0.1267043 -0.0005854 255 0 0
-0.0041633 0.1267043 -0.0005857 255 0 0
-0.0018755 0.1267044 -0.0005859 255 0 0
0.0004125 0.1267044 -0.0005859 255 0 0
0.0027001 0.1267044 -0.0005859 255 0 0
0.0049878 0.1267044 -0.0005859 255 0 0
0.0072756 0.1267044 -0.0005859 255 0 0
-0.0842356 0.1289921 -0.0005858 255 0 0
-0.0819478 0.1289919 -0.0005857 255 0 0
-0.0796599 0.1289915 -0.0005857 255 0 0
-0.0773721 0.1289904 -0.0005856 255 0 0
-0.0750843 0.1289899 -0.0005856 255 0 0
-0.0727966 0.1289896 -0.0005856 255 0 0
-0.0705089 0.1289914 -0.0005857 255 0 0
-0.0682211 0.1289916 -0.0005859 255 0 0
-0.0659333 0.1289916 -0.0005859 255 0 0
-0.0636456 0.1289916 -0.0005859 255 0 0
-0.0613579 0.1289912 -0.0005859 255 0 0
-0.0590702 0.1289904 -0.0005859 255 0 0
-0.0567824 0.1289899 -0.0005860 255 0 0
-0.0544946 0.1289899 -0.0005858 255 0 0
-0.0522068 0.1289900 -0.0005858 255 0 0
-0.0499191 0.1289905 -0.0005857 255 0 0
-0.0476312 0.1289914 -0.0005862 255 0 0
-0.0453433 0.1289922 -0.0005875 255 0 0
-0.0430554 0.1289928 -0.0005882 255 0 0
-0.0384798 0.1289927 -0.0005893 255 0 0
-0.0361921 0.1289922 -0.0005886 255 0 0
-0.0339043 0.1289919 -0.0005867 255 0 0
-0.0316166 0.1289914 -0.0005854 255 0 0
-0.0293288 0.1289912 -0.0005844 255 0 0
-0.0270411 0.1289912 -0.0005843 255 0 0
-0.0247533 0.1289916 -0.0005844 255 0 0
-0.0224655 0.1289918 -0.0005845 255 0 0
-0.0201778 0.1289918 -0.0005848 255 0 0
-0.0178900 0.1289919 -0.0005848 255 0 0
-0.0156022 0.1289919 -0.0005848 255 0 0
-0.0133144 0.1289920 -0.0005849 255 0 0
-0.0110266 0.1289920 -0.0005850 255 0 0
-0.0087388 0.1289920 -0.0005853 255 0 0
-0.0064511 0.1289920 -0.0005853 255 0 0
-0.0041633 0.1289920 -0.0005853 255 0 0
-0.0018746 0.1289920 -0.0005853 255 0 0
0.0004125 0.1289921 -0.0005859 255 0 0
0.0027001 0.1289921 -0.0005859 255 0 0
-0.0819477 0.1312775 -0.0005855 255 0 0
-0.0796598 0.1312770 -0.0005853 255 0 0
-0.0773717 0.1312757 -0.0005848 255 0 0
-0.0750832 0.1312711 -0.0005841 255 0 0
-0.0727944 0.1312779 -0.0005830 255 0 0
-0.0705078 0.1312763 -0.0005851 255 0 0
-0.0682211 0.1312780 -0.0005864 255 0 0
-0.0659334 0.1312774 -0.0005866 255 0 0
-0.0636457 0.1312767 -0.0005866 255 0 0
-0.0613584 0.1312769 -0.0005867 255 0 0
-0.0590709 0.1312789 -0.0005865 255 0 0
-0.0567833 0.1312863 -0.0005861 255 0 0
-0.0544954 0.1312767 -0.0005856 255 0 0
-0.0522073 0.1312763 -0.0005853 255 0 0
-0.0499191 0.1312771 -0.0005854 255 0 0
-0.0476313 0.1312780 -0.0005861 255 0 0
-0.0453433 0.1312798 -0.0005890 255 0 0
-0.0339041 0.1312797 -0.0005893 255 0 0
-0.0316165 0.1312786 -0.0005856 255 0 0
-0.0293288 0.1312784 -0.0005837 255 0 0
-0.0270411 0.1312786 -0.0005833 255 0 0
-0.0247533 0.1312782 -0.0005809 255 0 0
-0.0224655 0.1312778 -0.0005794 255 0 0
-0.0201778 0.1312781 -0.0005799 255 0 0
-0.0178900 0.1312782 -0.0005803 255 0 0
-0.0156022 0.1312783 -0.0005807 255 0 0
-0.0133144 0.1312785 -0.0005811 255 0 0
-0.0110266 0.1312786 -0.0005815 255 0 0
-0.0087388 0.1312787 -0.0005821 255 0 0
-0.0064470 0.1312789 -0.0005828 255 0 0
-0.0041598 0.1312793 -0.0005838 255 0 0
-0.0018739 0.1312796 -0.0005849 255 0 0
0.0004131 0.1312799 -0.0005858 255 0 0
-0.0750863 0.1335761 -0.0005876 255 0 0
-0.0728004 0.1335741 -0.0005901 255 0 0
-0.0705110 0.1335654 -0.0005869 255 0 0
-0.0682216 0.1335593 -0.0005848 255 0 0
-0.0659336 0.1335602 -0.0005850 255 0 0
-0.0636456 0.1335499 -0.0005850 255 0 0
-0.0613571 0.1334431 -0.0005847 255 0 0
-0.0590690 0.1334424 -0.0005847 255 0 0
-0.0567814 0.1334415 -0.0005850 255 0 0
-0.0247533 0.1335689 -0.0005887 255 0 0
-0.0224655 0.1335683 -0.0005916 255 0 0
-0.0201778 0.1335688 -0.0005918 255 0 0
-0.0178900 0.1335696 -0.0005918 255 0 0
-0.0156022 0.1335697 -0.0005915 255 0 0
-0.0133144 0.1335696 -0.0005911 255 0 0
-0.0110267 0.1335695 -0.0005906 255 0 0
-0.0087413 0.1335693 -0.0005902 255 0 0
-0.0064552 0.1335689 -0.0005894 255 0 0
-0.0041658 0.1335683 -0.0005877 255 0 0
-0.0682212 0.0351931 0.0017018 255 0 0
-0.0659334 0.0351931 0.0017018 255 0 0
-0.0636456 0.0351931 0.0017018 255 0 0
-0.0613578 0.0351931 0.0017018 255 0 0
-0.0590700 0.0351931 0.0017018 255 0 0
-0.0567822 0.0351931 0.0017018 255 0 0
-0.0544945 0.0351931 0.0017018 255 0 0
-0.0522067 0.0351931 0.0017018 255 0 0
-0.0499189 0.0351931 0.0017018 255 0 0
-0.0293289 0.0351931 0.0017018 255 0 0
-0.0270411 0.0351931 0.0017018 255 0 0
-0.0247533 0.0351931 0.0017018 255 0 0
-0.0224655 0.0351931 0.0017018 255 0 0
-0.0201778 0.0351931 0.0017018 255 0 0
-0.0178900 0.0351931 0.0017018 255 0 0
-0.0156022 0.0351931 0.0017018 255 0 0
-0.0133144 0.0351930 0.0017018 255 0 0
-0.0727967 0.0374809 0.0017018 255 0 0
-0.0705089 0.0374809 0.0017018 255 0 0
-0.0682212 0.0374809 0.0017018 255 0 0
-0.0659334 0.0374809 0.0017018 255 0 0
-0.0636456 0.0374809 0.0017018 255 0 0
-0.0613578 0.0374809 0.0017018 255 0 0
-0.0590700 0.0374809 0.0017018 255 0 0
-0.0567822 0.0374809 0.0017018 255 0 0
-0.0544945 0.0374809 0.0017018 255 0 0
-0.0522067 0.0374809 0.0017018 255 0 0
-0.0499189 0.0374809 0.0017018 255 0 0
-0.0476311 0.0374809 0.0017018 255 0 0
-0.0453433 0.0374809 0.0017018 255 0 0
-0.0361922 0.0374809 0.0017018 255 0 0
-0.0339044 0.0374809 0.0017018 255 0 0
-0.0316167 0.0374809 0.0017018 255 0 0
-0.0293289 0.0374809 0.0017018 255 0 0
-0.0270411 0.0374809 0.0017018 255 0 0
-0.0247533 0.0374809 0.0017018 255 0 0
-0.0224655 0.0374809 0.0017018 255 0 0
-0.0201778 0.0374809 0.0017018 255 0 0
-0.0178900 0.0374809 0.0017018 255 0 0
-0.0156022 0.0374808 0.0017018 255 0 0
-0.0133144 0.0374808 0.0017018 255 0 0
-0.0110266 0.0374807 0.0017018 255 0 0
-0.0087388 0.0374805 0.0017018 255 0 0
-0.0750845 0.0397687 0.0017018 255 0 0
-0.0727967 0.0397687 0.0017018 255 0 0
-0.0705089 0.0397687 0.0017018 255 0 0
-0.0682212 0.0397687 0.0017018 255 0 0
-0.0659334 0.0397687 0.0017018 255 0 0
-0.0636456 0.0397687 0.0017018 255 0 0
-0.0613578 0.0397687 0.0017018 255 0 0
-0.0590700 0.0397687 0.0017018 255 0 0
-0.0567822 0.0397687 0.0017018 255 0 0
-0.0544945 0.0397687 0.0017018 255 0 0
-0.0522067 0.0397687 0.0017018 255 0 0
-0.0499189 0.0397687 0.0017018 255 0 0
-0.0476311 0.0397687 0.0017018 255 0 0
-0.0453433 0.0397687 0.0017018 255 0 0
-0.0430556 0.0397687 0.0017018 255 0 0
-0.0407678 0.0397687 0.0017018 255 0 0
-0.0384800 0.0397687 0.0017018 255 0 0
-0.0361922 0.0397687 0.0017018 255 0 0
-0.0339044 0.0397687 0.0017018 255 0 0
-0.0316167 0.0397687 0.0017018 255 0 0
-0.0293289 0.0397687 0.0017018 255 0 0
-0.0270411 0.0397687 0.0017018 255 0 0
-0.0247533 0.0397687 0.0017018 255 0 0
-0.0224655 0.0397687 0.0017018 255 0 0
-0.0201778 0.0397686 0.0017018 255 0 0
-0.0178900 0.0397686 0.0017018 255 0 0
-0.0156022 0.0397686 0.0017018 255 0 0
-0.0133144 0.0397685 0.0017018 255 0 0
-0.0110266 0.0397684 0.0017018 255 0 0
-0.0087388 0.0397683 0.0017018 255 0 0
-0.0064511 0.0397681 0.0017018 255 0 0
-0.0773723 0.0420564 0.0017018 255 0 0
-0.0750845 0.0420564 0.0017018 255 0 0
-0.0727967 0.0420564 0.0017018 255 0 0
-0.0705089 0.0420564 0.0017018 255 0 0
-0.0682212 0.0420564 0.0017018 255 0 0
-0.0659334 0.0420564 0.0017018 255 0 0
-0.0636456 0.0420564 0.0017018 255 0 0
-0.0613578 0.0420564 0.0017018 255 0 0
-0.0590700 0.0420564 0.0017018 255 0 0
-0.0567822 0.0420564 0.0017018 255 0 0
-0.0544945 0.0420564 0.0017018 255 0 0
-0.0522067 0.0420564 0.0017018 255 0 0
-0.0499189 0.0420564 0.0017018 255 0 0
-0.0476311 0.0420564 0.0017018 255 0 0
-0.0453433 0.0420564 0.0017018 255 0 0
-0.0430556 0.0420564 0.0017018 255 0 0
-0.0407678 0.0420564 0.0017018 255 0 0
-0.0384800 0.0420564 0.0017018 255 0 0
-0.0361922 0.0420564 0.0017018 255 0 0
-0.0339044 0.0420564 0.0017018 255 0 0
-0.0316167 0.0420564 0.0017018 255 0 0
-0.0293289 0.0420564 0.0017018 255 0 0
-0.0270411 0.0420564 0.0017018 255 0 0
-0.0247533 0.0420564 0.0017018 255 0 0
-0.0224655 0.0420564 0.0017018 255 0 0
-0.0201778 0.0420564 0.0017018 255 0 0
-0.0178900 0.0420564 0.0017018 255 0 0
-0.0156022 0.0420563 0.0017018 255 0 0
-0.0133144 0.0420562 0.0017018 255 0 0
-0.0110266 0.0420559 0.0017018 255 0 0
-0.0087389 0.0420553 0.0017018 255 0 0
-0.0064511 0.0420536 0.0017018 255 0 0
-0.0041680 0.0420492 0.0017018 255 0 0
-0.0773723 0.0443442 0.0017018 255 0 0
-0.0750845 0.0443442 0.0017018 255 0 0
-0.0727967 0.0443442 0.0017018 255 0 0
-0.0705089 0.0443442 0.0017018 255 0 0
-0.0682212 0.0443442 0.0017018 255 0 0
-0.0659334 0.0443442 0.0017018 255 0 0
-0.0636456 0.0443442 0.0017018 255 0 0
-0.0613578 0.0443442 0.0017018 255 0 0
-0.0590700 0.0443442 0.0017018 255 0 0
-0.0567822 0.0443442 0.0017018 255 0 0
-0.0544945 0.0443442 0.0017018 255 0 0
-0.0522067 0.0443442 0.0017018 255 0 0
-0.0499189 0.0443442 0.0017018 255 0 0
-0.0476311 0.0443442 0.0017018 255 0 0
-0.0453433 0.0443442 0.0017018 255 0 0
-0.0430556 0.0443442 0.0017018 255 0 0
-0.0407678 0.0443442 0.0017018 255 0 0
-0.0384800 0.0443442 0.0017018 255 0 0
-0.0361922 0.0443442 0.0017018 255 0 0
-0.0339044 0.0443442 0.0017018 255 0 0
-0.0316167 0.0443442 0.0017018 255 0 0
-0.0293289 0.0443442 0.0017018 255 0 0
-0.0270411 0.0443442 0.0017018 255 0 0
-0.0247533 0.0443442 0.0017018 255 0 0
-0.0224655 0.0443442 0.0017018 255 0 0
-0.0201778 0.0443442 0.0017018 255 0 0
-0.0178900 0.0443441 0.0017018 255 0 0
-0.0156022 0.0443441 0.0017018 255 0 0
-0.0133144 0.0443439 0.0017018 255 0 0
-0.0110266 0.0443435 0.0017018 255 0 0
-0.0087389 0.0443427 0.0017018 255 0 0
-0.0064528 0.0443403 0.0017018 255 0 0
-0.0041681 0.0443340 0.0017020 255 0 0
-0.0018959 0.0443001 0.0017031 255 0 0
-0.0796601 0.0466320 0.0017018 255 0 0
-0.0773723 0.0466320 0.0017018 255 0 0
-0.0750845 0.0466320 0.0017018 255 0 0
-0.0727967 0.0466320 0.0017018 255 0 0
-0.0705089 0.0466320 0.0017018 255 0 0
-0.0682212 0.0466320 0.0017018 255 0 0
-0.0659334 0.0466320 0.0017018 255 0 0
-0.0636456 0.0466320 0.0017018 255 0 0
-0.0613578 0.0466320 0.0017018 255 0 0
-0.0590700 0.0466320 0.0017018 255 0 0
-0.0567822 0.0466320 0.0017018 255 0 0
-0.0544945 0.0466320 0.0017018 255 0 0
-0.0522067 0.0466320 0.0017018 255 0 0
-0.0499189 0.0466320 0.0017018 255 0 0
-0.0476311 0.0466320 0.0017018 255 0 0
-0.0453433 0.0466320 0.0017018 255 0 0
-0.0430556 0.0466320 0.0017018 255 0 0
-0.0407678 0.0466320 0.0017018 255 0 0
-0.0384800 0.0466320 0.0017018 255 0 0
-0.0361922 0.0466320 0.0017018 255 0 0
-0.0339044 0.0466320 0.0017018 255 0 0
-0.0316167 0.0466320 0.0017018 255 0 0
-0.0293289 0.0466320 0.0017018 255 0 0
-0.0270411 0.0466320 0.0017018 255 0 0
-0.0247533 0.0466320 0.0017018 255 0 0
-0.0224655 0.0466320 0.0017018 255 0 0
-0.0201778 0.0466320 0.0017018 255 0 0
-0.0178900 0.0466319 0.0017018 255 0 0
-0.0156022 0.0466319 0.0017018 255 0 0
-0.0133144 0.0466317 0.0017018 255 0 0
-0.0110266 0.0466315 0.0017018 255 0 0
-0.0087389 0.0466311 0.0017018 255 0 0
-0.0064511 0.0466300 0.0017018 255 0 0
-0.0041680 0.0466275 0.0017018 255 0 0
-0.0018893 0.0465952 0.0017025 255 0 0
0.0004145 0.0467156 0.0017017 255 0 0
-0.0819478 0.0489198 0.0017018 255 0 0
-0.0796601 0.0489198 0.0017018 255 0 0
-0.0773723 0.0489198 0.0017018 255 0 0
-0.0750845 0.0489198 0.0017018 255 0 0
-0.0727967 0.0489198 0.0017018 255 0 0
-0.0705089 0.0489198 0.0017018 255 0 0
-0.0682212 0.0489198 0.0017018 255 0 0
-0.0659334 0.0489198 0.0017018 255 0 0
-0.0636456 0.0489198 0.0017018 255 0 0
-0.0613578 0.0489198 0.0017018 255 0 0
-0.0590700 0.0489198 0.0017018 255 0 0
-0.0567822 0.0489198 0.0017018 255 0 0
-0.0544945 0.0489198 0.0017018 255 0 0
-0.0522067 0.0489198 0.0017018 255 0 0
-0.0499189 0.0489198 0.0017018 255 0 0
-0.0476311 0.0489198 0.0017018 255 0 0
-0.0453433 0.0489198 0.0017018 255 0 0
-0.0430556 0.0489198 0.0017018 255 0 0
-0.0407678 0.0489198 0.0017018 255 0 0
-0.0384800 0.0489198 0.0017018 255 0 0
-0.0361922 0.0489198 0.0017018 255 0 0
-0.0339044 0.0489198 0.0017018 255 0 0
-0.0316167 0.0489198 0.0017018 255 0 0
-0.0293289 0.0489198 0.0017018 255 0 0
-0.0270411 0.0489198 0.0017018 255 0 0
-0.0247533 0.0489198 0.0017018 255 0 0
-0.0224655 0.0489198 0.0017018 255 0 0
-0.0201778 0.0489198 0.0017018 255 0 0
-0.0178900 0.0489197 0.0017018 255 0 0
-0.0156022 0.0489197 0.0017018 255 0 0
-0.0133144 0.0489196 0.0017018 255 0 0
-0.0110266 0.0489195 0.0017018 255 0 0
-0.0087389 0.0489192 0.0017018 255 0 0
-0.0064511 0.0489189 0.0017018 255 0 0
-0.0041656 0.0489185 0.0017018 255 0 0
-0.0018837 0.0489156 0.0017018 255 0 0
0.0004158 0.0489272 0.0017018 255 0 0
0.0027072 0.0489325 0.0017018 255 0 0
-0.0819478 0.0512076 0.0017018 255 0 0
-0.0796601 0.0512076 0.0017018 255 0 0
-0.0773723 0.0512076 0.0017018 255 0 0
-0.0750845 0.0512076 0.0017018 255 0 0
-0.0727967 0.0512076 0.0017018 255 0 0
-0.0705089 0.0512076 0.0017018 255 0 0
-0.0682212 0.0512076 0.0017018 255 0 0
-0.0659334 0.0512076 0.0017018 255 0 0
-0.0636456 0.0512076 0.0017018 255 0 0
-0.0613578 0.0512076 0.0017018 255 0 0
-0.0590700 0.0512076 0.0017018 255 0 0
-0.0567822 0.0512076 0.0017018 255 0 0
-0.0544945 0.0512076 0.0017018 255 0 0
-0.0522067 0.0512076 0.0017018 255 0 0
-0.0499189 0.0512076 0.0017018 255 0 0
-0.0476311 0.0512076 0.0017018 255 0 0
-0.0453433 0.0512076 0.0017018 255 0 0
-0.0430556 0.0512076 0.0017018 255 0 0
-0.0407678 0.0512076 0.0017018 255 0 0
-0.0384800 0.0512076 0.0017018 255 0 0
-0.0361922 0.0512076 0.0017018 255 0 0
-0.0339044 0.0512076 0.0017018 255 0 0
-0.0316167 0.0512076 0.0017018 255 0 0
-0.0293289 0.0512076 0.0017018 255 0 0
-0.0270411 0.0512076 0.0017018 255 0 0
-0.0247533 0.0512076 0.0017018 255 0 0
-0.0224655 0.0512076 0.0017018 255 0 0
-0.0201778 0.0512075 0.0017018 255 0 0
-0.0178900 0.0512075 0.0017018 255 0 0
-0.0156022 0.0512075 0.0017018 255 0 0
-0.0133144 0.0512074 0.0017018 255 0 0
-0.0110266 0.0512073 0.0017018 255 0 0
-0.0087388 0.0512071 0.0017018 255 0 0
-0.0064511 0.0512069 0.0017018 255 0 0
-0.0041633 0.0512065 0.0017018 255 0 0
-0.0018784 0.0512049 0.0017018 255 0 0
0.0004141 0.0512109 0.0017029 255 0 0
0.0027048 0.0512138 0.0017029 255 0 0
-0.0842356 0.0534954 0.0017018 255 0 0
-0.0819478 0.0534954 0.0017018 255 0 0
-0.0796601 0.0534954 0.0017018 255 0 0
-0.0773723 0.0534954 0.0017018 255 0 0
-0.0750845 0.0534954 0.0017018 255 0 0
-0.0727967 0.0534954 0.0017018 255 0 0
-0.0705089 0.0534954 0.0017018 255 0 0
-0.0682212 0.0534954 0.0017018 255 0 0
-0.0659334 0.0534954 0.0017018 255 0 0
-0.0636456 0.0534954 0.0017018 255 0 0
-0.0613578 0.0534954 0.0017018 255 0 0
-0.0590700 0.0534954 0.0017018 255 0 0
-0.0567822 0.0534954 0.0017018 255 0 0
-0.0544945 0.0534954 0.0017018 255 0 0
-0.0522067 0.0534954 0.0017018 255 0 0
-0.0499189 0.0534954 0.0017018 255 0 0
-0.0476311 0.0534954 0.0017018 255 0 0
-0.0453433 0.0534954 0.0017018 255 0 0
-0.0430556 0.0534954 0.0017018 255 0 0
-0.0407678 0.0534954 0.0017018 255 0 0
-0.0384800 0.0534954 0.0017018 255 0 0
-0.0361922 0.0534954 0.0017018 255 0 0
-0.0339044 0.0534954 0.0017018 255 0 0
-0.0316167 0.0534954 0.0017018 255 0 0
-0.0293289 0.0534954 0.0017018 255 0 0
-0.0270411 0.0534954 0.0017018 255 0 0
-0.0247533 0.0534954 0.0017018 255 0 0
-0.0224655 0.0534954 0.0017018 255 0 0
-0.0201778 0.0534953 0.0017018 255 0 0
-0.0178900 0.0534953 0.0017018 255 0 0
-0.0156022 0.0534953 0.0017018 255 0 0
-0.0133144 0.0534952 0.0017018 255 0 0
-0.0110266 0.0534952 0.0017018 255 0 0
-0.0087388 0.0534951 0.0017018 255 0 0
-0.0064511 0.0534949 0.0017018 255 0 0
-0.0041633 0.0534946 0.0017018 255 0 0
-0.0018760 0.0534939 0.0017018 255 0 0
0.0004131 0.0534965 0.0017029 255 0 0
0.0027024 0.0534979 0.0017030 255 0 0
0.0049879 0.0534964 0.0017029 255 0 0
-0.0865234 0.0557831 0.0017018 255 0 0
-0.0842356 0.0557831 0.0017018 255 0 0
-0.0819478 0.0557831 0.0017018 255 0 0
-0.0796601 0.0557831 0.0017018 255 0 0
-0.0773723 0.0557831 0.0017018 255 0 0
-0.0750845 0.0557831 0.0017018 255 0 0
-0.0727967 0.0557831 0.0017018 255 0 0
-0.0705089 0.0557831 0.0017018 255 0 0
-0.0682212 0.0557831 0.0017018 255 0 0
-0.0659334 0.0557831 0.0017018 255 0 0
-0.0636456 0.0557831 0.0017018 255 0 0
-0.0613578 0.0557831 0.0017018 255 0 0
-0.0590700 0.0557831 0.0017018 255 0 0
-0.0567822 0.0557831 0.0017018 255 0 0
-0.0544945 0.0557831 0.0017018 255 0 0
-0.0522067 0.0557831 0.0017018 255 0 0
-0.0499189 0.0557831 0.0017018 255 0 0
-0.0476311 0.0557831 0.0017018 255 0 0
-0.0453433 0.0557831 0.0017018 255 0 0
-0.0430556 0.0557831 0.0017018 255 0 0
-0.0407678 0.0557831 0.0017018 255 0 0
-0.0384800 0.0557831 0.0017018 255 0 0
-0.0361922 0.0557831 0.0017018 255 0 0
-0.0339044 0.0557831 0.0017018 255 0 0
-0.0316167 0.0557831 0.0017018 255 0 0
-0.0293289 0.0557831 0.0017018 255 0 0
-0.0270411 0.0557831 0.0017018 255 0 0
-0.0247533 0.0557831 0.0017018 255 0 0
-0.0224655 0.0557831 0.0017018 255 0 0
-0.0201778 0.0557831 0.0017018 255 0 0
-0.0178900 0.0557831 0.0017018 255 0 0
-0.0156022 0.0557831 0.0017018 255 0 0
-0.0133144 0.0557831 0.0017018 255 0 0
-0.0110266 0.0557830 0.0017018 255 0 0
-0.0087388 0.0557830 0.0017018 255 0 0
-0.0064511 0.0557829 0.0017018 255 0 0
-0.0041633 0.0557828 0.0017018 255 0 0
-0.0018758 0.0557825 0.0017018 255 0 0
0.0004127 0.0557838 0.0017029 255 0 0
0.0027001 0.0557845 0.0017029 255 0 0
0.0049879 0.0557838 0.0017029 255 0 0
0.0072757 0.0557835 0.0017029 255 0 0
-0.0865234 0.0580709 0.0017018 255 0 0
-0.0842356 0.0580709 0.0017018 255 0 0
-0.0819478 0.0580709 0.0017018 255 0 0
-0.0796601 0.0580709 0.0017018 255 0 0
-0.0773723 0.0580709 0.0017018 255 0 0
-0.0750845 0.0580709 0.0017018 255 0 0
-0.0727967 0.0580709 0.0017018 255 0 0
-0.0705089 0.0580709 0.0017018 255 0 0
-0.0682212 0.0580709 0.0017018 255 0 0
-0.0659334 0.0580709 0.0017018 255 0 0
-0.0636456 0.0580709 0.0017018 255 0 0
-0.0613578 0.0580709 0.0017018 255 0 0
-0.0590700 0.0580709 0.0017018 255 0 0
-0.0567822 0.0580709 0.0017018 255 0 0
-0.0544945 0.0580709 0.0017018 255 0 0
-0.0522067 0.0580709 0.0017018 255 0 0
-0.0499189 0.0580709 0.0017018 255 0 0
-0.0476311 0.0580709 0.0017018 255 0 0
-0.0453433 0.0580709 0.0017018 255 0 0
-0.0430556 0.0580709 0.0017018 255 0 0
-0.0407678 0.0580709 0.0017018 255 0 0
-0.0384800 0.0580709 0.0017018 255 0 0
-0.0361922 0.0580709 0.0017018 255 0 0
-0.0339044 0.0580709 0.0017018 255 0 0
-0.0316167 0.0580709 0.0017018 255 0 0
-0.0293289 0.0580709 0.0017018 255 0 0
-0.0270411 0.0580709 0.0017018 255 0 0
-0.0247533 0.0580709 0.0017018 255 0 0
