ply
format ascii 1.0
element vertex 1228
property float x
property float y
property float z
property uchar red
property uchar green
property uchar blue
end_header
-0.0270411 0.1244166 0.0291552 255 0 0
-0.0247533 0.1244166 0.0291552 255 0 0
-0.0224655 0.1244166 0.0291552 255 0 0
-0.0201778 0.1244166 0.0291552 255 0 0
-0.0178900 0.1244166 0.0291552 255 0 0
-0.0156022 0.1244166 0.0291552 255 0 0
-0.0133144 0.1244166 0.0291552 255 0 0
-0.0110266 0.1244166 0.0291552 255 0 0
-0.0087388 0.1244166 0.0291552 255 0 0
-0.0064511 0.1244166 0.0291552 255 0 0
-0.0041633 0.1244166 0.0291552 255 0 0
-0.0018755 0.1244166 0.0291552 255 0 0
0.0004123 0.1244166 0.0291552 255 0 0
-0.0819490 0.1267046 0.0291557 255 0 0
-0.0796608 0.1267045 0.0291555 255 0 0
-0.0773726 0.1267045 0.0291553 255 0 0
-0.0750846 0.1267044 0.0291553 255 0 0
-0.0727967 0.1267043 0.0291552 255 0 0
-0.0705091 0.1267049 0.0291554 255 0 0
-0.0682214 0.1267051 0.0291555 255 0 0
-0.0659335 0.1267047 0.0291553 255 0 0
-0.0636456 0.1267045 0.0291552 255 0 0
-0.0613578 0.1267044 0.0291552 255 0 0
-0.0590701 0.1267044 0.0291552 255 0 0
-0.0567823 0.1267044 0.0291552 255 0 0
-0.0544945 0.1267044 0.0291552 255 0 0
-0.0522067 0.1267044 0.0291552 255 0 0
-0.0499189 0.1267044 0.0291552 255 0 0
-0.0476311 0.1267044 0.0291552 255 0 0
-0.0453433 0.1267044 0.0291552 255 0 0
-0.0430556 0.1267044 0.0291552 255 0 0
-0.0407678 0.1267044 0.0291552 255 0 0
-0.0384800 0.1267044 0.0291552 255 0 0
-0.0361922 0.1267044 0.0291552 255 0 0
-0.0339044 0.1267044 0.0291552 255 0 0
-0.0316167 0.1267044 0.0291552 255 0 0
-0.0293289 0.1267044 0.0291552 255 0 0
-0.0270411 0.1267044 0.0291552 255 0 0
-0.0247533 0.1267044 0.0291552 255 0 0
-0.0224655 0.1267043 0.0291552 255 0 0
-0.0201778 0.1267044 0.0291552 255 0 0
-0.0178900 0.1267044 0.0291552 255 0 0
-0.0156022 0.1267044 0.0291552 255 0 0
-0.0133144 0.1267044 0.0291552 255 0 0
-0.0110266 0.1267044 0.0291552 255 0 0
-0.0087388 0.1267044 0.0291552 255 0 0
-0.0064511 0.1267044 0.0291552 255 0 0
-0.0041633 0.1267044 0.0291552 255 0 0
-0.0018755 0.1267044 0.0291552 255 0 0
-0.0773726 0.1289922 0.0291553 255 0 0
-0.0750846 0.1289923 0.0291553 255 0 0
-0.0727967 0.1289919 0.0291551 255 0 0
-0.0705093 0.1289936 0.0291558 255 0 0
-0.0682218 0.1289944 0.0291562 255 0 0
-0.0659337 0.1289931 0.0291556 255 0 0
-0.0636457 0.1289924 0.0291553 255 0 0
-0.0613579 0.1289924 0.0291553 255 0 0
-0.0590701 0.1289923 0.0291552 255 0 0
-0.0567823 0.1289922 0.0291552 255 0 0
-0.0544945 0.1289921 0.0291552 255 0 0
-0.0522067 0.1289921 0.0291552 255 0 0
-0.0499189 0.1289921 0.0291552 255 0 0
-0.0476311 0.1289921 0.0291552 255 0 0
-0.0453433 0.1289921 0.0291552 255 0 0
-0.0430556 0.1289921 0.0291552 255 0 0
-0.0407678 0.1289921 0.0291552 255 0 0
-0.0384800 0.1289921 0.0291552 255 0 0
-0.0361922 0.1289921 0.0291552 255 0 0
-0.0339044 0.1289921 0.0291552 255 0 0
-0.0316167 0.1289921 0.0291552 255 0 0
-0.0293289 0.1289921 0.0291552 255 0 0
-0.0270411 0.1289921 0.0291552 255 0 0
-0.0247533 0.1289921 0.0291552 255 0 0
-0.0224655 0.1289921 0.0291552 255 0 0
-0.0201778 0.1289921 0.0291552 255 0 0
-0.0178900 0.1289921 0.0291552 255 0 0
-0.0156022 0.1289921 0.0291552 255 0 0
-0.0133144 0.1289921 0.0291552 255 0 0
-0.0110266 0.1289921 0.0291552 255 0 0
-0.0087388 0.1289921 0.0291552 255 0 0
-0.0064511 0.1289921 0.0291552 255 0 0
-0.0041633 0.1289921 0.0291552 255 0 0
-0.0705099 0.1312833 0.0291568 255 0 0
-0.0682228 0.1312848 0.0291515 255 0 0
-0.0659341 0.1312821 0.0291555 255 0 0
-0.0636459 0.1312803 0.0291555 255 0 0
-0.0613583 0.1312803 0.0291557 255 0 0
-0.0590706 0.1312802 0.0291557 255 0 0
-0.0567827 0.1312800 0.0291555 255 0 0
-0.0544948 0.1312799 0.0291554 255 0 0
-0.0522069 0.1312799 0.0291553 255 0 0
-0.0499190 0.1312798 0.0291553 255 0 0
-0.0476312 0.1312794 0.0291553 255 0 0
-0.0453434 0.1312796 0.0291552 255 0 0
-0.0430556 0.1312799 0.0291552 255 0 0
-0.0407678 0.1312799 0.0291552 255 0 0
-0.0384800 0.1312799 0.0291552 255 0 0
-0.0361922 0.1312799 0.0291552 255 0 0
-0.0339044 0.1312799 0.0291552 255 0 0
-0.0316167 0.1312799 0.0291552 255 0 0
-0.0293289 0.1312799 0.0291552 255 0 0
-0.0270411 0.1312802 0.0291552 255 0 0
-0.0247533 0.1312792 0.0291552 255 0 0
-0.0224655 0.1312786 0.0291552 255 0 0
-0.0201778 0.1312793 0.0291552 255 0 0
-0.0178900 0.1312798 0.0291552 255 0 0
-0.0156022 0.1312798 0.0291552 255 0 0
-0.0133144 0.1312799 0.0291552 255 0 0
-0.0110266 0.1312799 0.0291552 255 0 0
-0.0636455 0.1335676 0.0291550 255 0 0
-0.0613573 0.1335673 0.0291547 255 0 0
-0.0590694 0.1335674 0.0291550 255 0 0
-0.0567817 0.1335676 0.0291549 255 0 0
-0.0544940 0.1335676 0.0291548 255 0 0
-0.0522063 0.1335676 0.0291549 255 0 0
-0.0499186 0.1335677 0.0291549 255 0 0
-0.0476309 0.1335676 0.0291550 255 0 0
-0.0453432 0.1335678 0.0291551 255 0 0
-0.0430556 0.1335680 0.0291551 255 0 0
-0.0407678 0.1335679 0.0291551 255 0 0
-0.0384800 0.1335678 0.0291551 255 0 0
-0.0361922 0.1335677 0.0291551 255 0 0
-0.0339044 0.1335677 0.0291551 255 0 0
-0.0316167 0.1335677 0.0291552 255 0 0
-0.0293289 0.1335677 0.0291552 255 0 0
-0.0270411 0.1335672 0.0291552 255 0 0
-0.0247533 0.1335689 0.0291552 255 0 0
-0.0224655 0.1335698 0.0291551 255 0 0
-0.0201778 0.1335686 0.0291552 255 0 0
-0.0476311 0.0374809 0.0314429 255 0 0
-0.0453433 0.0374809 0.0314429 255 0 0
-0.0430556 0.0374809 0.0314429 255 0 0
-0.0407678 0.0374809 0.0314429 255 0 0
-0.0384800 0.0374810 0.0314429 255 0 0
-0.0567822 0.0397687 0.0314429 255 0 0
-0.0544945 0.0397687 0.0314429 255 0 0
-0.0522067 0.0397687 0.0314429 255 0 0
-0.0499189 0.0397687 0.0314429 255 0 0
-0.0476311 0.0397687 0.0314429 255 0 0
-0.0453433 0.0397687 0.0314429 255 0 0
-0.0430556 0.0397687 0.0314429 255 0 0
-0.0407678 0.0397687 0.0314429 255 0 0
-0.0384800 0.0397688 0.0314429 255 0 0
-0.0361922 0.0397690 0.0314430 255 0 0
-0.0339045 0.0397667 0.0314431 255 0 0
-0.0316167 0.0397655 0.0314433 255 0 0
-0.0293290 0.0397661 0.0314432 255 0 0
-0.0270412 0.0397696 0.0314431 255 0 0
-0.0590700 0.0420564 0.0314429 255 0 0
-0.0567822 0.0420564 0.0314429 255 0 0
-0.0544945 0.0420564 0.0314429 255 0 0
-0.0522067 0.0420564 0.0314429 255 0 0
-0.0499189 0.0420564 0.0314429 255 0 0
-0.0476311 0.0420564 0.0314429 255 0 0
-0.0453433 0.0420564 0.0314429 255 0 0
-0.0430556 0.0420564 0.0314429 255 0 0
-0.0407678 0.0420564 0.0314429 255 0 0
-0.0384800 0.0420565 0.0314429 255 0 0
-0.0361922 0.0420565 0.0314429 255 0 0
-0.0339044 0.0420568 0.0314430 255 0 0
-0.0316167 0.0420553 0.0314430 255 0 0
-0.0293289 0.0420558 0.0314430 255 0 0
-0.0270412 0.0420577 0.0314431 255 0 0
-0.0247530 0.0420503 0.0314422 255 0 0
-0.0224645 0.0420443 0.0314406 255 0 0
-0.0201771 0.0420456 0.0314415 255 0 0
-0.0636456 0.0443442 0.0314429 255 0 0
-0.0613578 0.0443442 0.0314429 255 0 0
-0.0590700 0.0443442 0.0314429 255 0 0
-0.0567822 0.0443442 0.0314429 255 0 0
-0.0544945 0.0443442 0.0314429 255 0 0
-0.0522067 0.0443442 0.0314429 255 0 0
-0.0499189 0.0443442 0.0314429 255 0 0
-0.0476311 0.0443442 0.0314429 255 0 0
-0.0453433 0.0443442 0.0314429 255 0 0
-0.0430556 0.0443442 0.0314429 255 0 0
-0.0407678 0.0443442 0.0314429 255 0 0
-0.0384800 0.0443442 0.0314429 255 0 0
-0.0361922 0.0443442 0.0314429 255 0 0
-0.0339044 0.0443442 0.0314429 255 0 0
-0.0316167 0.0443441 0.0314429 255 0 0
-0.0293289 0.0443440 0.0314429 255 0 0
-0.0270411 0.0443451 0.0314431 255 0 0
-0.0247529 0.0443371 0.0314420 255 0 0
-0.0224641 0.0443365 0.0314399 255 0 0
-0.0201769 0.0443389 0.0314410 255 0 0
-0.0178884 0.0443205 0.0314392 255 0 0
-0.0155983 0.0443009 0.0314345 255 0 0
-0.0659334 0.0466320 0.0314429 255 0 0
-0.0636456 0.0466320 0.0314429 255 0 0
-0.0613578 0.0466320 0.0314429 255 0 0
-0.0590700 0.0466320 0.0314429 255 0 0
-0.0567822 0.0466320 0.0314429 255 0 0
-0.0544945 0.0466320 0.0314429 255 0 0
-0.0522067 0.0466320 0.0314429 255 0 0
-0.0499189 0.0466320 0.0314429 255 0 0
-0.0476311 0.0466320 0.0314429 255 0 0
-0.0453433 0.0466320 0.0314429 255 0 0
-0.0430556 0.0466320 0.0314429 255 0 0
-0.0407678 0.0466320 0.0314429 255 0 0
-0.0384800 0.0466320 0.0314429 255 0 0
-0.0361922 0.0466320 0.0314429 255 0 0
-0.0339044 0.0466320 0.0314429 255 0 0
-0.0316167 0.0466320 0.0314429 255 0 0
-0.0293289 0.0466319 0.0314429 255 0 0
-0.0270411 0.0466322 0.0314430 255 0 0
-0.0247531 0.0466288 0.0314425 255 0 0
-0.0224650 0.0466223 0.0314417 255 0 0
-0.0201774 0.0466253 0.0314420 255 0 0
-0.0178894 0.0466188 0.0314411 255 0 0
-0.0156005 0.0465977 0.0314383 255 0 0
-0.0133161 0.0465959 0.0314377 255 0 0
-0.0110318 0.0466187 0.0314390 255 0 0
-0.0682212 0.0489198 0.0314429 255 0 0
-0.0659334 0.0489198 0.0314429 255 0 0
-0.0636456 0.0489198 0.0314429 255 0 0
-0.0613578 0.0489198 0.0314429 255 0 0
-0.0590700 0.0489198 0.0314429 255 0 0
-0.0567822 0.0489198 0.0314429 255 0 0
-0.0544945 0.0489198 0.0314429 255 0 0
-0.0522067 0.0489198 0.0314429 255 0 0
-0.0499189 0.0489198 0.0314429 255 0 0
-0.0476311 0.0489198 0.0314429 255 0 0
-0.0453433 0.0489198 0.0314429 255 0 0
-0.0430556 0.0489198 0.0314429 255 0 0
-0.0407678 0.0489198 0.0314429 255 0 0
-0.0384800 0.0489198 0.0314429 255 0 0
-0.0361922 0.0489198 0.0314429 255 0 0
-0.0339044 0.0489198 0.0314429 255 0 0
-0.0316167 0.0489198 0.0314429 255 0 0
-0.0293289 0.0489197 0.0314429 255 0 0
-0.0270411 0.0489196 0.0314429 255 0 0
-0.0247533 0.0489190 0.0314428 255 0 0
-0.0224655 0.0489181 0.0314427 255 0 0
-0.0201777 0.0489178 0.0314426 255 0 0
-0.0178901 0.0489167 0.0314424 255 0 0
-0.0156024 0.0489143 0.0314419 255 0 0
-0.0133182 0.0489125 0.0314412 255 0 0
-0.0110338 0.0489149 0.0314411 255 0 0
-0.0087462 0.0489172 0.0314423 255 0 0
-0.0705089 0.0512076 0.0314429 255 0 0
-0.0682212 0.0512076 0.0314429 255 0 0
-0.0659334 0.0512076 0.0314429 255 0 0
-0.0636456 0.0512076 0.0314429 255 0 0
-0.0613578 0.0512076 0.0314429 255 0 0
-0.0590700 0.0512076 0.0314429 255 0 0
-0.0567822 0.0512076 0.0314429 255 0 0
-0.0544945 0.0512076 0.0314429 255 0 0
-0.0522067 0.0512076 0.0314429 255 0 0
-0.0499189 0.0512076 0.0314429 255 0 0
-0.0476311 0.0512076 0.0314429 255 0 0
-0.0453433 0.0512076 0.0314429 255 0 0
-0.0430556 0.0512076 0.0314429 255 0 0
-0.0407678 0.0512076 0.0314429 255 0 0
-0.0384800 0.0512076 0.0314429 255 0 0
-0.0361922 0.0512076 0.0314429 255 0 0
-0.0339044 0.0512076 0.0314429 255 0 0
-0.0316167 0.0512075 0.0314429 255 0 0
-0.0293289 0.0512075 0.0314429 255 0 0
-0.0270411 0.0512074 0.0314429 255 0 0
-0.0247533 0.0512071 0.0314429 255 0 0
-0.0224656 0.0512067 0.0314428 255 0 0
-0.0201778 0.0512065 0.0314428 255 0 0
-0.0178902 0.0512061 0.0314426 255 0 0
-0.0156026 0.0512052 0.0314424 255 0 0
-0.0133153 0.0512051 0.0314419 255 0 0
-0.0110313 0.0512057 0.0314417 255 0 0
-0.0087445 0.0512058 0.0314434 255 0 0
-0.0064562 0.0512122 0.0314516 255 0 0
-0.0727967 0.0534954 0.0314429 255 0 0
-0.0705089 0.0534954 0.0314429 255 0 0
-0.0682212 0.0534954 0.0314429 255 0 0
-0.0659334 0.0534954 0.0314429 255 0 0
-0.0636456 0.0534954 0.0314429 255 0 0
-0.0613578 0.0534954 0.0314429 255 0 0
-0.0590700 0.0534954 0.0314429 255 0 0
-0.0567822 0.0534954 0.0314429 255 0 0
-0.0544945 0.0534954 0.0314429 255 0 0
-0.0522067 0.0534954 0.0314429 255 0 0
-0.0499189 0.0534954 0.0314429 255 0 0
-0.0476311 0.0534954 0.0314429 255 0 0
-0.0453433 0.0534954 0.0314429 255 0 0
-0.0430556 0.0534954 0.0314429 255 0 0
-0.0407678 0.0534954 0.0314429 255 0 0
-0.0384800 0.0534954 0.0314429 255 0 0
-0.0361922 0.0534954 0.0314429 255 0 0
-0.0339044 0.0534953 0.0314429 255 0 0
-0.0316167 0.0534953 0.0314429 255 0 0
-0.0293289 0.0534953 0.0314429 255 0 0
-0.0270411 0.0534952 0.0314429 255 0 0
-0.0247533 0.0534952 0.0314429 255 0 0
-0.0224656 0.0534951 0.0314429 255 0 0
-0.0201778 0.0534949 0.0314429 255 0 0
-0.0178902 0.0534948 0.0314428 255 0 0
-0.0156026 0.0534948 0.0314426 255 0 0
-0.0133154 0.0534955 0.0314423 255 0 0
-0.0110286 0.0534969 0.0314418 255 0 0
-0.0087424 0.0534966 0.0314435 255 0 0
-0.0064575 0.0535052 0.0314513 255 0 0
-0.0041717 0.0535213 0.0314602 255 0 0
-0.0750845 0.0557831 0.0314429 255 0 0
-0.0727967 0.0557831 0.0314429 255 0 0
-0.0705089 0.0557831 0.0314429 255 0 0
-0.0682212 0.0557831 0.0314429 255 0 0
-0.0659334 0.0557831 0.0314429 255 0 0
-0.0636456 0.0557831 0.0314429 255 0 0
-0.0613578 0.0557831 0.0314429 255 0 0
-0.0590700 0.0557831 0.0314429 255 0 0
-0.0567822 0.0557831 0.0314429 255 0 0
-0.0544945 0.0557831 0.0314429 255 0 0
-0.0522067 0.0557831 0.0314429 255 0 0
-0.0499189 0.0557831 0.0314429 255 0 0
-0.0476311 0.0557831 0.0314429 255 0 0
-0.0453433 0.0557831 0.0314429 255 0 0
-0.0430556 0.0557831 0.0314429 255 0 0
-0.0407678 0.0557831 0.0314429 255 0 0
-0.0384800 0.0557831 0.0314429 255 0 0
-0.0361922 0.0557831 0.0314429 255 0 0
-0.0339044 0.0557831 0.0314429 255 0 0
-0.0316167 0.0557831 0.0314429 255 0 0
-0.0293289 0.0557831 0.0314429 255 0 0
-0.0270411 0.0557831 0.0314429 255 0 0
-0.0247533 0.0557831 0.0314429 255 0 0
-0.0224656 0.0557830 0.0314429 255 0 0
-0.0201778 0.0557830 0.0314429 255 0 0
-0.0178902 0.0557831 0.0314428 255 0 0
-0.0156026 0.0557832 0.0314427 255 0 0
-0.0133155 0.0557840 0.0314424 255 0 0
-0.0110287 0.0557855 0.0314419 255 0 0
-0.0087442 0.0557869 0.0314425 255 0 0
-0.0064591 0.0557866 0.0314499 255 0 0
-0.0041742 0.0558109 0.0314578 255 0 0
-0.0021231 0.0561934 0.0313522 255 0 0
-0.0773723 0.0580709 0.0314429 255 0 0
-0.0750845 0.0580709 0.0314429 255 0 0
-0.0727967 0.0580709 0.0314429 255 0 0
-0.0705089 0.0580709 0.0314429 255 0 0
-0.0682212 0.0580709 0.0314429 255 0 0
-0.0659334 0.0580709 0.0314429 255 0 0
-0.0636456 0.0580709 0.0314429 255 0 0
-0.0613578 0.0580709 0.0314429 255 0 0
-0.0590700 0.0580709 0.0314429 255 0 0
-0.0567822 0.0580709 0.0314429 255 0 0
-0.0544945 0.0580709 0.0314429 255 0 0
-0.0522067 0.0580709 0.0314429 255 0 0
-0.0499189 0.0580709 0.0314429 255 0 0
-0.0476311 0.0580709 0.0314429 255 0 0
-0.0453433 0.0580709 0.0314429 255 0 0
-0.0430556 0.0580709 0.0314429 255 0 0
-0.0407678 0.0580709 0.0314429 255 0 0
-0.0384800 0.0580709 0.0314429 255 0 0
-0.0361922 0.0580709 0.0314429 255 0 0
-0.0339044 0.0580709 0.0314429 255 0 0
-0.0316167 0.0580709 0.0314429 255 0 0
-0.0293289 0.0580709 0.0314429 255 0 0
-0.0270411 0.0580709 0.0314429 255 0 0
-0.0247533 0.0580709 0.0314429 255 0 0
-0.0224656 0.0580709 0.0314429 255 0 0
-0.0201778 0.0580709 0.0314429 255 0 0
-0.0178902 0.0580710 0.0314429 255 0 0
-0.0156026 0.0580712 0.0314428 255 0 0
-0.0133154 0.0580720 0.0314425 255 0 0
-0.0110284 0.0580734 0.0314422 255 0 0
-0.0087438 0.0580766 0.0314418 255 0 0
-0.0064580 0.0580763 0.0314443 255 0 0
-0.0041698 0.0580959 0.0314497 255 0 0
-0.0018764 0.0582029 0.0314803 255 0 0
-0.0773723 0.0603587 0.0314429 255 0 0
-0.0750845 0.0603587 0.0314429 255 0 0
-0.0727967 0.0603587 0.0314429 255 0 0
-0.0705089 0.0603587 0.0314429 255 0 0
-0.0682212 0.0603587 0.0314429 255 0 0
-0.0659334 0.0603587 0.0314429 255 0 0
-0.0636456 0.0603587 0.0314429 255 0 0
-0.0613578 0.0603587 0.0314429 255 0 0
-0.0590700 0.0603587 0.0314429 255 0 0
-0.0567822 0.0603587 0.0314429 255 0 0
-0.0544945 0.0603587 0.0314429 255 0 0
-0.0522067 0.0603587 0.0314429 255 0 0
-0.0499189 0.0603587 0.0314429 255 0 0
-0.0476311 0.0603587 0.0314429 255 0 0
-0.0453433 0.0603587 0.0314429 255 0 0
-0.0430556 0.0603587 0.0314429 255 0 0
-0.0407678 0.0603587 0.0314429 255 0 0
-0.0384800 0.0603587 0.0314429 255 0 0
-0.0361922 0.0603587 0.0314429 255 0 0
-0.0339044 0.0603587 0.0314429 255 0 0
-0.0316167 0.0603587 0.0314429 255 0 0
-0.0293289 0.0603587 0.0314429 255 0 0
-0.0270411 0.0603587 0.0314429 255 0 0
-0.0247533 0.0603587 0.0314429 255 0 0
-0.0224656 0.0603587 0.0314429 255 0 0
-0.0201778 0.0603587 0.0314429 255 0 0
-0.0178902 0.0603589 0.0314429 255 0 0
-0.0156025 0.0603590 0.0314428 255 0 0
-0.0133151 0.0603597 0.0314427 255 0 0
-0.0110281 0.0603608 0.0314424 255 0 0
-0.0087417 0.0603635 0.0314418 255 0 0
-0.0064547 0.0603690 0.0314425 255 0 0
-0.0041650 0.0603820 0.0314476 255 0 0
-0.0018628 0.0604737 0.0314617 255 0 0
0.0004169 0.0602330 0.0314109 255 0 0
-0.0796601 0.0626465 0.0314429 255 0 0
-0.0773723 0.0626465 0.0314429 255 0 0
-0.0750845 0.0626465 0.0314429 255 0 0
-0.0727967 0.0626465 0.0314429 255 0 0
-0.0705089 0.0626465 0.0314429 255 0 0
-0.0682212 0.0626465 0.0314429 255 0 0
-0.0659334 0.0626465 0.0314429 255 0 0
-0.0636456 0.0626465 0.0314429 255 0 0
-0.0613578 0.0626465 0.0314429 255 0 0
-0.0590700 0.0626465 0.0314429 255 0 0
-0.0567822 0.0626465 0.0314429 255 0 0
-0.0544945 0.0626465 0.0314429 255 0 0
-0.0522067 0.0626465 0.0314429 255 0 0
-0.0499189 0.0626465 0.0314429 255 0 0
-0.0476311 0.0626465 0.0314429 255 0 0
-0.0453433 0.0626465 0.0314429 255 0 0
-0.0430556 0.0626465 0.0314429 255 0 0
-0.0407678 0.0626465 0.0314429 255 0 0
-0.0384800 0.0626465 0.0314429 255 0 0
-0.0361922 0.0626465 0.0314429 255 0 0
-0.0339044 0.0626465 0.0314429 255 0 0
-0.0316167 0.0626465 0.0314429 255 0 0
-0.0293289 0.0626465 0.0314429 255 0 0
-0.0270411 0.0626465 0.0314429 255 0 0
-0.0247533 0.0626465 0.0314429 255 0 0
-0.0224656 0.0626465 0.0314429 255 0 0
-0.0201778 0.0626466 0.0314429 255 0 0
-0.0178901 0.0626466 0.0314429 255 0 0
-0.0156024 0.0626467 0.0314429 255 0 0
-0.0133149 0.0626472 0.0314428 255 0 0
-0.0110276 0.0626479 0.0314426 255 0 0
-0.0087403 0.0626494 0.0314423 255 0 0
-0.0064525 0.0626526 0.0314416 255 0 0
-0.0041617 0.0626591 0.0314424 255 0 0
-0.0018569 0.0626660 0.0314544 255 0 0
0.0003836 0.0626069 0.0314138 255 0 0
0.0026460 0.0625845 0.0313981 255 0 0
-0.0796601 0.0649343 0.0314429 255 0 0
-0.0773723 0.0649343 0.0314429 255 0 0
-0.0750845 0.0649343 0.0314429 255 0 0
-0.0727967 0.0649343 0.0314429 255 0 0
-0.0705089 0.0649343 0.0314429 255 0 0
-0.0682212 0.0649343 0.0314429 255 0 0
-0.0659334 0.0649343 0.0314429 255 0 0
-0.0636456 0.0649343 0.0314429 255 0 0
-0.0613578 0.0649343 0.0314429 255 0 0
-0.0590700 0.0649343 0.0314429 255 0 0
-0.0567822 0.0649343 0.0314429 255 0 0
-0.0544945 0.0649343 0.0314429 255 0 0
-0.0522067 0.0649343 0.0314429 255 0 0
-0.0499189 0.0649343 0.0314429 255 0 0
-0.0476311 0.0649343 0.0314429 255 0 0
-0.0453433 0.0649343 0.0314429 255 0 0
-0.0430556 0.0649343 0.0314429 255 0 0
-0.0407678 0.0649343 0.0314429 255 0 0
-0.0384800 0.0649343 0.0314429 255 0 0
-0.0361922 0.0649343 0.0314429 255 0 0
-0.0339044 0.0649343 0.0314429 255 0 0
-0.0316167 0.0649343 0.0314429 255 0 0
-0.0293289 0.0649343 0.0314429 255 0 0
-0.0270411 0.0649343 0.0314429 255 0 0
-0.0247533 0.0649343 0.0314429 255 0 0
-0.0224656 0.0649343 0.0314429 255 0 0
-0.0201778 0.0649343 0.0314429 255 0 0
-0.0178901 0.0649344 0.0314429 255 0 0
-0.0156023 0.0649345 0.0314429 255 0 0
-0.0133147 0.0649347 0.0314429 255 0 0
-0.0110271 0.0649350 0.0314428 255 0 0
-0.0087396 0.0649355 0.0314427 255 0 0
-0.0064511 0.0649357 0.0314426 255 0 0
-0.0041612 0.0649344 0.0314427 255 0 0
-0.0018677 0.0649160 0.0314430 255 0 0
0.0004033 0.0648928 0.0314350 255 0 0
0.0026824 0.0648945 0.0314308 255 0 0
-0.0819478 0.0672220 0.0314429 255 0 0
-0.0796601 0.0672220 0.0314429 255 0 0
-0.0773723 0.0672220 0.0314429 255 0 0
-0.0750845 0.0672220 0.0314429 255 0 0
-0.0727967 0.0672220 0.0314429 255 0 0
-0.0705089 0.0672220 0.0314429 255 0 0
-0.0682212 0.0672220 0.0314429 255 0 0
-0.0659334 0.0672220 0.0314429 255 0 0
-0.0636456 0.0672220 0.0314429 255 0 0
-0.0613578 0.0672220 0.0314429 255 0 0
-0.0590700 0.0672220 0.0314429 255 0 0
-0.0567822 0.0672220 0.0314429 255 0 0
-0.0544945 0.0672220 0.0314429 255 0 0
-0.0522067 0.0672220 0.0314429 255 0 0
-0.0499189 0.0672220 0.0314429 255 0 0
-0.0476311 0.0672220 0.0314429 255 0 0
-0.0453433 0.0672220 0.0314429 255 0 0
-0.0430556 0.0672220 0.0314429 255 0 0
-0.0407678 0.0672220 0.0314429 255 0 0
-0.0384800 0.0672220 0.0314429 255 0 0
-0.0361922 0.0672220 0.0314429 255 0 0
-0.0339044 0.0672220 0.0314429 255 0 0
-0.0316167 0.0672220 0.0314429 255 0 0
-0.0293289 0.0672220 0.0314429 255 0 0
-0.0270411 0.0672220 0.0314429 255 0 0
-0.0247533 0.0672220 0.0314429 255 0 0
-0.0224655 0.0672220 0.0314429 255 0 0
-0.0201778 0.0672220 0.0314429 255 0 0
-0.0178900 0.0672221 0.0314429 255 0 0
-0.0156023 0.0672222 0.0314429 255 0 0
-0.0133145 0.0672222 0.0314429 255 0 0
-0.0110269 0.0672224 0.0314429 255 0 0
-0.0087392 0.0672226 0.0314428 255 0 0
-0.0064514 0.0672229 0.0314428 255 0 0
-0.0041633 0.0672229 0.0314428 255 0 0
-0.0018739 0.0672259 0.0314423 255 0 0
0.0004076 0.0672086 0.0314399 255 0 0
0.0026922 0.0671998 0.0314377 255 0 0
0.0049853 0.0672111 0.0314412 255 0 0
-0.0819478 0.0695098 0.0314429 255 0 0
-0.0796601 0.0695098 0.0314429 255 0 0
-0.0773723 0.0695098 0.0314429 255 0 0
-0.0750845 0.0695098 0.0314429 255 0 0
-0.0727967 0.0695098 0.0314429 255 0 0
-0.0705089 0.0695098 0.0314429 255 0 0
-0.0682212 0.0695098 0.0314429 255 0 0
-0.0659334 0.0695098 0.0314429 255 0 0
-0.0636456 0.0695098 0.0314429 255 0 0
-0.0613578 0.0695098 0.0314429 255 0 0
-0.0590700 0.0695098 0.0314429 255 0 0
-0.0567822 0.0695098 0.0314429 255 0 0
-0.0544945 0.0695098 0.0314429 255 0 0
-0.0522067 0.0695098 0.0314429 255 0 0
-0.0499189 0.0695098 0.0314429 255 0 0
-0.0476311 0.0695098 0.0314429 255 0 0
-0.0453433 0.0695098 0.0314429 255 0 0
-0.0430556 0.0695098 0.0314429 255 0 0
-0.0407678 0.0695098 0.0314429 255 0 0
-0.0384800 0.0695098 0.0314429 255 0 0
-0.0361922 0.0695098 0.0314429 255 0 0
-0.0339044 0.0695098 0.0314429 255 0 0
-0.0316167 0.0695098 0.0314429 255 0 0
-0.0293289 0.0695098 0.0314429 255 0 0
-0.0270411 0.0695098 0.0314429 255 0 0
-0.0247533 0.0695098 0.0314429 255 0 0
-0.0224655 0.0695098 0.0314429 255 0 0
-0.0201778 0.0695098 0.0314429 255 0 0
-0.0178900 0.0695098 0.0314429 255 0 0
-0.0156022 0.0695098 0.0314429 255 0 0
-0.0133144 0.0695099 0.0314429 255 0 0
-0.0110267 0.0695099 0.0314429 255 0 0
-0.0087390 0.0695101 0.0314429 255 0 0
-0.0064513 0.0695103 0.0314429 255 0 0
-0.0041637 0.0695109 0.0314428 255 0 0
-0.0018771 0.0695122 0.0314426 255 0 0
0.0004104 0.0695083 0.0314433 255 0 0
0.0026982 0.0695060 0.0314431 255 0 0
0.0049871 0.0695072 0.0314434 255 0 0
-0.0842356 0.0717976 0.0314429 255 0 0
-0.0819478 0.0717976 0.0314429 255 0 0
-0.0796601 0.0717976 0.0314429 255 0 0
-0.0773723 0.0717976 0.0314429 255 0 0
-0.0750845 0.0717976 0.0314429 255 0 0
-0.0727967 0.0717976 0.0314429 255 0 0
-0.0705089 0.0717976 0.0314429 255 0 0
-0.0682212 0.0717976 0.0314429 255 0 0
-0.0659334 0.0717976 0.0314429 255 0 0
-0.0636456 0.0717976 0.0314429 255 0 0
-0.0613578 0.0717976 0.0314429 255 0 0
-0.0590700 0.0717976 0.0314429 255 0 0
-0.0567822 0.0717976 0.0314429 255 0 0
-0.0544945 0.0717976 0.0314429 255 0 0
-0.0522067 0.0717976 0.0314429 255 0 0
-0.0499189 0.0717976 0.0314429 255 0 0
-0.0476311 0.0717976 0.0314429 255 0 0
-0.0453433 0.0717976 0.0314429 255 0 0
-0.0430556 0.0717976 0.0314429 255 0 0
-0.0407678 0.0717976 0.0314429 255 0 0
-0.0384800 0.0717976 0.0314429 255 0 0
-0.0361922 0.0717976 0.0314429 255 0 0
-0.0339044 0.0717976 0.0314429 255 0 0
-0.0316167 0.0717976 0.0314429 255 0 0
-0.0293289 0.0717976 0.0314429 255 0 0
-0.0270411 0.0717976 0.0314429 255 0 0
-0.0247533 0.0717976 0.0314429 255 0 0
-0.0224655 0.0717976 0.0314429 255 0 0
-0.0201778 0.0717976 0.0314429 255 0 0
-0.0178900 0.0717976 0.0314429 255 0 0
-0.0156022 0.0717976 0.0314429 255 0 0
-0.0133144 0.0717977 0.0314429 255 0 0
-0.0110267 0.0717977 0.0314429 255 0 0
-0.0087389 0.0717978 0.0314429 255 0 0
-0.0064512 0.0717978 0.0314429 255 0 0
-0.0041635 0.0717980 0.0314429 255 0 0
-0.0018761 0.0717985 0.0314428 255 0 0
0.0004114 0.0717963 0.0314432 255 0 0
0.0026989 0.0717950 0.0314434 255 0 0
0.0049874 0.0717960 0.0314432 255 0 0
-0.0865234 0.0740854 0.0314429 255 0 0
-0.0842356 0.0740854 0.0314429 255 0 0
-0.0819478 0.0740854 0.0314429 255 0 0
-0.0796601 0.0740854 0.0314429 255 0 0
-0.0773723 0.0740854 0.0314429 255 0 0
-0.0750845 0.0740854 0.0314429 255 0 0
-0.0727967 0.0740854 0.0314429 255 0 0
-0.0705089 0.0740854 0.0314429 255 0 0
-0.0682212 0.0740854 0.0314429 255 0 0
-0.0659334 0.0740854 0.0314429 255 0 0
-0.0636456 0.0740854 0.0314429 255 0 0
-0.0613578 0.0740854 0.0314429 255 0 0
-0.0590700 0.0740854 0.0314429 255 0 0
-0.0567822 0.0740854 0.0314429 255 0 0
-0.0544945 0.0740854 0.0314429 255 0 0
-0.0522067 0.0740854 0.0314429 255 0 0
-0.0499189 0.0740854 0.0314429 255 0 0
-0.0476311 0.0740854 0.0314429 255 0 0
-0.0453433 0.0740854 0.0314429 255 0 0
-0.0430556 0.0740854 0.0314429 255 0 0
-0.0407678 0.0740854 0.0314429 255 0 0
-0.0384800 0.0740854 0.0314429 255 0 0
-0.0361922 0.0740854 0.0314429 255 0 0
-0.0339044 0.0740854 0.0314429 255 0 0
-0.0316167 0.0740854 0.0314429 255 0 0
-0.0293289 0.0740854 0.0314429 255 0 0
-0.0270411 0.0740854 0.0314429 255 0 0
-0.0247533 0.0740854 0.0314429 255 0 0
-0.0224655 0.0740854 0.0314429 255 0 0
-0.0201778 0.0740854 0.0314429 255 0 0
-0.0178900 0.0740854 0.0314429 255 0 0
-0.0156022 0.0740854 0.0314429 255 0 0
-0.0133144 0.0740854 0.0314429 255 0 0
-0.0110267 0.0740854 0.0314429 255 0 0
-0.0087389 0.0740855 0.0314429 255 0 0
-0.0064511 0.0740855 0.0314429 255 0 0
-0.0041633 0.0740854 0.0314429 255 0 0
-0.0018755 0.0740855 0.0314429 255 0 0
0.0004119 0.0740844 0.0314431 255 0 0
0.0026995 0.0740838 0.0314432 255 0 0
0.0049877 0.0740845 0.0314431 255 0 0
0.0072757 0.0740848 0.0314430 255 0 0
-0.0865234 0.0763732 0.0314429 255 0 0
-0.0842356 0.0763732 0.0314429 255 0 0
-0.0819478 0.0763732 0.0314429 255 0 0
-0.0796601 0.0763732 0.0314429 255 0 0
-0.0773723 0.0763732 0.0314429 255 0 0
-0.0750845 0.0763732 0.0314429 255 0 0
-0.0727967 0.0763732 0.0314429 255 0 0
-0.0705089 0.0763732 0.0314429 255 0 0
-0.0682212 0.0763732 0.0314429 255 0 0
-0.0659334 0.0763732 0.0314429 255 0 0
-0.0636456 0.0763732 0.0314429 255 0 0
-0.0613578 0.0763732 0.0314429 255 0 0
-0.0590700 0.0763732 0.0314429 255 0 0
-0.0567822 0.0763732 0.0314429 255 0 0
-0.0544945 0.0763732 0.0314429 255 0 0
-0.0522067 0.0763732 0.0314429 255 0 0
-0.0499189 0.0763732 0.0314429 255 0 0
-0.0476311 0.0763732 0.0314429 255 0 0
-0.0453433 0.0763732 0.0314429 255 0 0
-0.0430556 0.0763732 0.0314429 255 0 0
-0.0407678 0.0763732 0.0314429 255 0 0
-0.0384800 0.0763732 0.0314429 255 0 0
-0.0361922 0.0763732 0.0314429 255 0 0
-0.0339044 0.0763732 0.0314429 255 0 0
-0.0316167 0.0763732 0.0314429 255 0 0
-0.0293289 0.0763732 0.0314429 255 0 0
-0.0270411 0.0763732 0.0314429 255 0 0
-0.0247533 0.0763732 0.0314429 255 0 0
-0.0224655 0.0763732 0.0314429 255 0 0
-0.0201778 0.0763732 0.0314429 255 0 0
-0.0178900 0.0763732 0.0314429 255 0 0
-0.0156022 0.0763732 0.0314429 255 0 0
-0.0133144 0.0763732 0.0314429 255 0 0
-0.0110266 0.0763732 0.0314429 255 0 0
-0.0087389 0.0763732 0.0314429 255 0 0
-0.0064511 0.0763732 0.0314429 255 0 0
-0.0041633 0.0763732 0.0314429 255 0 0
-0.0018755 0.0763732 0.0314429 255 0 0
0.0004121 0.0763727 0.0314430 255 0 0
0.0026998 0.0763724 0.0314430 255 0 0
0.0049880 0.0763727 0.0314430 255 0 0
0.0072758 0.0763729 0.0314430 255 0 0
-0.0888112 0.0786610 0.0314429 255 0 0
-0.0865234 0.0786610 0.0314429 255 0 0
-0.0842356 0.0786610 0.0314429 255 0 0
-0.0819478 0.0786610 0.0314429 255 0 0
-0.0796601 0.0786610 0.0314429 255 0 0
-0.0773723 0.0786610 0.0314429 255 0 0
-0.0750845 0.0786610 0.0314429 255 0 0
-0.0727967 0.0786610 0.0314429 255 0 0
-0.0705089 0.0786610 0.0314429 255 0 0
-0.0682212 0.0786610 0.0314429 255 0 0
-0.0659334 0.0786610 0.0314429 255 0 0
-0.0636456 0.0786610 0.0314429 255 0 0
-0.0613578 0.0786610 0.0314429 255 0 0
-0.0590700 0.0786610 0.0314429 255 0 0
-0.0567822 0.0786610 0.0314429 255 0 0
-0.0544945 0.0786610 0.0314429 255 0 0
-0.0522067 0.0786610 0.0314429 255 0 0
-0.0499189 0.0786610 0.0314429 255 0 0
-0.0476311 0.0786610 0.0314429 255 0 0
-0.0453433 0.0786610 0.0314429 255 0 0
-0.0430556 0.0786610 0.0314429 255 0 0
-0.0407678 0.0786610 0.0314429 255 0 0
-0.0384800 0.0786610 0.0314429 255 0 0
-0.0361922 0.0786610 0.0314429 255 0 0
-0.0339044 0.0786610 0.0314429 255 0 0
-0.0316167 0.0786610 0.0314429 255 0 0
-0.0293289 0.0786610 0.0314429 255 0 0
-0.0270411 0.0786610 0.0314429 255 0 0
-0.0247533 0.0786610 0.0314429 255 0 0
-0.0224655 0.0786610 0.0314429 255 0 0
-0.0201778 0.0786610 0.0314429 255 0 0
-0.0178900 0.0786610 0.0314429 255 0 0
-0.0156022 0.0786610 0.0314429 255 0 0
-0.0133144 0.0786610 0.0314429 255 0 0
-0.0110266 0.0786610 0.0314429 255 0 0
-0.0087389 0.0786610 0.0314429 255 0 0
-0.0064511 0.0786610 0.0314429 255 0 0
-0.0041633 0.0786610 0.0314429 255 0 0
-0.0018755 0.0786610 0.0314429 255 0 0
0.0004122 0.0786607 0.0314429 255 0 0
0.0027001 0.0786607 0.0314430 255 0 0
0.0049879 0.0786607 0.0314430 255 0 0
0.0072757 0.0786608 0.0314429 255 0 0
-0.0888112 0.0809487 0.0314429 255 0 0
-0.0865234 0.0809487 0.0314429 255 0 0
-0.0842356 0.0809487 0.0314429 255 0 0
-0.0819478 0.0809487 0.0314429 255 0 0
-0.0796601 0.0809487 0.0314429 255 0 0
-0.0773723 0.0809487 0.0314429 255 0 0
-0.0750845 0.0809487 0.0314429 255 0 0
-0.0727967 0.0809487 0.0314429 255 0 0
-0.0705089 0.0809487 0.0314429 255 0 0
-0.0682212 0.0809487 0.0314429 255 0 0
-0.0659334 0.0809487 0.0314429 255 0 0
-0.0636456 0.0809487 0.0314429 255 0 0
-0.0613578 0.0809487 0.0314429 255 0 0
-0.0590700 0.0809487 0.0314429 255 0 0
-0.0567822 0.0809487 0.0314429 255 0 0
-0.0544945 0.0809487 0.0314429 255 0 0
-0.0522067 0.0809487 0.0314429 255 0 0
-0.0499189 0.0809487 0.0314429 255 0 0
-0.0476311 0.0809487 0.0314429 255 0 0
-0.0453433 0.0809487 0.0314429 255 0 0
-0.0430556 0.0809487 0.0314429 255 0 0
-0.0407678 0.0809487 0.0314429 255 0 0
-0.0384800 0.0809487 0.0314429 255 0 0
-0.0361922 0.0809487 0.0314429 255 0 0
-0.0339044 0.0809487 0.0314429 255 0 0
-0.0316167 0.0809487 0.0314429 255 0 0
-0.0293289 0.0809487 0.0314429 255 0 0
-0.0270411 0.0809487 0.0314429 255 0 0
-0.0247533 0.0809487 0.0314429 255 0 0
-0.0224655 0.0809487 0.0314429 255 0 0
-0.0201778 0.0809487 0.0314429 255 0 0
-0.0178900 0.0809487 0.0314429 255 0 0
-0.0156022 0.0809487 0.0314429 255 0 0
-0.0133144 0.0809487 0.0314429 255 0 0
-0.0110266 0.0809487 0.0314429 255 0 0
-0.0087388 0.0809487 0.0314429 255 0 0
-0.0064511 0.0809487 0.0314429 255 0 0
-0.0041633 0.0809487 0.0314429 255 0 0
-0.0018755 0.0809487 0.0314429 255 0 0
0.0004123 0.0809486 0.0314429 255 0 0
0.0027001 0.0809486 0.0314429 255 0 0
0.0049879 0.0809486 0.0314429 255 0 0
0.0072757 0.0809486 0.0314429 255 0 0
0.0095634 0.0809486 0.0314429 255 0 0
-0.0910990 0.0832365 0.0314429 255 0 0
-0.0888112 0.0832365 0.0314429 255 0 0
-0.0865234 0.0832365 0.0314429 255 0 0
-0.0842356 0.0832365 0.0314429 255 0 0
-0.0819478 0.0832365 0.0314429 255 0 0
-0.0796601 0.0832365 0.0314429 255 0 0
-0.0773723 0.0832365 0.0314429 255 0 0
-0.0750845 0.0832365 0.0314429 255 0 0
-0.0727967 0.0832365 0.0314429 255 0 0
-0.0705089 0.0832365 0.0314429 255 0 0
-0.0682212 0.0832365 0.0314429 255 0 0
-0.0659334 0.0832365 0.0314429 255 0 0
-0.0636456 0.0832365 0.0314429 255 0 0
-0.0613578 0.0832365 0.0314429 255 0 0
-0.0590700 0.0832365 0.0314429 255 0 0
-0.0567822 0.0832365 0.0314429 255 0 0
-0.0544945 0.0832365 0.0314429 255 0 0
-0.0522067 0.0832365 0.0314429 255 0 0
-0.0499189 0.0832365 0.0314429 255 0 0
-0.0476311 0.0832365 0.0314429 255 0 0
-0.0453433 0.0832365 0.0314429 255 0 0
-0.0430556 0.0832365 0.0314429 255 0 0
-0.0407678 0.0832365 0.0314429 255 0 0
-0.0384800 0.0832365 0.0314429 255 0 0
-0.0361922 0.0832365 0.0314429 255 0 0
-0.0339044 0.0832365 0.0314429 255 0 0
-0.0316167 0.0832365 0.0314429 255 0 0
-0.0293289 0.0832365 0.0314429 255 0 0
-0.0270411 0.0832365 0.0314429 255 0 0
-0.0247533 0.0832365 0.0314429 255 0 0
-0.0224655 0.0832365 0.0314429 255 0 0
-0.0201778 0.0832365 0.0314429 255 0 0
-0.0178900 0.0832365 0.0314429 255 0 0
-0.0156022 0.0832365 0.0314429 255 0 0
-0.0133144 0.0832365 0.0314429 255 0 0
-0.0110266 0.0832365 0.0314429 255 0 0
-0.0087388 0.0832365 0.0314429 255 0 0
-0.0064511 0.0832365 0.0314429 255 0 0
-0.0041633 0.0832365 0.0314429 255 0 0
-0.0018755 0.0832365 0.0314429 255 0 0
0.0004123 0.0832365 0.0314429 255 0 0
0.0027001 0.0832364 0.0314429 255 0 0
0.0049879 0.0832365 0.0314429 255 0 0
0.0072756 0.0832365 0.0314429 255 0 0
0.0095634 0.0832365 0.0314429 255 0 0
-0.0910990 0.0855243 0.0314429 255 0 0
-0.0888112 0.0855243 0.0314429 255 0 0
-0.0865234 0.0855243 0.0314429 255 0 0
-0.0842356 0.0855243 0.0314429 255 0 0
-0.0819478 0.0855243 0.0314429 255 0 0
-0.0796601 0.0855243 0.0314429 255 0 0
-0.0773723 0.0855243 0.0314429 255 0 0
-0.0750845 0.0855243 0.0314429 255 0 0
-0.0727967 0.0855243 0.0314429 255 0 0
-0.0705089 0.0855243 0.0314429 255 0 0
-0.0682212 0.0855243 0.0314429 255 0 0
-0.0659334 0.0855243 0.0314429 255 0 0
-0.0636456 0.0855243 0.0314429 255 0 0
-0.0613578 0.0855243 0.0314429 255 0 0
-0.0590700 0.0855243 0.0314429 255 0 0
-0.0567822 0.0855243 0.0314429 255 0 0
-0.0544945 0.0855243 0.0314429 255 0 0
-0.0522067 0.0855243 0.0314429 255 0 0
-0.0499189 0.0855243 0.0314429 255 0 0
-0.0476311 0.0855243 0.0314429 255 0 0
-0.0453433 0.0855243 0.0314429 255 0 0
-0.0430556 0.0855243 0.0314429 255 0 0
-0.0407678 0.0855243 0.0314429 255 0 0
-0.0384800 0.0855243 0.0314429 255 0 0
-0.0361922 0.0855243 0.0314429 255 0 0
-0.0339044 0.0855243 0.0314429 255 0 0
-0.0316167 0.0855243 0.0314429 255 0 0
-0.0293289 0.0855243 0.0314429 255 0 0
-0.0270411 0.0855243 0.0314429 255 0 0
-0.0247533 0.0855243 0.0314429 255 0 0
-0.0224655 0.0855243 0.0314429 255 0 0
-0.0201778 0.0855243 0.0314429 255 0 0
-0.0178900 0.0855243 0.0314429 255 0 0
-0.0156022 0.0855243 0.0314429 255 0 0
-0.0133144 0.0855243 0.0314429 255 0 0
-0.0110266 0.0855243 0.0314429 255 0 0
-0.0087388 0.0855243 0.0314429 255 0 0
-0.0064511 0.0855243 0.0314429 255 0 0
-0.0041633 0.0855243 0.0314429 255 0 0
-0.0018755 0.0855243 0.0314429 255 0 0
0.0004123 0.0855243 0.0314429 255 0 0
0.0027001 0.0855243 0.0314429 255 0 0
0.0049879 0.0855243 0.0314429 255 0 0
0.0072756 0.0855243 0.0314429 255 0 0
0.0095634 0.0855243 0.0314429 255 0 0
0.0118512 0.0855243 0.0314429 255 0 0
-0.0910990 0.0878121 0.0314429 255 0 0
-0.0888112 0.0878121 0.0314429 255 0 0
-0.0865234 0.0878121 0.0314429 255 0 0
-0.0842356 0.0878121 0.0314429 255 0 0
-0.0819478 0.0878121 0.0314429 255 0 0
-0.0796601 0.0878121 0.0314429 255 0 0
-0.0773723 0.0878121 0.0314429 255 0 0
-0.0750845 0.0878121 0.0314429 255 0 0
-0.0727967 0.0878121 0.0314429 255 0 0
-0.0705089 0.0878121 0.0314429 255 0 0
-0.0682212 0.0878121 0.0314429 255 0 0
-0.0659334 0.0878121 0.0314429 255 0 0
-0.0636456 0.0878121 0.0314429 255 0 0
-0.0613578 0.0878121 0.0314429 255 0 0
-0.0590700 0.0878121 0.0314429 255 0 0
-0.0567822 0.0878121 0.0314429 255 0 0
-0.0544945 0.0878121 0.0314429 255 0 0
-0.0522067 0.0878121 0.0314429 255 0 0
-0.0499189 0.0878121 0.0314429 255 0 0
-0.0476311 0.0878121 0.0314429 255 0 0
-0.0453433 0.0878121 0.0314429 255 0 0
-0.0430556 0.0878121 0.0314429 255 0 0
-0.0407678 0.0878121 0.0314429 255 0 0
-0.0384800 0.0878121 0.0314429 255 0 0
-0.0361922 0.0878121 0.0314429 255 0 0
-0.0339044 0.0878121 0.0314429 255 0 0
-0.0316167 0.0878121 0.0314429 255 0 0
-0.0293289 0.0878121 0.0314429 255 0 0
-0.0270411 0.0878121 0.0314429 255 0 0
-0.0247533 0.0878121 0.0314429 255 0 0
-0.0224655 0.0878121 0.0314429 255 0 0
-0.0201778 0.0878121 0.0314429 255 0 0
-0.0178900 0.0878121 0.0314429 255 0 0
-0.0156022 0.0878121 0.0314429 255 0 0
-0.0133144 0.0878121 0.0314429 255 0 0
-0.0110266 0.0878121 0.0314429 255 0 0
-0.0087388 0.0878121 0.0314429 255 0 0
-0.0064511 0.0878121 0.0314429 255 0 0
-0.0041633 0.0878121 0.0314429 255 0 0
-0.0018755 0.0878121 0.0314429 255 0 0
0.0004123 0.0878121 0.0314429 255 0 0
0.0027001 0.0878121 0.0314429 255 0 0
0.0049878 0.0878121 0.0314429 255 0 0
0.0072756 0.0878121 0.0314429 255 0 0
0.0095634 0.0878121 0.0314429 255 0 0
0.0118512 0.0878121 0.0314429 255 0 0
-0.0933868 0.0900998 0.0314429 255 0 0
-0.0910990 0.0900998 0.0314429 255 0 0
-0.0888112 0.0900999 0.0314429 255 0 0
-0.0865234 0.0900999 0.0314429 255 0 0
-0.0842356 0.0900999 0.0314429 255 0 0
-0.0819478 0.0900999 0.0314429 255 0 0
-0.0796601 0.0900999 0.0314429 255 0 0
-0.0773723 0.0900999 0.0314429 255 0 0
-0.0750845 0.0900999 0.0314429 255 0 0
-0.0727967 0.0900999 0.0314429 255 0 0
-0.0705089 0.0900999 0.0314429 255 0 0
-0.0682212 0.0900999 0.0314429 255 0 0
-0.0659334 0.0900999 0.0314429 255 0 0
-0.0636456 0.0900999 0.0314429 255 0 0
-0.0613578 0.0900999 0.0314429 255 0 0
-0.0590700 0.0900999 0.0314429 255 0 0
-0.0567822 0.0900999 0.0314429 255 0 0
-0.0544945 0.0900999 0.0314429 255 0 0
-0.0522067 0.0900999 0.0314429 255 0 0
-0.0499189 0.0900999 0.0314429 255 0 0
-0.0476311 0.0900999 0.0314429 255 0 0
-0.0453433 0.0900999 0.0314429 255 0 0
-0.0430556 0.0900999 0.0314429 255 0 0
-0.0407678 0.0900999 0.0314429 255 0 0
-0.0384800 0.0900999 0.0314429 255 0 0
-0.0361922 0.0900999 0.0314429 255 0 0
-0.0339044 0.0900999 0.0314429 255 0 0
-0.0316167 0.0900999 0.0314429 255 0 0
-0.0293289 0.0900999 0.0314429 255 0 0
-0.0270411 0.0900999 0.0314429 255 0 0
-0.0247533 0.0900999 0.0314429 255 0 0
-0.0224655 0.0900999 0.0314429 255 0 0
-0.0201778 0.0900999 0.0314429 255 0 0
-0.0178900 0.0900999 0.0314429 255 0 0
-0.0156022 0.0900999 0.0314429 255 0 0
-0.0133144 0.0900999 0.0314429 255 0 0
-0.0110266 0.0900999 0.0314429 255 0 0
-0.0087388 0.0900999 0.0314429 255 0 0
-0.0064511 0.0900999 0.0314429 255 0 0
-0.0041633 0.0900999 0.0314429 255 0 0
-0.0018755 0.0900999 0.0314429 255 0 0
0.0004123 0.0900999 0.0314429 255 0 0
0.0027001 0.0900999 0.0314429 255 0 0
0.0049879 0.0900999 0.0314429 255 0 0
0.0072756 0.0900999 0.0314429 255 0 0
0.0095634 0.0900999 0.0314429 255 0 0
0.0118512 0.0900999 0.0314429 255 0 0
0.0141390 0.0900999 0.0314429 255 0 0
-0.0933867 0.0923876 0.0314429 255 0 0
-0.0910990 0.0923876 0.0314429 255 0 0
-0.0888112 0.0923876 0.0314429 255 0 0
-0.0865234 0.0923876 0.0314429 255 0 0
-0.0842356 0.0923876 0.0314429 255 0 0
-0.0819478 0.0923876 0.0314429 255 0 0
-0.0796601 0.0923876 0.0314429 255 0 0
-0.0773723 0.0923876 0.0314429 255 0 0
-0.0750845 0.0923876 0.0314429 255 0 0
-0.0727967 0.0923876 0.0314429 255 0 0
-0.0705089 0.0923876 0.0314429 255 0 0
-0.0682212 0.0923876 0.0314429 255 0 0
-0.0659334 0.0923876 0.0314429 255 0 0
-0.0636456 0.0923876 0.0314429 255 0 0
-0.0613578 0.0923876 0.0314429 255 0 0
-0.0590700 0.0923876 0.0314429 255 0 0
-0.0567822 0.0923876 0.0314429 255 0 0
-0.0544945 0.0923876 0.0314429 255 0 0
-0.0522067 0.0923876 0.0314429 255 0 0
-0.0499189 0.0923876 0.0314429 255 0 0
-0.0476311 0.0923876 0.0314429 255 0 0
-0.0453433 0.0923876 0.0314429 255 0 0
-0.0430556 0.0923876 0.0314429 255 0 0
-0.0407678 0.0923876 0.0314429 255 0 0
-0.0384800 0.0923876 0.0314429 255 0 0
-0.0361922 0.0923876 0.0314429 255 0 0
-0.0339044 0.0923876 0.0314429 255 0 0
-0.0316167 0.0923876 0.0314429 255 0 0
-0.0293289 0.0923876 0.0314429 255 0 0
-0.0270411 0.0923876 0.0314429 255 0 0
-0.0247533 0.0923876 0.0314429 255 0 0
-0.0224655 0.0923876 0.0314429 255 0 0
-0.0201778 0.0923876 0.0314429 255 0 0
-0.0178900 0.0923876 0.0314429 255 0 0
-0.0156022 0.0923876 0.0314429 255 0 0
-0.0133144 0.0923876 0.0314429 255 0 0
-0.0110266 0.0923876 0.0314429 255 0 0
-0.0087388 0.0923876 0.0314429 255 0 0
-0.0064511 0.0923876 0.0314429 255 0 0
-0.0041633 0.0923876 0.0314429 255 0 0
-0.0018755 0.0923876 0.0314429 255 0 0
0.0004123 0.0923877 0.0314429 255 0 0
0.0027001 0.0923878 0.0314429 255 0 0
0.0049879 0.0923877 0.0314429 255 0 0
0.0072756 0.0923877 0.0314429 255 0 0
0.0095634 0.0923877 0.0314429 255 0 0
0.0118512 0.0923876 0.0314429 255 0 0
0.0141390 0.0923876 0.0314429 255 0 0
-0.0933867 0.0946754 0.0314429 255 0 0
-0.0910990 0.0946754 0.0314429 255 0 0
-0.0888112 0.0946754 0.0314429 255 0 0
-0.0865234 0.0946754 0.0314429 255 0 0
-0.0842356 0.0946754 0.0314429 255 0 0
-0.0819478 0.0946754 0.0314429 255 0 0
-0.0796601 0.0946754 0.0314429 255 0 0
-0.0773723 0.0946754 0.0314429 255 0 0
-0.0750845 0.0946754 0.0314429 255 0 0
-0.0727967 0.0946754 0.0314429 255 0 0
-0.0705089 0.0946754 0.0314429 255 0 0
-0.0682212 0.0946754 0.0314429 255 0 0
-0.0659334 0.0946754 0.0314429 255 0 0
-0.0636456 0.0946754 0.0314429 255 0 0
-0.0613578 0.0946754 0.0314429 255 0 0
-0.0590700 0.0946754 0.0314429 255 0 0
-0.0567822 0.0946754 0.0314429 255 0 0
-0.0544945 0.0946754 0.0314429 255 0 0
-0.0522067 0.0946754 0.0314429 255 0 0
-0.0499189 0.0946754 0.0314429 255 0 0
-0.0476311 0.0946754 0.0314429 255 0 0
-0.0453433 0.0946754 0.0314429 255 0 0
-0.0430556 0.0946754 0.0314429 255 0 0
-0.0407678 0.0946754 0.0314429 255 0 0
-0.0384800 0.0946754 0.0314429 255 0 0
-0.0361922 0.0946754 0.0314429 255 0 0
-0.0339044 0.0946754 0.0314429 255 0 0
-0.0316167 0.0946754 0.0314429 255 0 0
-0.0293289 0.0946754 0.0314429 255 0 0
-0.0270411 0.0946754 0.0314429 255 0 0
-0.0247533 0.0946754 0.0314429 255 0 0
-0.0224655 0.0946754 0.0314429 255 0 0
-0.0201778 0.0946754 0.0314429 255 0 0
-0.0178900 0.0946754 0.0314429 255 0 0
-0.0156022 0.0946754 0.0314429 255 0 0
-0.0133144 0.0946754 0.0314429 255 0 0
-0.0110266 0.0946754 0.0314429 255 0 0
-0.0087388 0.0946754 0.0314429 255 0 0
-0.0064511 0.0946754 0.0314429 255 0 0
-0.0041633 0.0946754 0.0314429 255 0 0
-0.0018755 0.0946754 0.0314429 255 0 0
0.0004123 0.0946755 0.0314429 255 0 0
0.0027001 0.0946756 0.0314429 255 0 0
0.0049879 0.0946755 0.0314429 255 0 0
0.0072756 0.0946755 0.0314429 255 0 0
0.0095634 0.0946755 0.0314429 255 0 0
0.0118512 0.0946755 0.0314429 255 0 0
0.0141390 0.0946754 0.0314429 255 0 0
-0.0933867 0.0969632 0.0314428 255 0 0
-0.0910990 0.0969632 0.0314429 255 0 0
-0.0888112 0.0969632 0.0314429 255 0 0
-0.0865234 0.0969631 0.0314429 255 0 0
-0.0842356 0.0969631 0.0314429 255 0 0
-0.0819478 0.0969632 0.0314429 255 0 0
-0.0796601 0.0969632 0.0314429 255 0 0
-0.0773723 0.0969632 0.0314429 255 0 0
-0.0750845 0.0969632 0.0314429 255 0 0
-0.0727967 0.0969632 0.0314429 255 0 0
-0.0705089 0.0969632 0.0314429 255 0 0
-0.0682212 0.0969632 0.0314429 255 0 0
-0.0659334 0.0969632 0.0314429 255 0 0
-0.0636456 0.0969632 0.0314429 255 0 0
-0.0613578 0.0969632 0.0314429 255 0 0
-0.0590700 0.0969632 0.0314429 255 0 0
-0.0567822 0.0969632 0.0314429 255 0 0
-0.0544945 0.0969632 0.0314429 255 0 0
-0.0522067 0.0969632 0.0314429 255 0 0
-0.0499189 0.0969632 0.0314429 255 0 0
-0.0476311 0.0969632 0.0314429 255 0 0
-0.0453433 0.0969632 0.0314429 255 0 0
-0.0430556 0.0969632 0.0314429 255 0 0
-0.0407678 0.0969632 0.0314429 255 0 0
-0.0384800 0.0969632 0.0314429 255 0 0
-0.0361922 0.0969632 0.0314429 255 0 0
-0.0339044 0.0969632 0.0314429 255 0 0
-0.0316167 0.0969632 0.0314429 255 0 0
-0.0293289 0.0969632 0.0314429 255 0 0
-0.0270411 0.0969632 0.0314429 255 0 0
-0.0247533 0.0969632 0.0314429 255 0 0
-0.0224655 0.0969632 0.0314429 255 0 0
-0.0201778 0.0969632 0.0314429 255 0 0
-0.0178900 0.0969632 0.0314429 255 0 0
-0.0156022 0.0969632 0.0314429 255 0 0
-0.0133144 0.0969632 0.0314429 255 0 0
-0.0110266 0.0969632 0.0314429 255 0 0
-0.0087388 0.0969632 0.0314429 255 0 0
-0.0064511 0.0969632 0.0314429 255 0 0
-0.0041633 0.0969632 0.0314429 255 0 0
-0.0018755 0.0969632 0.0314429 255 0 0
0.0004123 0.0969633 0.0314429 255 0 0
0.0027001 0.0969634 0.0314429 255 0 0
0.0049879 0.0969633 0.0314429 255 0 0
0.0072756 0.0969633 0.0314429 255 0 0
0.0095634 0.0969633 0.0314429 255 0 0
0.0118512 0.0969632 0.0314429 255 0 0
0.0141390 0.0969632 0.0314429 255 0 0
-0.0933867 0.0992510 0.0314428 255 0 0
-0.0910989 0.0992509 0.0314429 255 0 0
-0.0888112 0.0992509 0.0314429 255 0 0
-0.0865234 0.0992509 0.0314430 255 0 0
-0.0842356 0.0992509 0.0314430 255 0 0
-0.0819478 0.0992509 0.0314430 255 0 0
-0.0796601 0.0992509 0.0314429 255 0 0
-0.0773723 0.0992509 0.0314429 255 0 0
-0.0750845 0.0992510 0.0314429 255 0 0
-0.0727967 0.0992510 0.0314429 255 0 0
-0.0705089 0.0992510 0.0314429 255 0 0
-0.0682212 0.0992510 0.0314429 255 0 0
-0.0659334 0.0992510 0.0314429 255 0 0
-0.0636456 0.0992510 0.0314429 255 0 0
-0.0613578 0.0992510 0.0314429 255 0 0
-0.0590700 0.0992510 0.0314429 255 0 0
-0.0567822 0.0992510 0.0314429 255 0 0
-0.0544945 0.0992510 0.0314429 255 0 0
-0.0522067 0.0992510 0.0314429 255 0 0
-0.0499189 0.0992510 0.0314429 255 0 0
-0.0476311 0.0992510 0.0314429 255 0 0
-0.0453433 0.0992510 0.0314429 255 0 0
-0.0430556 0.0992510 0.0314429 255 0 0
-0.0407678 0.0992510 0.0314429 255 0 0
-0.0384800 0.0992510 0.0314429 255 0 0
-0.0361922 0.0992510 0.0314429 255 0 0
-0.0339044 0.0992510 0.0314429 255 0 0
-0.0316167 0.0992510 0.0314429 255 0 0
-0.0293289 0.0992510 0.0314429 255 0 0
-0.0270411 0.0992510 0.0314429 255 0 0
-0.0247533 0.0992510 0.0314429 255 0 0
-0.0224655 0.0992510 0.0314429 255 0 0
-0.0201778 0.0992510 0.0314429 255 0 0
-0.0178900 0.0992510 0.0314429 255 0 0
-0.0156022 0.0992510 0.0314429 255 0 0
-0.0133144 0.0992510 0.0314429 255 0 0
-0.0110266 0.0992510 0.0314429 255 0 0
-0.0087388 0.0992510 0.0314429 255 0 0
-0.0064511 0.0992510 0.0314429 255 0 0
-0.0041633 0.0992510 0.0314429 255 0 0
-0.0018755 0.0992509 0.0314429 255 0 0
0.0004123 0.0992511 0.0314429 255 0 0
0.0027001 0.0992513 0.0314429 255 0 0
0.0049879 0.0992511 0.0314429 255 0 0
0.0072756 0.0992511 0.0314429 255 0 0
0.0095634 0.0992510 0.0314429 255 0 0
0.0118512 0.0992510 0.0314429 255 0 0
-0.0933866 0.1015387 0.0314426 255 0 0
-0.0910989 0.1015386 0.0314428 255 0 0
-0.0888113 0.1015385 0.0314429 255 0 0
-0.0865235 0.1015386 0.0314430 255 0 0
-0.0842356 0.1015386 0.0314429 255 0 0
-0.0819478 0.1015387 0.0314430 255 0 0
-0.0796601 0.1015387 0.0314430 255 0 0
-0.0773723 0.1015387 0.0314429 255 0 0
-0.0750845 0.1015387 0.0314429 255 0 0
-0.0727967 0.1015388 0.0314429 255 0 0
-0.0705089 0.1015388 0.0314429 255 0 0
-0.0682212 0.1015388 0.0314429 255 0 0
-0.0659334 0.1015388 0.0314429 255 0 0
-0.0636456 0.1015388 0.0314429 255 0 0
-0.0613578 0.1015388 0.0314429 255 0 0
-0.0590700 0.1015388 0.0314429 255 0 0
-0.0567822 0.1015388 0.0314429 255 0 0
-0.0544945 0.1015388 0.0314429 255 0 0
-0.0522067 0.1015388 0.0314429 255 0 0
-0.0499189 0.1015388 0.0314429 255 0 0
-0.0476311 0.1015388 0.0314429 255 0 0
-0.0453433 0.1015388 0.0314429 255 0 0
-0.0430556 0.1015388 0.0314429 255 0 0
-0.0407678 0.1015388 0.0314429 255 0 0
-0.0384800 0.1015388 0.0314429 255 0 0
-0.0361922 0.1015388 0.0314429 255 0 0
-0.0339044 0.1015388 0.0314429 255 0 0
-0.0316167 0.1015388 0.0314429 255 0 0
-0.0293289 0.1015388 0.0314429 255 0 0
-0.0270411 0.1015388 0.0314429 255 0 0
-0.0247533 0.1015388 0.0314429 255 0 0
-0.0224655 0.1015388 0.0314429 255 0 0
-0.0201778 0.1015388 0.0314429 255 0 0
-0.0178900 0.1015388 0.0314429 255 0 0
-0.0156022 0.1015388 0.0314429 255 0 0
-0.0133144 0.1015388 0.0314429 255 0 0
-0.0110266 0.1015388 0.0314429 255 0 0
-0.0087388 0.1015388 0.0314429 255 0 0
-0.0064511 0.1015388 0.0314429 255 0 0
-0.0041633 0.1015388 0.0314429 255 0 0
-0.0018755 0.1015387 0.0314429 255 0 0
0.0004123 0.1015389 0.0314429 255 0 0
0.0027001 0.1015391 0.0314429 255 0 0
0.0049879 0.1015389 0.0314429 255 0 0
0.0072756 0.1015389 0.0314429 255 0 0
0.0095634 0.1015388 0.0314429 255 0 0
0.0118512 0.1015388 0.0314429 255 0 0
-0.0933865 0.1038264 0.0314424 255 0 0
-0.0910990 0.1038262 0.0314427 255 0 0
-0.0888113 0.1038261 0.0314430 255 0 0
-0.0865235 0.1038262 0.0314429 255 0 0
-0.0842357 0.1038263 0.0314429 255 0 0
-0.0819479 0.1038264 0.0314430 255 0 0
-0.0796601 0.1038264 0.0314429 255 0 0
-0.0773723 0.1038265 0.0314430 255 0 0
-0.0750845 0.1038265 0.0314429 255 0 0
-0.0727967 0.1038265 0.0314429 255 0 0
-0.0705089 0.1038265 0.0314429 255 0 0
-0.0682212 0.1038265 0.0314429 255 0 0
-0.0659334 0.1038265 0.0314429 255 0 0
-0.0636456 0.1038265 0.0314429 255 0 0
-0.0613578 0.1038265 0.0314429 255 0 0
-0.0590700 0.1038265 0.0314429 255 0 0
-0.0567822 0.1038265 0.0314429 255 0 0
-0.0544945 0.1038265 0.0314429 255 0 0
-0.0522067 0.1038265 0.0314429 255 0 0
-0.0499189 0.1038265 0.0314429 255 0 0
-0.0476311 0.1038265 0.0314429 255 0 0
-0.0453433 0.1038265 0.0314429 255 0 0
-0.0430556 0.1038265 0.0314429 255 0 0
-0.0407678 0.1038265 0.0314429 255 0 0
-0.0384800 0.1038265 0.0314429 255 0 0
-0.0361922 0.1038265 0.0314429 255 0 0
-0.0339044 0.1038265 0.0314429 255 0 0
-0.0316167 0.1038265 0.0314429 255 0 0
-0.0293289 0.1038265 0.0314429 255 0 0
-0.0270411 0.1038265 0.0314429 255 0 0
-0.0247533 0.1038265 0.0314429 255 0 0
-0.0224655 0.1038265 0.0314429 255 0 0
-0.0201778 0.1038265 0.0314429 255 0 0
-0.0178900 0.1038265 0.0314429 255 0 0
-0.0156022 0.1038265 0.0314429 255 0 0
-0.0133144 0.1038265 0.0314429 255 0 0
-0.0110266 0.1038265 0.0314429 255 0 0
-0.0087388 0.1038265 0.0314429 255 0 0
-0.0064511 0.1038265 0.0314429 255 0 0
-0.0041633 0.1038265 0.0314429 255 0 0
