ply
format ascii 1.0
element vertex 1231
property float x
property float y
property float z
property uchar red
property uchar green
property uchar blue
end_header
-0.0736117 0.0813872 0.0018767 255 0 0
-0.0711443 0.0817656 0.0018705 255 0 0
-0.0686573 0.0821341 0.0018594 255 0 0
-0.0660382 0.0820783 0.0018402 255 0 0
-0.0636456 0.0818711 0.0018432 255 0 0
-0.0615646 0.0818906 0.0018438 255 0 0
-0.0593783 0.0818891 0.0018462 255 0 0
-0.0570926 0.0818758 0.0018503 255 0 0
-0.0548406 0.0818495 0.0018562 255 0 0
-0.0525975 0.0818390 0.0018640 255 0 0
-0.0502729 0.0819013 0.0018700 255 0 0
-0.0479982 0.0820045 0.0018684 255 0 0
-0.0453438 0.0820317 0.0018788 255 0 0
-0.0429223 0.0819949 0.0018762 255 0 0
-0.0408588 0.0819101 0.0018496 255 0 0
-0.0387301 0.0818140 0.0018353 255 0 0
-0.0364207 0.0817987 0.0018431 255 0 0
-0.0341679 0.0818081 0.0018498 255 0 0
-0.0318847 0.0819118 0.0018612 255 0 0
-0.0297004 0.0817433 0.0018684 255 0 0
-0.0274616 0.0815903 0.0018735 255 0 0
-0.0252620 0.0816226 0.0018392 255 0 0
-0.0229128 0.0825148 0.0018317 255 0 0
-0.0204939 0.0816030 0.0018141 255 0 0
-0.0182845 0.0808886 0.0018028 255 0 0
-0.0163659 0.0807908 0.0017893 255 0 0
-0.0143090 0.0806974 0.0017839 255 0 0
-0.0121508 0.0805041 0.0017608 255 0 0
-0.0099884 0.0803038 0.0017570 255 0 0
-0.0077512 0.0802781 0.0017784 255 0 0
-0.0053984 0.0805520 0.0018018 255 0 0
-0.0030350 0.0809835 0.0018179 255 0 0
-0.0007922 0.0809674 0.0018060 255 0 0
0.0013067 0.0808098 0.0017721 255 0 0
0.0039644 0.0813630 0.0017504 255 0 0
0.0067776 0.0818414 0.0017239 255 0 0
0.0092725 0.0819164 0.0017348 255 0 0
0.0116269 0.0819721 0.0017328 255 0 0
0.0138605 0.0820161 0.0017202 255 0 0
0.0160321 0.0820763 0.0017021 255 0 0
0.0180896 0.0821821 0.0016869 255 0 0
0.0199398 0.0823053 0.0016966 255 0 0
-0.0997223 0.0846323 0.0018772 255 0 0
-0.0978157 0.0845698 0.0017722 255 0 0
-0.0956627 0.0844994 0.0018207 255 0 0
-0.0935416 0.0844589 0.0018644 255 0 0
-0.0911343 0.0843651 0.0018387 255 0 0
-0.0889003 0.0842653 0.0018225 255 0 0
-0.0869417 0.0841129 0.0018149 255 0 0
-0.0848464 0.0839922 0.0018133 255 0 0
-0.0825642 0.0839819 0.0018230 255 0 0
-0.0803756 0.0838693 0.0018306 255 0 0
-0.0782041 0.0837388 0.0018331 255 0 0
-0.0759432 0.0837443 0.0018409 255 0 0
-0.0736820 0.0838282 0.0018498 255 0 0
-0.0712580 0.0840924 0.0018507 255 0 0
-0.0685971 0.0845525 0.0018525 255 0 0
-0.0659561 0.0844927 0.0018322 255 0 0
-0.0635391 0.0844287 0.0018230 255 0 0
-0.0614678 0.0844446 0.0018236 255 0 0
-0.0592825 0.0844505 0.0018259 255 0 0
-0.0569833 0.0844440 0.0018304 255 0 0
-0.0547121 0.0844352 0.0018358 255 0 0
-0.0524808 0.0844259 0.0018421 255 0 0
-0.0501903 0.0844563 0.0018485 255 0 0
-0.0479660 0.0844991 0.0018491 255 0 0
-0.0453111 0.0845112 0.0018611 255 0 0
-0.0428762 0.0845108 0.0018565 255 0 0
-0.0407779 0.0844680 0.0018251 255 0 0
-0.0386071 0.0844339 0.0018103 255 0 0
-0.0363098 0.0844165 0.0018208 255 0 0
-0.0340906 0.0843699 0.0018248 255 0 0
-0.0318950 0.0843700 0.0018305 255 0 0
-0.0297236 0.0842770 0.0018445 255 0 0
-0.0275299 0.0841715 0.0018514 255 0 0
-0.0252477 0.0843791 0.0018453 255 0 0
-0.0229355 0.0847413 0.0018357 255 0 0
-0.0203552 0.0843311 0.0018199 255 0 0
-0.0180564 0.0838180 0.0017952 255 0 0
-0.0160697 0.0837902 0.0017753 255 0 0
-0.0139665 0.0837275 0.0017609 255 0 0
-0.0117659 0.0836098 0.0017450 255 0 0
-0.0095754 0.0834778 0.0017455 255 0 0
-0.0073080 0.0834578 0.0017669 255 0 0
-0.0048743 0.0837334 0.0017954 255 0 0
-0.0025302 0.0840540 0.0018142 255 0 0
-0.0001301 0.0840533 0.0018095 255 0 0
0.0020658 0.0839583 0.0017874 255 0 0
0.0046619 0.0842427 0.0017561 255 0 0
0.0071085 0.0844052 0.0017395 255 0 0
0.0094421 0.0844291 0.0017409 255 0 0
0.0117221 0.0844541 0.0017334 255 0 0
0.0139500 0.0844706 0.0017174 255 0 0
0.0161264 0.0845577 0.0016913 255 0 0
0.0182031 0.0845728 0.0016651 255 0 0
0.0201035 0.0846269 0.0016631 255 0 0
-0.0997693 0.0867585 0.0018016 255 0 0
-0.0978554 0.0867290 0.0017402 255 0 0
-0.0957048 0.0866942 0.0017926 255 0 0
-0.0935925 0.0866695 0.0018429 255 0 0
-0.0910938 0.0866196 0.0018190 255 0 0
-0.0887999 0.0865622 0.0018027 255 0 0
-0.0868327 0.0864552 0.0017915 255 0 0
-0.0847050 0.0863687 0.0017876 255 0 0
-0.0823800 0.0863911 0.0017933 255 0 0
-0.0801832 0.0862761 0.0017976 255 0 0
-0.0781034 0.0860452 0.0018009 255 0 0
-0.0759364 0.0859208 0.0018093 255 0 0
-0.0737404 0.0859116 0.0018174 255 0 0
-0.0712445 0.0862259 0.0018266 255 0 0
-0.0685555 0.0866796 0.0018366 255 0 0
-0.0659306 0.0866380 0.0018101 255 0 0
-0.0635060 0.0866187 0.0017968 255 0 0
-0.0614319 0.0866477 0.0017964 255 0 0
-0.0592439 0.0866591 0.0017980 255 0 0
-0.0569414 0.0866582 0.0018022 255 0 0
-0.0546766 0.0866614 0.0018072 255 0 0
-0.0524501 0.0866638 0.0018131 255 0 0
-0.0501749 0.0866778 0.0018197 255 0 0
-0.0479572 0.0866969 0.0018218 255 0 0
-0.0453074 0.0866991 0.0018330 255 0 0
-0.0428644 0.0867054 0.0018282 255 0 0
-0.0407497 0.0867062 0.0017962 255 0 0
-0.0385595 0.0867022 0.0017816 255 0 0
-0.0362563 0.0866899 0.0017926 255 0 0
-0.0340019 0.0866877 0.0018007 255 0 0
-0.0317759 0.0866954 0.0018074 255 0 0
-0.0295612 0.0866891 0.0018246 255 0 0
-0.0273230 0.0866937 0.0018416 255 0 0
-0.0250196 0.0866789 0.0018361 255 0 0
-0.0227487 0.0866911 0.0018192 255 0 0
-0.0200994 0.0866082 0.0018054 255 0 0
-0.0177318 0.0865445 0.0017916 255 0 0
-0.0157095 0.0865097 0.0017761 255 0 0
-0.0135612 0.0864782 0.0017669 255 0 0
-0.0112607 0.0864434 0.0017669 255 0 0
-0.0090065 0.0864295 0.0017696 255 0 0
-0.0067783 0.0864344 0.0017743 255 0 0
-0.0044964 0.0864843 0.0017882 255 0 0
-0.0022665 0.0865556 0.0018000 255 0 0
0.0002579 0.0865584 0.0017948 255 0 0
0.0026569 0.0865595 0.0017789 255 0 0
0.0049639 0.0866031 0.0017482 255 0 0
0.0072509 0.0866281 0.0017305 255 0 0
0.0095203 0.0866258 0.0017286 255 0 0
0.0117698 0.0866324 0.0017194 255 0 0
0.0139977 0.0866452 0.0017032 255 0 0
0.0161797 0.0866763 0.0016780 255 0 0
0.0182745 0.0867056 0.0016533 255 0 0
0.0202008 0.0867638 0.0016506 255 0 0
0.0219463 0.0862055 0.0016677 255 0 0
-0.0998356 0.0888920 0.0017955 255 0 0
-0.0978853 0.0888848 0.0017220 255 0 0
-0.0957247 0.0888761 0.0017643 255 0 0
-0.0936155 0.0888450 0.0018087 255 0 0
-0.0910728 0.0888004 0.0017864 255 0 0
-0.0887430 0.0887526 0.0017714 255 0 0
-0.0867294 0.0887004 0.0017613 255 0 0
-0.0845865 0.0886475 0.0017584 255 0 0
-0.0823152 0.0886171 0.0017652 255 0 0
-0.0801178 0.0885188 0.0017707 255 0 0
-0.0780128 0.0883510 0.0017750 255 0 0
-0.0758255 0.0882829 0.0017836 255 0 0
-0.0735503 0.0883620 0.0017941 255 0 0
-0.0710931 0.0885868 0.0018008 255 0 0
-0.0685513 0.0888463 0.0018045 255 0 0
-0.0659331 0.0888012 0.0017757 255 0 0
-0.0635233 0.0887823 0.0017608 255 0 0
-0.0614270 0.0888059 0.0017596 255 0 0
-0.0592349 0.0888182 0.0017606 255 0 0
-0.0569317 0.0888205 0.0017640 255 0 0
-0.0546644 0.0888254 0.0017694 255 0 0
-0.0524337 0.0888297 0.0017761 255 0 0
-0.0501608 0.0888366 0.0017819 255 0 0
-0.0479499 0.0888463 0.0017829 255 0 0
-0.0453077 0.0888439 0.0017939 255 0 0
-0.0428689 0.0888435 0.0017903 255 0 0
-0.0407450 0.0888539 0.0017620 255 0 0
-0.0385519 0.0888588 0.0017491 255 0 0
-0.0362445 0.0888531 0.0017582 255 0 0
-0.0339875 0.0888504 0.0017660 255 0 0
-0.0317552 0.0888509 0.0017737 255 0 0
-0.0295300 0.0888456 0.0017907 255 0 0
-0.0272893 0.0888528 0.0018067 255 0 0
-0.0249825 0.0888397 0.0018012 255 0 0
-0.0227073 0.0888494 0.0017859 255 0 0
-0.0200635 0.0888091 0.0017711 255 0 0
-0.0176911 0.0887820 0.0017592 255 0 0
-0.0156527 0.0887741 0.0017491 255 0 0
-0.0134926 0.0887646 0.0017442 255 0 0
-0.0111790 0.0887498 0.0017453 255 0 0
-0.0089156 0.0887403 0.0017493 255 0 0
-0.0066839 0.0887402 0.0017553 255 0 0
-0.0044150 0.0887596 0.0017628 255 0 0
-0.0022018 0.0887864 0.0017660 255 0 0
0.0003213 0.0887789 0.0017626 255 0 0
0.0027216 0.0887774 0.0017507 255 0 0
0.0050066 0.0888109 0.0017208 255 0 0
0.0072794 0.0888300 0.0017030 255 0 0
0.0095433 0.0888293 0.0016997 255 0 0
0.0117929 0.0888353 0.0016910 255 0 0
0.0140253 0.0888558 0.0016776 255 0 0
0.0162179 0.0888508 0.0016606 255 0 0
0.0183210 0.0888385 0.0016466 255 0 0
0.0202413 0.0889075 0.0016513 255 0 0
0.0219518 0.0884989 0.0016884 255 0 0
-0.0998550 0.0911730 0.0017919 255 0 0
-0.0978927 0.0911702 0.0017137 255 0 0
-0.0957301 0.0911493 0.0017519 255 0 0
-0.0936296 0.0911304 0.0017933 255 0 0
-0.0910460 0.0910935 0.0017737 255 0 0
-0.0886989 0.0910641 0.0017592 255 0 0
-0.0866503 0.0910519 0.0017466 255 0 0
-0.0844939 0.0910241 0.0017426 255 0 0
-0.0822373 0.0909882 0.0017507 255 0 0
-0.0800181 0.0909247 0.0017583 255 0 0
-0.0778563 0.0908375 0.0017655 255 0 0
-0.0756315 0.0908199 0.0017755 255 0 0
-0.0733424 0.0909019 0.0017859 255 0 0
-0.0709554 0.0910374 0.0017901 255 0 0
-0.0685165 0.0911837 0.0017905 255 0 0
-0.0659130 0.0911313 0.0017599 255 0 0
-0.0635089 0.0911095 0.0017434 255 0 0
-0.0614187 0.0911307 0.0017414 255 0 0
-0.0592266 0.0911449 0.0017419 255 0 0
-0.0569237 0.0911514 0.0017453 255 0 0
-0.0546564 0.0911540 0.0017510 255 0 0
-0.0524279 0.0911560 0.0017584 255 0 0
-0.0501563 0.0911601 0.0017652 255 0 0
-0.0479442 0.0911700 0.0017667 255 0 0
-0.0453033 0.0911572 0.0017769 255 0 0
-0.0428648 0.0911540 0.0017724 255 0 0
-0.0407406 0.0911664 0.0017450 255 0 0
-0.0385443 0.0911729 0.0017325 255 0 0
-0.0362363 0.0911700 0.0017412 255 0 0
-0.0339760 0.0911692 0.0017491 255 0 0
-0.0317438 0.0911684 0.0017573 255 0 0
-0.0295163 0.0911554 0.0017739 255 0 0
-0.0272743 0.0911502 0.0017892 255 0 0
-0.0249640 0.0911684 0.0017833 255 0 0
-0.0226839 0.0912083 0.0017681 255 0 0
-0.0200341 0.0911617 0.0017547 255 0 0
-0.0176577 0.0911423 0.0017441 255 0 0
-0.0156160 0.0911529 0.0017355 255 0 0
-0.0134508 0.0911569 0.0017323 255 0 0
-0.0111300 0.0911541 0.0017353 255 0 0
-0.0088620 0.0911529 0.0017413 255 0 0
-0.0066298 0.0911542 0.0017483 255 0 0
-0.0043679 0.0911610 0.0017537 255 0 0
-0.0021625 0.0911728 0.0017549 255 0 0
0.0003641 0.0911599 0.0017496 255 0 0
0.0027672 0.0911602 0.0017373 255 0 0
0.0050404 0.0911767 0.0017071 255 0 0
0.0073038 0.0911915 0.0016893 255 0 0
0.0095614 0.0911931 0.0016861 255 0 0
0.0118088 0.0912008 0.0016777 255 0 0
0.0140453 0.0912130 0.0016652 255 0 0
0.0162424 0.0912224 0.0016503 255 0 0
0.0183586 0.0912257 0.0016370 255 0 0
0.0202977 0.0911994 0.0016347 255 0 0
0.0219858 0.0904865 0.0016796 255 0 0
-0.0998363 0.0932905 0.0017837 255 0 0
-0.0978821 0.0933134 0.0017076 255 0 0
-0.0957476 0.0932998 0.0017469 255 0 0
-0.0936210 0.0932979 0.0017875 255 0 0
-0.0910250 0.0932738 0.0017719 255 0 0
-0.0886585 0.0932589 0.0017573 255 0 0
-0.0866134 0.0932592 0.0017404 255 0 0
-0.0844387 0.0932507 0.0017341 255 0 0
-0.0821633 0.0932284 0.0017431 255 0 0
-0.0798993 0.0932034 0.0017523 255 0 0
-0.0776674 0.0931729 0.0017618 255 0 0
-0.0754322 0.0931662 0.0017727 255 0 0
-0.0731754 0.0931772 0.0017825 255 0 0
-0.0708475 0.0932250 0.0017861 255 0 0
-0.0684591 0.0933031 0.0017855 255 0 0
-0.0658799 0.0932560 0.0017548 255 0 0
-0.0634753 0.0932466 0.0017377 255 0 0
-0.0614077 0.0932618 0.0017348 255 0 0
-0.0592198 0.0932749 0.0017349 255 0 0
-0.0569196 0.0932812 0.0017387 255 0 0
-0.0546521 0.0932872 0.0017445 255 0 0
-0.0524287 0.0932921 0.0017518 255 0 0
-0.0501597 0.0933048 0.0017601 255 0 0
-0.0479461 0.0933223 0.0017637 255 0 0
-0.0452910 0.0933032 0.0017719 255 0 0
-0.0428527 0.0933028 0.0017656 255 0 0
-0.0407342 0.0933249 0.0017374 255 0 0
-0.0385404 0.0933385 0.0017245 255 0 0
-0.0362321 0.0933330 0.0017337 255 0 0
-0.0339720 0.0933321 0.0017418 255 0 0
-0.0317425 0.0933356 0.0017499 255 0 0
-0.0295187 0.0933229 0.0017658 255 0 0
-0.0272780 0.0933334 0.0017802 255 0 0
-0.0249659 0.0933186 0.0017744 255 0 0
-0.0226831 0.0933240 0.0017590 255 0 0
-0.0200172 0.0933170 0.0017474 255 0 0
-0.0176359 0.0933055 0.0017372 255 0 0
-0.0156046 0.0933224 0.0017275 255 0 0
-0.0134411 0.0933237 0.0017236 255 0 0
-0.0111185 0.0933183 0.0017268 255 0 0
-0.0088508 0.0933136 0.0017335 255 0 0
-0.0066204 0.0933107 0.0017410 255 0 0
-0.0043597 0.0933064 0.0017486 255 0 0
-0.0021547 0.0933160 0.0017517 255 0 0
0.0003793 0.0932957 0.0017440 255 0 0
0.0027870 0.0932837 0.0017297 255 0 0
0.0050566 0.0933008 0.0016996 255 0 0
0.0073158 0.0933042 0.0016824 255 0 0
0.0095680 0.0932934 0.0016805 255 0 0
0.0118118 0.0932989 0.0016725 255 0 0
0.0140480 0.0933012 0.0016589 255 0 0
0.0162436 0.0933045 0.0016408 255 0 0
0.0183735 0.0932970 0.0016208 255 0 0
0.0203448 0.0932401 0.0016037 255 0 0
0.0220794 0.0926931 0.0016297 255 0 0
-0.0998175 0.0956096 0.0017538 255 0 0
-0.0978745 0.0956183 0.0016863 255 0 0
-0.0957384 0.0956174 0.0017217 255 0 0
-0.0936167 0.0956227 0.0017576 255 0 0
-0.0910112 0.0955999 0.0017438 255 0 0
-0.0886398 0.0955885 0.0017304 255 0 0
-0.0865960 0.0955933 0.0017141 255 0 0
-0.0844169 0.0955915 0.0017082 255 0 0
-0.0821259 0.0955811 0.0017173 255 0 0
-0.0798409 0.0955755 0.0017262 255 0 0
-0.0775800 0.0955663 0.0017350 255 0 0
-0.0753453 0.0955381 0.0017456 255 0 0
-0.0730973 0.0955174 0.0017555 255 0 0
-0.0707917 0.0955592 0.0017592 255 0 0
-0.0684293 0.0956227 0.0017587 255 0 0
-0.0658458 0.0955655 0.0017290 255 0 0
-0.0634651 0.0955419 0.0017127 255 0 0
-0.0614033 0.0955698 0.0017098 255 0 0
-0.0592236 0.0955873 0.0017099 255 0 0
-0.0569200 0.0955931 0.0017138 255 0 0
-0.0546526 0.0956009 0.0017188 255 0 0
-0.0524345 0.0956056 0.0017247 255 0 0
-0.0501659 0.0956121 0.0017314 255 0 0
-0.0479485 0.0956227 0.0017348 255 0 0
-0.0452883 0.0956167 0.0017412 255 0 0
-0.0428467 0.0956151 0.0017353 255 0 0
-0.0407296 0.0956310 0.0017095 255 0 0
-0.0385323 0.0956389 0.0016980 255 0 0
-0.0362285 0.0956320 0.0017071 255 0 0
-0.0339705 0.0956315 0.0017147 255 0 0
-0.0317431 0.0956369 0.0017220 255 0 0
-0.0295234 0.0956427 0.0017363 255 0 0
-0.0272840 0.0956587 0.0017495 255 0 0
-0.0249730 0.0956251 0.0017452 255 0 0
-0.0226863 0.0956191 0.0017321 255 0 0
-0.0200020 0.0956246 0.0017187 255 0 0
-0.0176178 0.0956289 0.0017082 255 0 0
-0.0155977 0.0956301 0.0017002 255 0 0
-0.0134369 0.0956286 0.0016972 255 0 0
-0.0111134 0.0956219 0.0017006 255 0 0
-0.0088472 0.0956162 0.0017065 255 0 0
-0.0066186 0.0956141 0.0017134 255 0 0
-0.0043590 0.0956195 0.0017205 255 0 0
-0.0021533 0.0956308 0.0017228 255 0 0
0.0003886 0.0956035 0.0017143 255 0 0
0.0028018 0.0955914 0.0016987 255 0 0
0.0050686 0.0956023 0.0016717 255 0 0
0.0073241 0.0956048 0.0016565 255 0 0
0.0095721 0.0955935 0.0016555 255 0 0
0.0118129 0.0955865 0.0016487 255 0 0
0.0140440 0.0955821 0.0016365 255 0 0
0.0162393 0.0955733 0.0016170 255 0 0
0.0183663 0.0955351 0.0015912 255 0 0
0.0203597 0.0954804 0.0015593 255 0 0
0.0221247 0.0948222 0.0015793 255 0 0
-0.0997931 0.0979327 0.0016999 255 0 0
-0.0978585 0.0979508 0.0016547 255 0 0
-0.0957129 0.0979759 0.0016839 255 0 0
-0.0935940 0.0979984 0.0017126 255 0 0
-0.0910059 0.0979422 0.0016968 255 0 0
-0.0886355 0.0979255 0.0016846 255 0 0
-0.0865930 0.0979407 0.0016737 255 0 0
-0.0844271 0.0979475 0.0016703 255 0 0
-0.0821123 0.0979362 0.0016787 255 0 0
-0.0798242 0.0979371 0.0016856 255 0 0
-0.0775670 0.0979312 0.0016907 255 0 0
-0.0753640 0.0978957 0.0017025 255 0 0
-0.0730806 0.0978855 0.0017151 255 0 0
-0.0707698 0.0979192 0.0017150 255 0 0
-0.0684256 0.0980383 0.0017186 255 0 0
-0.0658069 0.0979247 0.0016866 255 0 0
-0.0634629 0.0979116 0.0016742 255 0 0
-0.0613993 0.0979291 0.0016689 255 0 0
-0.0592330 0.0979444 0.0016701 255 0 0
-0.0569139 0.0979468 0.0016740 255 0 0
-0.0546560 0.0979511 0.0016777 255 0 0
-0.0524327 0.0979525 0.0016812 255 0 0
-0.0501679 0.0979586 0.0016846 255 0 0
-0.0479522 0.0979680 0.0016854 255 0 0
-0.0452908 0.0979564 0.0016893 255 0 0
-0.0428460 0.0979552 0.0016848 255 0 0
-0.0407257 0.0979812 0.0016664 255 0 0
-0.0385158 0.0979943 0.0016586 255 0 0
-0.0362228 0.0979832 0.0016669 255 0 0
-0.0339675 0.0979825 0.0016734 255 0 0
-0.0317411 0.0979937 0.0016790 255 0 0
-0.0295214 0.0980086 0.0016906 255 0 0
-0.0272885 0.0980514 0.0017022 255 0 0
-0.0249799 0.0979806 0.0016993 255 0 0
-0.0227025 0.0979677 0.0016914 255 0 0
-0.0199903 0.0979868 0.0016728 255 0 0
-0.0176047 0.0980011 0.0016618 255 0 0
-0.0155932 0.0980068 0.0016576 255 0 0
-0.0134361 0.0980093 0.0016563 255 0 0
-0.0111116 0.0980045 0.0016589 255 0 0
-0.0088452 0.0979977 0.0016630 255 0 0
-0.0066182 0.0979925 0.0016674 255 0 0
-0.0043599 0.0979955 0.0016731 255 0 0
-0.0021549 0.0980048 0.0016748 255 0 0
0.0003868 0.0979614 0.0016603 255 0 0
0.0028008 0.0979426 0.0016427 255 0 0
0.0050725 0.0979628 0.0016246 255 0 0
0.0073290 0.0979652 0.0016142 255 0 0
0.0095738 0.0979449 0.0016128 255 0 0
0.0118087 0.0979378 0.0016073 255 0 0
0.0140289 0.0979417 0.0015992 255 0 0
0.0162168 0.0979071 0.0015804 255 0 0
0.0183458 0.0978758 0.0015532 255 0 0
0.0203667 0.0977938 0.0015068 255 0 0
0.0221124 0.0971248 0.0015155 255 0 0
-0.0998778 0.1005303 0.0017142 255 0 0
-0.0979001 0.1005466 0.0016488 255 0 0
-0.0957462 0.1005556 0.0016825 255 0 0
-0.0936362 0.1005728 0.0017194 255 0 0
-0.0910233 0.1005449 0.0017078 255 0 0
-0.0886530 0.1005473 0.0016959 255 0 0
-0.0865910 0.1005633 0.0016802 255 0 0
-0.0843998 0.1005643 0.0016744 255 0 0
-0.0821094 0.1005451 0.0016830 255 0 0
-0.0798172 0.1005401 0.0016912 255 0 0
-0.0775337 0.1005631 0.0016993 255 0 0
-0.0752981 0.1005309 0.0017091 255 0 0
-0.0730737 0.1004985 0.0017179 255 0 0
-0.0707743 0.1005345 0.0017199 255 0 0
-0.0684168 0.1006158 0.0017180 255 0 0
-0.0658665 0.1005567 0.0016930 255 0 0
-0.0634916 0.1005377 0.0016796 255 0 0
-0.0614006 0.1005644 0.0016784 255 0 0
-0.0592140 0.1005796 0.0016795 255 0 0
-0.0569133 0.1005808 0.0016833 255 0 0
-0.0546485 0.1005858 0.0016874 255 0 0
-0.0524191 0.1005821 0.0016917 255 0 0
-0.0501522 0.1005763 0.0016966 255 0 0
-0.0479422 0.1005812 0.0016984 255 0 0
-0.0452974 0.1006077 0.0017104 255 0 0
-0.0428529 0.1006193 0.0017072 255 0 0
-0.0407344 0.1006155 0.0016782 255 0 0
-0.0385419 0.1005981 0.0016646 255 0 0
-0.0362404 0.1005943 0.0016733 255 0 0
-0.0339708 0.1005947 0.0016802 255 0 0
-0.0317388 0.1005979 0.0016867 255 0 0
-0.0295087 0.1005994 0.0017017 255 0 0
-0.0272652 0.1006136 0.0017158 255 0 0
-0.0249580 0.1005919 0.0017093 255 0 0
-0.0226781 0.1005907 0.0016937 255 0 0
-0.0200242 0.1005889 0.0016851 255 0 0
-0.0176456 0.1005881 0.0016770 255 0 0
-0.0156015 0.1005968 0.0016693 255 0 0
-0.0134338 0.1006019 0.0016664 255 0 0
-0.0111117 0.1005985 0.0016693 255 0 0
-0.0088422 0.1005976 0.0016750 255 0 0
-0.0066074 0.1005997 0.0016819 255 0 0
-0.0043472 0.1005949 0.0016881 255 0 0
-0.0021433 0.1005942 0.0016908 255 0 0
0.0003915 0.1005952 0.0016888 255 0 0
0.0027999 0.1006465 0.0016788 255 0 0
0.0050601 0.1005916 0.0016480 255 0 0
0.0073146 0.1005869 0.0016314 255 0 0
0.0095668 0.1005751 0.0016320 255 0 0
0.0118103 0.1005638 0.0016247 255 0 0
0.0140405 0.1005569 0.0016097 255 0 0
0.0162327 0.1005057 0.0015835 255 0 0
0.0183611 0.1004075 0.0015455 255 0 0
0.0203622 0.1002673 0.0014925 255 0 0
0.0221369 0.0993723 0.0014752 255 0 0
-0.0999467 0.1027076 0.0017267 255 0 0
-0.0979122 0.1027535 0.0016510 255 0 0
-0.0957289 0.1027817 0.0016842 255 0 0
-0.0935820 0.1028028 0.0017222 255 0 0
-0.0910409 0.1028127 0.0017028 255 0 0
-0.0886716 0.1028109 0.0016894 255 0 0
-0.0865894 0.1028182 0.0016726 255 0 0
-0.0843944 0.1028194 0.0016665 255 0 0
-0.0821047 0.1028171 0.0016746 255 0 0
-0.0798113 0.1028155 0.0016833 255 0 0
-0.0775204 0.1028028 0.0016922 255 0 0
-0.0752803 0.1027875 0.0017023 255 0 0
-0.0730683 0.1027826 0.0017106 255 0 0
-0.0707711 0.1028027 0.0017100 255 0 0
-0.0684101 0.1028226 0.0017117 255 0 0
-0.0658723 0.1028238 0.0016844 255 0 0
-0.0635153 0.1028221 0.0016729 255 0 0
-0.0614016 0.1028314 0.0016716 255 0 0
-0.0592042 0.1028380 0.0016725 255 0 0
-0.0569103 0.1028441 0.0016760 255 0 0
-0.0546504 0.1028475 0.0016799 255 0 0
-0.0524198 0.1028478 0.0016843 255 0 0
-0.0501451 0.1028428 0.0016901 255 0 0
-0.0479420 0.1028235 0.0016928 255 0 0
-0.0452977 0.1028498 0.0017071 255 0 0
-0.0428550 0.1028536 0.0017046 255 0 0
-0.0407400 0.1028455 0.0016741 255 0 0
-0.0385392 0.1028269 0.0016595 255 0 0
-0.0362607 0.1028238 0.0016676 255 0 0
-0.0339720 0.1028271 0.0016732 255 0 0
-0.0317354 0.1028339 0.0016792 255 0 0
-0.0294998 0.1028253 0.0016976 255 0 0
-0.0272529 0.1028150 0.0017201 255 0 0
-0.0249443 0.1028274 0.0017004 255 0 0
-0.0226602 0.1028509 0.0016819 255 0 0
-0.0200419 0.1028175 0.0016788 255 0 0
-0.0176697 0.1028130 0.0016758 255 0 0
-0.0156066 0.1028177 0.0016655 255 0 0
-0.0134294 0.1028193 0.0016618 255 0 0
-0.0111116 0.1028165 0.0016644 255 0 0
-0.0088411 0.1028172 0.0016709 255 0 0
-0.0066025 0.1028279 0.0016777 255 0 0
-0.0043413 0.1028147 0.0016839 255 0 0
-0.0021374 0.1028106 0.0016879 255 0 0
0.0003960 0.1028361 0.0016878 255 0 0
0.0028019 0.1028484 0.0016798 255 0 0
0.0050533 0.1028376 0.0016469 255 0 0
0.0073046 0.1028268 0.0016290 255 0 0
0.0095624 0.1028276 0.0016299 255 0 0
0.0118049 0.1028228 0.0016214 255 0 0
0.0140359 0.1027978 0.0016047 255 0 0
0.0162264 0.1027238 0.0015762 255 0 0
0.0183486 0.1026075 0.0015361 255 0 0
0.0203330 0.1024523 0.0014798 255 0 0
-0.0999034 0.1049534 0.0016283 255 0 0
-0.0978787 0.1049974 0.0016079 255 0 0
-0.0956996 0.1050389 0.0016525 255 0 0
-0.0935312 0.1050637 0.0016908 255 0 0
-0.0910420 0.1050716 0.0016737 255 0 0
-0.0886985 0.1050546 0.0016602 255 0 0
-0.0866075 0.1050692 0.0016468 255 0 0
-0.0843951 0.1050750 0.0016419 255 0 0
-0.0821055 0.1050696 0.0016487 255 0 0
-0.0798136 0.1050685 0.0016548 255 0 0
-0.0775226 0.1050692 0.0016608 255 0 0
-0.0752829 0.1050373 0.0016699 255 0 0
-0.0730686 0.1050105 0.0016792 255 0 0
-0.0707694 0.1050507 0.0016816 255 0 0
-0.0684139 0.1051116 0.0016810 255 0 0
-0.0658678 0.1050589 0.0016544 255 0 0
-0.0635047 0.1050400 0.0016408 255 0 0
-0.0613969 0.1050681 0.0016407 255 0 0
-0.0592052 0.1050840 0.0016424 255 0 0
-0.0569095 0.1050865 0.0016461 255 0 0
-0.0546540 0.1050882 0.0016491 255 0 0
-0.0524206 0.1050902 0.0016524 255 0 0
-0.0501499 0.1050946 0.0016590 255 0 0
-0.0479424 0.1051035 0.0016620 255 0 0
-0.0452928 0.1051018 0.0016702 255 0 0
-0.0428395 0.1050949 0.0016652 255 0 0
-0.0407371 0.1051055 0.0016415 255 0 0
-0.0385409 0.1051114 0.0016304 255 0 0
-0.0362555 0.1051084 0.0016379 255 0 0
-0.0339699 0.1051078 0.0016422 255 0 0
-0.0317356 0.1051084 0.0016448 255 0 0
-0.0294975 0.1051005 0.0016556 255 0 0
-0.0272530 0.1051093 0.0016664 255 0 0
-0.0249473 0.1050909 0.0016614 255 0 0
-0.0226696 0.1051051 0.0016494 255 0 0
-0.0200348 0.1050880 0.0016419 255 0 0
-0.0176593 0.1050935 0.0016347 255 0 0
-0.0156046 0.1050981 0.0016270 255 0 0
-0.0134309 0.1050994 0.0016236 255 0 0
-0.0111092 0.1050957 0.0016251 255 0 0
-0.0088388 0.1050918 0.0016282 255 0 0
-0.0066029 0.1050871 0.0016322 255 0 0
-0.0043422 0.1050842 0.0016376 255 0 0
-0.0021376 0.1050871 0.0016399 255 0 0
0.0004020 0.1050863 0.0016354 255 0 0
0.0028111 0.1051066 0.0016244 255 0 0
0.0050579 0.1051173 0.0016014 255 0 0
0.0073055 0.1051201 0.0015889 255 0 0
0.0095627 0.1051112 0.0015894 255 0 0
0.0117989 0.1051050 0.0015834 255 0 0
0.0140169 0.1050959 0.0015707 255 0 0
0.0161921 0.1050101 0.0015413 255 0 0
0.0182955 0.1050265 0.0014991 255 0 0
0.0202655 0.1050887 0.0014606 255 0 0
-0.0998841 0.1070256 0.0015925 255 0 0
-0.0978209 0.1071203 0.0015837 255 0 0
-0.0956309 0.1071534 0.0016269 255 0 0
-0.0934744 0.1072794 0.0016595 255 0 0
-0.0910449 0.1072588 0.0016436 255 0 0
-0.0887406 0.1072450 0.0016322 255 0 0
-0.0866099 0.1072634 0.0016231 255 0 0
-0.0843936 0.1072669 0.0016201 255 0 0
-0.0821030 0.1072621 0.0016252 255 0 0
-0.0798120 0.1072618 0.0016296 255 0 0
-0.0775242 0.1072626 0.0016338 255 0 0
-0.0752859 0.1072167 0.0016418 255 0 0
-0.0730593 0.1071734 0.0016504 255 0 0
-0.0707590 0.1072311 0.0016525 255 0 0
-0.0684090 0.1073076 0.0016512 255 0 0
-0.0658638 0.1072424 0.0016274 255 0 0
-0.0634999 0.1072141 0.0016149 255 0 0
-0.0613953 0.1072556 0.0016147 255 0 0
-0.0592037 0.1072809 0.0016160 255 0 0
-0.0569103 0.1072838 0.0016191 255 0 0
-0.0546572 0.1072879 0.0016216 255 0 0
-0.0524229 0.1072908 0.0016245 255 0 0
-0.0501518 0.1073016 0.0016306 255 0 0
-0.0479423 0.1073146 0.0016334 255 0 0
-0.0452756 0.1072698 0.0016391 255 0 0
-0.0428326 0.1072563 0.0016348 255 0 0
-0.0407354 0.1072849 0.0016184 255 0 0
-0.0385461 0.1073050 0.0016109 255 0 0
-0.0362546 0.1072736 0.0016160 255 0 0
-0.0339666 0.1072648 0.0016185 255 0 0
-0.0317324 0.1072639 0.0016196 255 0 0
-0.0294951 0.1072654 0.0016280 255 0 0
-0.0272546 0.1072815 0.0016367 255 0 0
-0.0249502 0.1072481 0.0016318 255 0 0
-0.0226723 0.1072438 0.0016216 255 0 0
-0.0200305 0.1072454 0.0016152 255 0 0
-0.0176520 0.1072518 0.0016090 255 0 0
-0.0156030 0.1072546 0.0016024 255 0 0
-0.0134318 0.1072563 0.0015993 255 0 0
-0.0111112 0.1072537 0.0016007 255 0 0
-0.0088426 0.1072469 0.0016024 255 0 0
-0.0066089 0.1072422 0.0016035 255 0 0
-0.0043472 0.1072388 0.0016068 255 0 0
-0.0021382 0.1072503 0.0016084 255 0 0
0.0004137 0.1072222 0.0015990 255 0 0
0.0028285 0.1072135 0.0015866 255 0 0
0.0050583 0.1072444 0.0015716 255 0 0
0.0072961 0.1072548 0.0015628 255 0 0
0.0095515 0.1072204 0.0015609 255 0 0
0.0117785 0.1072157 0.0015540 255 0 0
0.0139818 0.1072272 0.0015423 255 0 0
0.0161384 0.1072045 0.0015126 255 0 0
0.0182099 0.1073347 0.0014698 255 0 0
0.0201549 0.1075147 0.0014338 255 0 0
-0.0977278 0.1095159 0.0015613 255 0 0
-0.0955563 0.1095754 0.0015912 255 0 0
-0.0933833 0.1096450 0.0016133 255 0 0
-0.0910367 0.1096242 0.0016068 255 0 0
-0.0887668 0.1096345 0.0016026 255 0 0
-0.0866115 0.1096417 0.0016006 255 0 0
-0.0843832 0.1096491 0.0016003 255 0 0
-0.0820941 0.1096540 0.0016018 255 0 0
-0.0798029 0.1096622 0.0016042 255 0 0
-0.0775120 0.1096667 0.0016079 255 0 0
-0.0752724 0.1096393 0.0016159 255 0 0
-0.0730435 0.1096167 0.0016230 255 0 0
-0.0707355 0.1096538 0.0016194 255 0 0
-0.0683616 0.1097136 0.0016112 255 0 0
-0.0658642 0.1096669 0.0016022 255 0 0
-0.0635112 0.1096523 0.0015964 255 0 0
-0.0613872 0.1096777 0.0015940 255 0 0
-0.0591901 0.1096914 0.0015934 255 0 0
-0.0569017 0.1096937 0.0015950 255 0 0
-0.0546482 0.1096962 0.0015983 255 0 0
-0.0524180 0.1096982 0.0016026 255 0 0
-0.0501423 0.1097035 0.0016069 255 0 0
-0.0479369 0.1097086 0.0016090 255 0 0
-0.0452495 0.1096670 0.0016191 255 0 0
-0.0428171 0.1096522 0.0016210 255 0 0
-0.0407312 0.1096677 0.0016117 255 0 0
-0.0385471 0.1096673 0.0016069 255 0 0
-0.0362506 0.1096550 0.0016091 255 0 0
-0.0339521 0.1096537 0.0016100 255 0 0
-0.0317077 0.1096612 0.0016109 255 0 0
-0.0294851 0.1096627 0.0016191 255 0 0
-0.0272457 0.1096741 0.0016264 255 0 0
-0.0249442 0.1096635 0.0016174 255 0 0
-0.0226645 0.1096733 0.0016010 255 0 0
-0.0200290 0.1096710 0.0016052 255 0 0
-0.0176527 0.1096717 0.0016037 255 0 0
-0.0155967 0.1096763 0.0015962 255 0 0
-0.0134224 0.1096807 0.0015925 255 0 0
-0.0111080 0.1096787 0.0015941 255 0 0
-0.0088439 0.1096740 0.0015950 255 0 0
-0.0066120 0.1096693 0.0015939 255 0 0
-0.0043467 0.1096707 0.0015937 255 0 0
-0.0021327 0.1096747 0.0015922 255 0 0
0.0004339 0.1096455 0.0015846 255 0 0
0.0028520 0.1096245 0.0015766 255 0 0
0.0050575 0.1096449 0.0015669 255 0 0
0.0072805 0.1096450 0.0015592 255 0 0
0.0095391 0.1096234 0.0015536 255 0 0
0.0117566 0.1096025 0.0015422 255 0 0
0.0139375 0.1095737 0.0015249 255 0 0
0.0160656 0.1095164 0.0014950 255 0 0
0.0180935 0.1094721 0.0014519 255 0 0
-0.0976358 0.1116799 0.0015231 255 0 0
-0.0955011 0.1117690 0.0015522 255 0 0
-0.0933536 0.1118771 0.0015747 255 0 0
-0.0910346 0.1118488 0.0015792 255 0 0
-0.0887833 0.1118446 0.0015820 255 0 0
-0.0866250 0.1118646 0.0015827 255 0 0
-0.0843873 0.1118912 0.0015840 255 0 0
-0.0820988 0.1119081 0.0015861 255 0 0
-0.0798076 0.1119366 0.0015888 255 0 0
-0.0775165 0.1119517 0.0015922 255 0 0
-0.0752817 0.1119341 0.0015986 255 0 0
-0.0730467 0.1119177 0.0016027 255 0 0
-0.0707354 0.1119589 0.0015949 255 0 0
-0.0683408 0.1120214 0.0015824 255 0 0
-0.0658672 0.1119731 0.0015802 255 0 0
-0.0635129 0.1119556 0.0015766 255 0 0
-0.0613886 0.1119729 0.0015716 255 0 0
-0.0591990 0.1119867 0.0015684 255 0 0
-0.0569070 0.1119937 0.0015673 255 0 0
-0.0546534 0.1119965 0.0015686 255 0 0
-0.0524236 0.1120018 0.0015708 255 0 0
-0.0501565 0.1120059 0.0015720 255 0 0
-0.0479350 0.1120212 0.0015714 255 0 0
-0.0452410 0.1119774 0.0015765 255 0 0
-0.0427970 0.1119700 0.0015769 255 0 0
-0.0407219 0.1119919 0.0015706 255 0 0
-0.0385503 0.1120064 0.0015663 255 0 0
-0.0362117 0.1120105 0.0015639 255 0 0
-0.0339201 0.1120360 0.0015645 255 0 0
-0.0316950 0.1120694 0.0015688 255 0 0
-0.0294645 0.1121030 0.0015784 255 0 0
-0.0272436 0.1121435 0.0015860 255 0 0
-0.0249474 0.1121480 0.0015804 255 0 0
-0.0226679 0.1121734 0.0015676 255 0 0
-0.0200209 0.1122055 0.0015711 255 0 0
-0.0176393 0.1122316 0.0015686 255 0 0
-0.0155884 0.1122486 0.0015604 255 0 0
-0.0134182 0.1122591 0.0015555 255 0 0
-0.0111109 0.1122652 0.0015548 255 0 0
-0.0088525 0.1122681 0.0015529 255 0 0
-0.0066224 0.1122673 0.0015495 255 0 0
-0.0043548 0.1122687 0.0015471 255 0 0
-0.0021339 0.1122726 0.0015434 255 0 0
0.0004486 0.1122478 0.0015328 255 0 0
0.0028718 0.1122336 0.0015221 255 0 0
0.0050539 0.1122510 0.0015161 255 0 0
0.0072593 0.1122484 0.0015091 255 0 0
0.0095071 0.1122149 0.0015016 255 0 0
0.0117115 0.1121664 0.0014885 255 0 0
0.0138696 0.1121218 0.0014696 255 0 0
0.0159739 0.1119889 0.0014405 255 0 0
0.0179696 0.1117285 0.0014167 255 0 0
-0.0975428 0.1136211 0.0014743 255 0 0
-0.0954465 0.1138811 0.0015096 255 0 0
-0.0933281 0.1140597 0.0015378 255 0 0
-0.0910096 0.1140832 0.0015532 255 0 0
-0.0887397 0.1141103 0.0015622 255 0 0
-0.0866198 0.1141423 0.0015613 255 0 0
-0.0843764 0.1141811 0.0015627 255 0 0
-0.0820321 0.1142499 0.0015673 255 0 0
-0.0797672 0.1142950 0.0015724 255 0 0
-0.0775102 0.1143409 0.0015764 255 0 0
-0.0752928 0.1143352 0.0015810 255 0 0
-0.0730453 0.1143284 0.0015819 255 0 0
-0.0707269 0.1143746 0.0015701 255 0 0
-0.0683365 0.1144273 0.0015541 255 0 0
-0.0658566 0.1143919 0.0015535 255 0 0
-0.0635076 0.1143846 0.0015493 255 0 0
-0.0613880 0.1144095 0.0015417 255 0 0
-0.0592069 0.1144347 0.0015357 255 0 0
-0.0569095 0.1144629 0.0015317 255 0 0
-0.0546598 0.1144808 0.0015288 255 0 0
-0.0524343 0.1144952 0.0015265 255 0 0
-0.0501566 0.1145177 0.0015236 255 0 0
-0.0479323 0.1145157 0.0015204 255 0 0
-0.0452144 0.1144950 0.0015140 255 0 0
-0.0427703 0.1144974 0.0015067 255 0 0
-0.0407100 0.1145202 0.0015013 255 0 0
-0.0385336 0.1145330 0.0014958 255 0 0
-0.0361877 0.1145567 0.0014852 255 0 0
-0.0338706 0.1145833 0.0014843 255 0 0
-0.0316319 0.1146354 0.0014972 255 0 0
-0.0294452 0.1147138 0.0015113 255 0 0
-0.0272450 0.1147755 0.0015232 255 0 0
-0.0249487 0.1148291 0.0015268 255 0 0
-0.0226649 0.1148771 0.0015246 255 0 0
-0.0199944 0.1150193 0.0015192 255 0 0
-0.0176160 0.1151468 0.0015106 255 0 0
-0.0155793 0.1151650 0.0015018 255 0 0
-0.0134199 0.1151766 0.0014951 255 0 0
-0.0111151 0.1151761 0.0014911 255 0 0
-0.0088600 0.1151755 0.0014862 255 0 0
-0.0066329 0.1151755 0.0014803 255 0 0
-0.0043625 0.1151743 0.0014778 255 0 0
-0.0021347 0.1151568 0.0014747 255 0 0
0.0004671 0.1151225 0.0014562 255 0 0
0.0028932 0.1150978 0.0014404 255 0 0
0.0050512 0.1150902 0.0014374 255 0 0
0.0072332 0.1150783 0.0014317 255 0 0
0.0094572 0.1150672 0.0014238 255 0 0
0.0116363 0.1149779 0.0014107 255 0 0
0.0137672 0.1149326 0.0013906 255 0 0
0.0158473 0.1148265 0.0013514 255 0 0
-0.0953590 0.1163571 0.0014574 255 0 0
-0.0932515 0.1166043 0.0014797 255 0 0
-0.0909501 0.1167216 0.0014954 255 0 0
-0.0886787 0.1168114 0.0015027 255 0 0
-0.0865735 0.1168574 0.0014980 255 0 0
-0.0843417 0.1168996 0.0014983 255 0 0
-0.0819606 0.1169521 0.0015042 255 0 0
-0.0796910 0.1169952 0.0015150 255 0 0
-0.0774907 0.1170498 0.0015281 255 0 0
-0.0752620 0.1170590 0.0015382 255 0 0
-0.0730249 0.1170685 0.0015396 255 0 0
-0.0707019 0.1171177 0.0015233 255 0 0
-0.0683004 0.1171744 0.0015021 255 0 0
-0.0658397 0.1171604 0.0015022 255 0 0
-0.0635136 0.1171646 0.0014989 255 0 0
-0.0613742 0.1172057 0.0014916 255 0 0
-0.0591897 0.1172412 0.0014861 255 0 0
-0.0568978 0.1172692 0.0014831 255 0 0
-0.0546458 0.1172954 0.0014796 255 0 0
-0.0524109 0.1173219 0.0014757 255 0 0
-0.0501350 0.1173602 0.0014714 255 0 0
-0.0479254 0.1173949 0.0014664 255 0 0
-0.0452130 0.1174300 0.0014593 255 0 0
-0.0427830 0.1174468 0.0014541 255 0 0
-0.0407194 0.1175040 0.0014495 255 0 0
-0.0385606 0.1175674 0.0014491 255 0 0
-0.0362422 0.1176037 0.0014549 255 0 0
-0.0339464 0.1176393 0.0014619 255 0 0
-0.0316717 0.1176860 0.0014697 255 0 0
-0.0294426 0.1177035 0.0014783 255 0 0
-0.0272011 0.1177112 0.0014818 255 0 0
-0.0249007 0.1177069 0.0014704 255 0 0
-0.0226174 0.1177165 0.0014534 255 0 0
-0.0200201 0.1177604 0.0014466 255 0 0
-0.0176563 0.1177515 0.0014401 255 0 0
-0.0155777 0.1177569 0.0014321 255 0 0
-0.0133991 0.1177403 0.0014263 255 0 0
-0.0111048 0.1177480 0.0014231 255 0 0
-0.0088499 0.1177546 0.0014195 255 0 0
-0.0066163 0.1177614 0.0014154 255 0 0
-0.0043391 0.1177693 0.0014140 255 0 0
-0.0021038 0.1177773 0.0014121 255 0 0
0.0004808 0.1177613 0.0013981 255 0 0
0.0028890 0.1177347 0.0013857 255 0 0
0.0050317 0.1177436 0.0013786 255 0 0
0.0071996 0.1177325 0.0013722 255 0 0
0.0094101 0.1176762 0.0013644 255 0 0
0.0115862 0.1176159 0.0013576 255 0 0
0.0137264 0.1175561 0.0013531 255 0 0
0.0158243 0.1174493 0.0013359 255 0 0
-0.0952472 0.1188261 0.0014141 255 0 0
-0.0931651 0.1189844 0.0014300 255 0 0
-0.0908865 0.1192961 0.0014382 255 0 0
-0.0886337 0.1194794 0.0014366 255 0 0
-0.0865037 0.1195467 0.0014267 255 0 0
-0.0842988 0.1196030 0.0014261 255 0 0
-0.0819532 0.1196382 0.0014341 255 0 0
-0.0797053 0.1196645 0.0014506 255 0 0
-0.0774744 0.1196877 0.0014721 255 0 0
-0.0752115 0.1197016 0.0014875 255 0 0
-0.0729915 0.1197246 0.0014913 255 0 0
-0.0705981 0.1197697 0.0014743 255 0 0
-0.0682630 0.1198216 0.0014535 255 0 0
-0.0658297 0.1198356 0.0014542 255 0 0
-0.0635415 0.1198537 0.0014524 255 0 0
-0.0613639 0.1198938 0.0014472 255 0 0
-0.0591622 0.1199309 0.0014435 255 0 0
-0.0568818 0.1199644 0.0014420 255 0 0
-0.0546314 0.1200019 0.0014398 255 0 0
-0.0524002 0.1200369 0.0014365 255 0 0
-0.0501124 0.1200923 0.0014328 255 0 0
-0.0478873 0.1201504 0.0014286 255 0 0
-0.0452114 0.1201974 0.0014249 255 0 0
-0.0427824 0.1202325 0.0014214 255 0 0
-0.0407167 0.1202683 0.0014150 255 0 0
-0.0385495 0.1203148 0.0014140 255 0 0
-0.0362400 0.1203374 0.0014212 255 0 0
-0.0339523 0.1203527 0.0014250 255 0 0
-0.0316767 0.1203602 0.0014265 255 0 0
-0.0294336 0.1203571 0.0014318 255 0 0
-0.0271693 0.1203739 0.0014328 255 0 0
-0.0248634 0.1203767 0.0014171 255 0 0
-0.0225726 0.1203592 0.0013968 255 0 0
-0.0200363 0.1203817 0.0013941 255 0 0
-0.0176853 0.1203806 0.0013891 255 0 0
-0.0155709 0.1203744 0.0013806 255 0 0
-0.0133758 0.1203830 0.0013741 255 0 0
-0.0110892 0.1203857 0.0013700 255 0 0
-0.0088375 0.1203858 0.0013664 255 0 0
-0.0065992 0.1203956 0.0013621 255 0 0
-0.0043192 0.1204114 0.0013589 255 0 0
-0.0020844 0.1204320 0.0013569 255 0 0
0.0004951 0.1204189 0.0013499 255 0 0
0.0028899 0.1203858 0.0013427 255 0 0
0.0050110 0.1203822 0.0013318 255 0 0
0.0071630 0.1203530 0.0013261 255 0 0
0.0093589 0.1203075 0.0013259 255 0 0
0.0115273 0.1202031 0.0013265 255 0 0
0.0136676 0.1200728 0.0013298 255 0 0
-0.0929633 0.1217877 0.0013318 255 0 0
-0.0907639 0.1219872 0.0013338 255 0 0
-0.0885610 0.1221531 0.0013419 255 0 0
-0.0863866 0.1222397 0.0013546 255 0 0
-0.0841870 0.1223124 0.0013685 255 0 0
-0.0819428 0.1223669 0.0013842 255 0 0
-0.0797335 0.1223964 0.0014001 255 0 0
-0.0774562 0.1224030 0.0014159 255 0 0
-0.0751904 0.1224133 0.0014326 255 0 0
-0.0729457 0.1224233 0.0014418 255 0 0
-0.0705466 0.1224457 0.0014296 255 0 0
-0.0681840 0.1224767 0.0014136 255 0 0
-0.0658376 0.1224889 0.0014176 255 0 0
-0.0635611 0.1225057 0.0014178 255 0 0
-0.0613865 0.1225240 0.0014137 255 0 0
-0.0591346 0.1225430 0.0014103 255 0 0
-0.0568735 0.1225658 0.0014079 255 0 0
-0.0546322 0.1226064 0.0014057 255 0 0
-0.0523883 0.1226445 0.0014029 255 0 0
-0.0500909 0.1226763 0.0013998 255 0 0
-0.0478407 0.1227183 0.0013949 255 0 0
-0.0452040 0.1227265 0.0013943 255 0 0
-0.0427948 0.1227353 0.0013903 255 0 0
-0.0407103 0.1227411 0.0013809 255 0 0
-0.0385185 0.1227444 0.0013751 255 0 0
-0.0362224 0.1227559 0.0013744 255 0 0
-0.0339359 0.1227518 0.0013743 255 0 0
-0.0316602 0.1227362 0.0013713 255 0 0
-0.0294125 0.1227404 0.0013743 255 0 0
-0.0271444 0.1227626 0.0013785 255 0 0
-0.0248272 0.1227605 0.0013676 255 0 0
-0.0225180 0.1227691 0.0013533 255 0 0
-0.0200415 0.1227881 0.0013605 255 0 0
-0.0177107 0.1228142 0.0013604 255 0 0
-0.0155659 0.1228258 0.0013492 255 0 0
-0.0133521 0.1228357 0.0013414 255 0 0
-0.0110709 0.1228461 0.0013362 255 0 0
-0.0088204 0.1228584 0.0013325 255 0 0
-0.0065805 0.1228685 0.0013286 255 0 0
-0.0043039 0.1228835 0.0013254 255 0 0
-0.0020879 0.1229031 0.0013147 255 0 0
0.0005027 0.1228483 0.0013289 255 0 0
0.0028863 0.1227958 0.0013296 255 0 0
0.0049743 0.1228028 0.0013138 255 0 0
0.0071099 0.1227424 0.0013103 255 0 0
0.0093001 0.1226521 0.0013181 255 0 0
0.0114623 0.1225166 0.0013147 255 0 0
-0.0906736 0.1244910 0.0013079 255 0 0
-0.0885499 0.1246208 0.0013432 255 0 0
-0.0863677 0.1247412 0.0013482 255 0 0
-0.0841520 0.1248211 0.0013417 255 0 0
-0.0819068 0.1249016 0.0013403 255 0 0
-0.0797178 0.1249355 0.0013428 255 0 0
-0.0774418 0.1249662 0.0013496 255 0 0
-0.0751715 0.1249939 0.0013597 255 0 0
-0.0729168 0.1250248 0.0013682 255 0 0
-0.0704978 0.1250544 0.0013566 255 0 0
-0.0681367 0.1250804 0.0013454 255 0 0
-0.0658408 0.1251012 0.0013447 255 0 0
-0.0635880 0.1251225 0.0013431 255 0 0
-0.0613953 0.1251502 0.0013408 255 0 0
-0.0591292 0.1251705 0.0013378 255 0 0
-0.0568802 0.1251862 0.0013345 255 0 0
-0.0546171 0.1251994 0.0013313 255 0 0
-0.0523582 0.1252101 0.0013285 255 0 0
-0.0500489 0.1252159 0.0013271 255 0 0
-0.0477819 0.1252237 0.0013256 255 0 0
-0.0452245 0.1252248 0.0013237 255 0 0
-0.0428472 0.1252201 0.0013205 255 0 0
-0.0407263 0.1252145 0.0013151 255 0 0
-0.0385081 0.1252164 0.0013096 255 0 0
-0.0362105 0.1252266 0.0013040 255 0 0
-0.0339309 0.1252350 0.0012972 255 0 0
-0.0316591 0.1252436 0.0012901 255 0 0
-0.0293953 0.1252518 0.0012878 255 0 0
-0.0271179 0.1252573 0.0012845 255 0 0
-0.0247841 0.1252696 0.0012704 255 0 0
-0.0224651 0.1252728 0.0012545 255 0 0
-0.0200755 0.1252792 0.0012533 255 0 0
-0.0177644 0.1252996 0.0012489 255 0 0
-0.0155747 0.1253100 0.0012408 255 0 0
-0.0133392 0.1253263 0.0012338 255 0 0
-0.0110623 0.1253491 0.0012285 255 0 0
-0.0088098 0.1253540 0.0012245 255 0 0
-0.0065637 0.1253394 0.0012201 255 0 0
-0.0042795 0.1253163 0.0012179 255 0 0
-0.0020246 0.1253248 0.0012159 255 0 0
0.0004713 0.1252461 0.0012274 255 0 0
0.0028270 0.1252341 0.0012403 255 0 0
0.0049749 0.1252030 0.0012440 255 0 0
0.0071256 0.1251597 0.0012574 255 0 0
0.0092872 0.1250480 0.0012901 255 0 0
-0.0894813 0.1271290 0.0022086 255 0 0
-0.0868812 0.1271296 0.0017930 255 0 0
-0.0841566 0.1271407 0.0013736 255 0 0
-0.0819028 0.1271612 0.0013411 255 0 0
-0.0796956 0.1271793 0.0013247 255 0 0
-0.0774216 0.1271905 0.0013206 255 0 0
-0.0751394 0.1272265 0.0013174 255 0 0
-0.0728952 0.1272944 0.0013151 255 0 0
-0.0704706 0.1273006 0.0013054 255 0 0
-0.0681060 0.1273123 0.0012988 255 0 0
-0.0658665 0.1273304 0.0012941 255 0 0
-0.0636649 0.1273392 0.0012917 255 0 0
-0.0613831 0.1273477 0.0012925 255 0 0
-0.0591334 0.1273382 0.0012934 255 0 0
-0.0568774 0.1273067 0.0012955 255 0 0
-0.0546142 0.1271747 0.0013075 255 0 0
-0.0523343 0.1271466 0.0013122 255 0 0
-0.0500234 0.1271296 0.0013162 255 0 0
-0.0477342 0.1272733 0.0013075 255 0 0
-0.0452618 0.1272518 0.0013048 255 0 0
-0.0428980 0.1272276 0.0013036 255 0 0
-0.0407534 0.1271989 0.0013087 255 0 0
-0.0385130 0.1272154 0.0013029 255 0 0
-0.0362061 0.1272465 0.0012862 255 0 0
-0.0339243 0.1272620 0.0012723 255 0 0
-0.0316697 0.1272206 0.0012631 255 0 0
-0.0293939 0.1271316 0.0012580 255 0 0
-0.0271054 0.1271525 0.0012442 255 0 0
-0.0247546 0.1272194 0.0012227 255 0 0
-0.0224283 0.1273833 0.0011994 255 0 0
-0.0200998 0.1273993 0.0011931 255 0 0
-0.0178154 0.1274203 0.0011867 255 0 0
-0.0155916 0.1274411 0.0011808 255 0 0
-0.0133376 0.1274758 0.0011748 255 0 0
-0.0110619 0.1275110 0.0011692 255 0 0
-0.0088051 0.1275109 0.0011666 255 0 0
-0.0065507 0.1274840 0.0011651 255 0 0
-0.0042658 0.1273993 0.0011689 255 0 0
-0.0019953 0.1273200 0.0011775 255 0 0
0.0004483 0.1274032 0.0011999 255 0 0
0.0027847 0.1274216 0.0012304 255 0 0
0.0049539 0.1274694 0.0012497 255 0 0
0.0071174 0.1274552 0.0012813 255 0 0
-0.0840404 0.1295804 0.0013075 255 0 0
-0.0818138 0.1296823 0.0012736 255 0 0
-0.0796125 0.1297443 0.0012502 255 0 0
-0.0773984 0.1297790 0.0012345 255 0 0
-0.0751225 0.1298622 0.0012259 255 0 0
-0.0729021 0.1298697 0.0012200 255 0 0
-0.0704476 0.1298721 0.0012183 255 0 0
-0.0680885 0.1298807 0.0012136 255 0 0
-0.0659152 0.1298943 0.0012016 255 0 0
-0.0636579 0.1299096 0.0011934 255 0 0
-0.0613773 0.1299224 0.0011903 255 0 0
-0.0591379 0.1299389 0.0011890 255 0 0
-0.0568625 0.1299548 0.0011898 255 0 0
-0.0545810 0.1299659 0.0011887 255 0 0
-0.0522905 0.1299683 0.0011884 255 0 0
-0.0500102 0.1299619 0.0011948 255 0 0
-0.0477566 0.1299339 0.0012015 255 0 0
-0.0452973 0.1298534 0.0012233 255 0 0
-0.0429428 0.1298111 0.0012342 255 0 0
-0.0407559 0.1297860 0.0012342 255 0 0
-0.0384825 0.1297960 0.0012284 255 0 0
-0.0361447 0.1298484 0.0012164 255 0 0
-0.0338575 0.1298972 0.0011993 255 0 0
-0.0316000 0.1299473 0.0011785 255 0 0
-0.0293533 0.1299691 0.0011584 255 0 0
-0.0270941 0.1299526 0.0011416 255 0 0
-0.0247317 0.1300020 0.0011396 255 0 0
-0.0223895 0.1300129 0.0011385 255 0 0
-0.0201260 0.1300298 0.0011285 255 0 0
-0.0178608 0.1300287 0.0011189 255 0 0
-0.0155995 0.1300369 0.0011109 255 0 0
-0.0133274 0.1300461 0.0011015 255 0 0
-0.0110450 0.1300639 0.0010906 255 0 0
-0.0087756 0.1300827 0.0010887 255 0 0
-0.0065157 0.1300903 0.0010928 255 0 0
-0.0042614 0.1300860 0.0010982 255 0 0
-0.0020744 0.1300840 0.0010822 255 0 0
0.0004231 0.1299347 0.0011943 255 0 0
0.0027633 0.1298349 0.0012571 255 0 0
-0.0818074 0.1322872 0.0013449 255 0 0
-0.0796030 0.1323639 0.0013099 255 0 0
-0.0773906 0.1323632 0.0012799 255 0 0
-0.0751019 0.1323570 0.0012543 255 0 0
-0.0728689 0.1323426 0.0012313 255 0 0
-0.0704677 0.1323487 0.0012283 255 0 0
-0.0680727 0.1323950 0.0012240 255 0 0
-0.0659203 0.1324240 0.0012136 255 0 0
-0.0636508 0.1324359 0.0012086 255 0 0
-0.0614010 0.1324418 0.0012082 255 0 0
-0.0591316 0.1324588 0.0012177 255 0 0
-0.0568673 0.1324776 0.0012378 255 0 0
-0.0545650 0.1325078 0.0012590 255 0 0
-0.0522708 0.1325032 0.0012756 255 0 0
-0.0500108 0.1324761 0.0012876 255 0 0
-0.0477769 0.1324080 0.0012917 255 0 0
-0.0338138 0.1323703 0.0012675 255 0 0
-0.0315736 0.1324799 0.0012415 255 0 0
-0.0293370 0.1325633 0.0012063 255 0 0
-0.0270931 0.1326341 0.0011673 255 0 0
-0.0247156 0.1326226 0.0011685 255 0 0
-0.0223827 0.1325779 0.0011659 255 0 0
-0.0201300 0.1325632 0.0011764 255 0 0
-0.0178749 0.1325504 0.0011790 255 0 0
-0.0156008 0.1325352 0.0011625 255 0 0
-0.0133257 0.1325283 0.0011580 255 0 0
-0.0110392 0.1325333 0.0011699 255 0 0
-0.0087654 0.1325590 0.0011932 255 0 0
-0.0064991 0.1326008 0.0012207 255 0 0
-0.0042547 0.1326470 0.0012358 255 0 0
-0.0021022 0.1327257 0.0012147 255 0 0
-0.0751031 0.1343561 0.0013493 255 0 0
-0.0728511 0.1344161 0.0013125 255 0 0
-0.0704714 0.1344166 0.0012969 255 0 0
-0.0681066 0.1344335 0.0012878 255 0 0
-0.0659288 0.1344437 0.0012791 255 0 0
-0.0636539 0.1344271 0.0012821 255 0 0
-0.0614025 0.1343137 0.0012903 255 0 0
-0.0591338 0.1343464 0.0013193 255 0 0
-0.0247260 0.1343704 0.0012628 255 0 0
-0.0223982 0.1346970 0.0012242 255 0 0
-0.0201356 0.1347067 0.0012459 255 0 0
-0.0178778 0.1347121 0.0012346 255 0 0
-0.0156047 0.1347079 0.0011350 255 0 0
-0.0133291 0.1346850 0.0011385 255 0 0
-0.0110353 0.1346659 0.0012252 255 0 0
-0.0087611 0.1346818 0.0012621 255 0 0
-0.0065081 0.1346580 0.0012689 255 0 0
-0.0678997 0.0348598 0.0033202 255 0 0
-0.0657851 0.0348340 0.0033138 255 0 0
-0.0636457 0.0348183 0.0033130 255 0 0
-0.0613924 0.0348176 0.0033189 255 0 0
-0.0591220 0.0348159 0.0033266 255 0 0
-0.0568498 0.0348143 0.0033362 255 0 0
-0.0546184 0.0348180 0.0033487 255 0 0
-0.0523928 0.0348334 0.0033742 255 0 0
-0.0501731 0.0348764 0.0034370 255 0 0
-0.0292757 0.0348632 0.0034700 255 0 0
-0.0271013 0.0348435 0.0034618 255 0 0
-0.0248150 0.0348071 0.0033991 255 0 0
-0.0225364 0.0347942 0.0033618 255 0 0
-0.0200656 0.0348147 0.0033966 255 0 0
-0.0177539 0.0348377 0.0034094 255 0 0
-0.0156372 0.0348515 0.0033769 255 0 0
-0.0135039 0.0348975 0.0033844 255 0 0
-0.0727250 0.0370804 0.0031754 255 0 0
-0.0703068 0.0369969 0.0032847 255 0 0
-0.0679739 0.0369449 0.0033411 255 0 0
-0.0658323 0.0369327 0.0033051 255 0 0
-0.0636618 0.0369211 0.0032894 255 0 0
-0.0613892 0.0369157 0.0033036 255 0 0
-0.0591199 0.0369138 0.0033146 255 0 0
-0.0568487 0.0369142 0.0033230 255 0 0
-0.0546078 0.0369198 0.0033334 255 0 0
-0.0523642 0.0369317 0.0033497 255 0 0
-0.0501003 0.0369670 0.0033817 255 0 0
-0.0478604 0.0370055 0.0034079 255 0 0
-0.0453447 0.0371075 0.0035416 255 0 0
-0.0429519 0.0371672 0.0036081 255 0 0
-0.0361181 0.0370856 0.0034723 255 0 0
-0.0338294 0.0370231 0.0034218 255 0 0
-0.0315837 0.0369837 0.0034040 255 0 0
-0.0293572 0.0369590 0.0034109 255 0 0
-0.0271105 0.0369618 0.0034448 255 0 0
-0.0248246 0.0369174 0.0033697 255 0 0
-0.0225325 0.0369044 0.0033169 255 0 0
-0.0200721 0.0369301 0.0033551 255 0 0
-0.0177493 0.0369499 0.0033699 255 0 0
-0.0156074 0.0369541 0.0033454 255 0 0
-0.0134295 0.0369775 0.0033440 255 0 0
-0.0112039 0.0370233 0.0033647 255 0 0
-0.0090509 0.0370859 0.0034127 255 0 0
-0.0748751 0.0392748 0.0032333 255 0 0
-0.0727965 0.0392360 0.0032536 255 0 0
-0.0703795 0.0391867 0.0033430 255 0 0
-0.0680325 0.0391511 0.0033930 255 0 0
-0.0658543 0.0391457 0.0033732 255 0 0
-0.0636547 0.0391391 0.0033671 255 0 0
-0.0613870 0.0391301 0.0033800 255 0 0
-0.0591200 0.0391291 0.0033905 255 0 0
-0.0568488 0.0391314 0.0033988 255 0 0
-0.0546015 0.0391395 0.0034072 255 0 0
-0.0523530 0.0391622 0.0034178 255 0 0
-0.0500807 0.0391838 0.0034365 255 0 0
-0.0478389 0.0391967 0.0034481 255 0 0
-0.0452826 0.0392799 0.0035178 255 0 0
-0.0428773 0.0393228 0.0035483 255 0 0
-0.0407263 0.0393200 0.0035214 255 0 0
-0.0384996 0.0393002 0.0034974 255 0 0
-0.0361590 0.0392640 0.0034758 255 0 0
-0.0338714 0.0392265 0.0034572 255 0 0
-0.0316364 0.0391959 0.0034471 255 0 0
-0.0293869 0.0391941 0.0034674 255 0 0
-0.0271339 0.0392107 0.0035108 255 0 0
-0.0248298 0.0391610 0.0034341 255 0 0
-0.0225384 0.0391334 0.0033726 255 0 0
-0.0200653 0.0391613 0.0034182 255 0 0
-0.0177326 0.0391780 0.0034341 255 0 0
-0.0155899 0.0391714 0.0034078 255 0 0
-0.0133953 0.0391848 0.0033931 255 0 0
-0.0111436 0.0392207 0.0033897 255 0 0
-0.0089443 0.0392638 0.0034011 255 0 0
-0.0068078 0.0393221 0.0034219 255 0 0
-0.0769917 0.0414669 0.0031935 255 0 0
-0.0749268 0.0414259 0.0032302 255 0 0
-0.0728339 0.0413775 0.0032559 255 0 0
-0.0704259 0.0413629 0.0032851 255 0 0
-0.0681149 0.0413216 0.0033031 255 0 0
-0.0658568 0.0413222 0.0033003 255 0 0
-0.0636091 0.0413169 0.0033027 255 0 0
-0.0613861 0.0413222 0.0033110 255 0 0
-0.0591269 0.0413272 0.0033189 255 0 0
-0.0568525 0.0413313 0.0033264 255 0 0
-0.0546020 0.0413346 0.0033336 255 0 0
-0.0523595 0.0413414 0.0033418 255 0 0
-0.0500776 0.0413535 0.0033546 255 0 0
-0.0478327 0.0413683 0.0033591 255 0 0
-0.0452402 0.0414483 0.0034086 255 0 0
-0.0428323 0.0414924 0.0034260 255 0 0
-0.0407202 0.0414827 0.0033948 255 0 0
-0.0385038 0.0414591 0.0033768 255 0 0
-0.0362086 0.0414327 0.0033765 255 0 0
-0.0339092 0.0414162 0.0033703 255 0 0
-0.0316547 0.0413977 0.0033654 255 0 0
-0.0294006 0.0413844 0.0033930 255 0 0
-0.0271475 0.0414106 0.0034434 255 0 0
-0.0248438 0.0413497 0.0033582 255 0 0
-0.0225550 0.0413072 0.0032874 255 0 0
-0.0200521 0.0413354 0.0033385 255 0 0
-0.0177158 0.0413517 0.0033573 255 0 0
-0.0155791 0.0413453 0.0033314 255 0 0
-0.0133806 0.0413694 0.0033166 255 0 0
-0.0111119 0.0413936 0.0033134 255 0 0
-0.0088815 0.0414406 0.0033243 255 0 0
-0.0066950 0.0414971 0.0033498 255 0 0
-0.0045798 0.0415733 0.0033953 255 0 0
-0.0771091 0.0438151 0.0032973 255 0 0
-0.0750010 0.0437175 0.0032796 255 0 0
-0.0728404 0.0436414 0.0033051 255 0 0
-0.0705371 0.0436396 0.0032697 255 0 0
