ply
format ascii 1.0
element vertex 1229
property float x
property float y
property float z
property uchar red
property uchar green
property uchar blue
end_header
-0.0613719 0.0533232 0.0364086 255 0 0
-0.0590777 0.0533344 0.0363874 255 0 0
-0.0567858 0.0533420 0.0363745 255 0 0
-0.0544974 0.0533479 0.0363653 255 0 0
-0.0522021 0.0533513 0.0363595 255 0 0
-0.0499146 0.0533536 0.0363557 255 0 0
-0.0476263 0.0533554 0.0363532 255 0 0
-0.0453570 0.0533563 0.0363521 255 0 0
-0.0430775 0.0533567 0.0363515 255 0 0
-0.0407791 0.0533564 0.0363508 255 0 0
-0.0384831 0.0533558 0.0363510 255 0 0
-0.0361932 0.0533548 0.0363519 255 0 0
-0.0338989 0.0533539 0.0363539 255 0 0
-0.0316101 0.0533527 0.0363563 255 0 0
-0.0293178 0.0533510 0.0363599 255 0 0
-0.0270215 0.0533510 0.0363614 255 0 0
-0.0247698 0.0533350 0.0363805 255 0 0
-0.0225018 0.0533226 0.0363983 255 0 0
-0.0201893 0.0533219 0.0364015 255 0 0
-0.0178872 0.0533166 0.0364156 255 0 0
-0.0155977 0.0533058 0.0364395 255 0 0
-0.0133069 0.0532914 0.0364746 255 0 0
-0.0110142 0.0532616 0.0365208 255 0 0
-0.0087014 0.0532343 0.0365846 255 0 0
-0.0705403 0.0555305 0.0365916 255 0 0
-0.0682651 0.0555838 0.0364794 255 0 0
-0.0659564 0.0556019 0.0364405 255 0 0
-0.0636679 0.0556160 0.0364112 255 0 0
-0.0613714 0.0556279 0.0363903 255 0 0
-0.0590745 0.0556368 0.0363767 255 0 0
-0.0567857 0.0556418 0.0363680 255 0 0
-0.0544967 0.0556464 0.0363623 255 0 0
-0.0522015 0.0556488 0.0363589 255 0 0
-0.0499141 0.0556500 0.0363566 255 0 0
-0.0476260 0.0556510 0.0363552 255 0 0
-0.0453576 0.0556516 0.0363545 255 0 0
-0.0430781 0.0556517 0.0363539 255 0 0
-0.0407795 0.0556516 0.0363538 255 0 0
-0.0384831 0.0556512 0.0363537 255 0 0
-0.0361943 0.0556508 0.0363543 255 0 0
-0.0338983 0.0556503 0.0363553 255 0 0
-0.0316092 0.0556496 0.0363564 255 0 0
-0.0293180 0.0556481 0.0363587 255 0 0
-0.0270218 0.0556474 0.0363602 255 0 0
-0.0247711 0.0556368 0.0363720 255 0 0
-0.0225026 0.0556299 0.0363827 255 0 0
-0.0201908 0.0556283 0.0363854 255 0 0
-0.0178880 0.0556241 0.0363945 255 0 0
-0.0155983 0.0556164 0.0364103 255 0 0
-0.0133069 0.0556074 0.0364324 255 0 0
-0.0110140 0.0555957 0.0364625 255 0 0
-0.0087066 0.0555759 0.0365022 255 0 0
-0.0064132 0.0555494 0.0365328 255 0 0
-0.0728061 0.0578226 0.0366118 255 0 0
-0.0705370 0.0578693 0.0365083 255 0 0
-0.0682654 0.0579027 0.0364363 255 0 0
-0.0659569 0.0579139 0.0364135 255 0 0
-0.0636629 0.0579234 0.0363960 255 0 0
-0.0613705 0.0579313 0.0363820 255 0 0
-0.0590737 0.0579376 0.0363733 255 0 0
-0.0567853 0.0579414 0.0363677 255 0 0
-0.0544900 0.0579445 0.0363642 255 0 0
-0.0522009 0.0579462 0.0363622 255 0 0
-0.0499135 0.0579470 0.0363610 255 0 0
-0.0476255 0.0579478 0.0363602 255 0 0
-0.0453575 0.0579481 0.0363598 255 0 0
-0.0430788 0.0579484 0.0363594 255 0 0
-0.0407797 0.0579483 0.0363584 255 0 0
-0.0384831 0.0579481 0.0363580 255 0 0
-0.0361941 0.0579477 0.0363584 255 0 0
-0.0338982 0.0579472 0.0363591 255 0 0
-0.0316094 0.0579467 0.0363606 255 0 0
-0.0293181 0.0579456 0.0363625 255 0 0
-0.0270226 0.0579443 0.0363642 255 0 0
-0.0247718 0.0579387 0.0363715 255 0 0
-0.0225031 0.0579342 0.0363776 255 0 0
-0.0201916 0.0579331 0.0363793 255 0 0
-0.0178887 0.0579299 0.0363846 255 0 0
-0.0155995 0.0579251 0.0363940 255 0 0
-0.0133074 0.0579194 0.0364092 255 0 0
-0.0110141 0.0579132 0.0364265 255 0 0
-0.0087185 0.0579050 0.0364503 255 0 0
-0.0064097 0.0578988 0.0364742 255 0 0
-0.0040925 0.0578236 0.0364657 255 0 0
-0.0751143 0.0601000 0.0366903 255 0 0
-0.0728043 0.0601579 0.0365478 255 0 0
-0.0705338 0.0601922 0.0364678 255 0 0
-0.0682662 0.0602171 0.0364123 255 0 0
-0.0659569 0.0602233 0.0364007 255 0 0
-0.0636526 0.0602289 0.0363904 255 0 0
-0.0613626 0.0602351 0.0363805 255 0 0
-0.0590736 0.0602387 0.0363741 255 0 0
-0.0567853 0.0602416 0.0363707 255 0 0
-0.0544894 0.0602446 0.0363685 255 0 0
-0.0522005 0.0602456 0.0363675 255 0 0
-0.0499131 0.0602464 0.0363670 255 0 0
-0.0476251 0.0602467 0.0363668 255 0 0
-0.0453581 0.0602470 0.0363666 255 0 0
-0.0430794 0.0602472 0.0363664 255 0 0
-0.0407802 0.0602470 0.0363655 255 0 0
-0.0384831 0.0602468 0.0363651 255 0 0
-0.0361940 0.0602468 0.0363654 255 0 0
-0.0338977 0.0602465 0.0363658 255 0 0
-0.0316086 0.0602462 0.0363671 255 0 0
-0.0293183 0.0602450 0.0363687 255 0 0
-0.0270234 0.0602434 0.0363704 255 0 0
-0.0247723 0.0602405 0.0363746 255 0 0
-0.0225041 0.0602380 0.0363782 255 0 0
-0.0201924 0.0602367 0.0363792 255 0 0
-0.0178917 0.0602352 0.0363826 255 0 0
-0.0156002 0.0602320 0.0363888 255 0 0
-0.0133087 0.0602283 0.0363981 255 0 0
-0.0110158 0.0602247 0.0364098 255 0 0
-0.0087204 0.0602207 0.0364251 255 0 0
-0.0064116 0.0602240 0.0364370 255 0 0
-0.0040952 0.0602512 0.0364358 255 0 0
-0.0015858 0.0607545 0.0358774 255 0 0
-0.0751102 0.0624526 0.0365982 255 0 0
-0.0728030 0.0624873 0.0364994 255 0 0
-0.0705338 0.0625114 0.0364408 255 0 0
-0.0682666 0.0625282 0.0364010 255 0 0
-0.0659581 0.0625321 0.0363949 255 0 0
-0.0636523 0.0625360 0.0363894 255 0 0
-0.0613617 0.0625386 0.0363832 255 0 0
-0.0590733 0.0625425 0.0363788 255 0 0
-0.0567847 0.0625447 0.0363770 255 0 0
-0.0544886 0.0625459 0.0363757 255 0 0
-0.0522001 0.0625468 0.0363750 255 0 0
-0.0499126 0.0625475 0.0363750 255 0 0
-0.0476247 0.0625477 0.0363749 255 0 0
-0.0453578 0.0625482 0.0363749 255 0 0
-0.0430801 0.0625483 0.0363749 255 0 0
-0.0407803 0.0625482 0.0363743 255 0 0
-0.0384830 0.0625481 0.0363742 255 0 0
-0.0361935 0.0625480 0.0363745 255 0 0
-0.0338975 0.0625476 0.0363748 255 0 0
-0.0316086 0.0625473 0.0363754 255 0 0
-0.0293180 0.0625466 0.0363766 255 0 0
-0.0270228 0.0625454 0.0363782 255 0 0
-0.0247729 0.0625446 0.0363803 255 0 0
-0.0225054 0.0625437 0.0363825 255 0 0
-0.0201933 0.0625424 0.0363825 255 0 0
-0.0178922 0.0625406 0.0363848 255 0 0
-0.0156012 0.0625394 0.0363892 255 0 0
-0.0133097 0.0625375 0.0363950 255 0 0
-0.0110174 0.0625349 0.0364025 255 0 0
-0.0087229 0.0625336 0.0364118 255 0 0
-0.0064225 0.0625376 0.0364222 255 0 0
-0.0041115 0.0625573 0.0364264 255 0 0
-0.0016982 0.0628637 0.0361023 255 0 0
-0.0774034 0.0647579 0.0366336 255 0 0
-0.0751000 0.0647881 0.0365282 255 0 0
-0.0728014 0.0648052 0.0364610 255 0 0
-0.0705338 0.0648228 0.0364196 255 0 0
-0.0682629 0.0648345 0.0363919 255 0 0
-0.0659582 0.0648357 0.0363896 255 0 0
-0.0636510 0.0648391 0.0363868 255 0 0
-0.0613613 0.0648426 0.0363825 255 0 0
-0.0590729 0.0648438 0.0363798 255 0 0
-0.0567838 0.0648449 0.0363785 255 0 0
-0.0544879 0.0648454 0.0363779 255 0 0
-0.0521992 0.0648460 0.0363776 255 0 0
-0.0499118 0.0648464 0.0363778 255 0 0
-0.0476238 0.0648467 0.0363780 255 0 0
-0.0453583 0.0648468 0.0363782 255 0 0
-0.0430810 0.0648467 0.0363782 255 0 0
-0.0407803 0.0648465 0.0363776 255 0 0
-0.0384826 0.0648465 0.0363773 255 0 0
-0.0361929 0.0648466 0.0363776 255 0 0
-0.0338968 0.0648464 0.0363781 255 0 0
-0.0316075 0.0648461 0.0363786 255 0 0
-0.0293186 0.0648456 0.0363797 255 0 0
-0.0270225 0.0648449 0.0363810 255 0 0
-0.0247735 0.0648454 0.0363825 255 0 0
-0.0225060 0.0648455 0.0363848 255 0 0
-0.0201939 0.0648443 0.0363834 255 0 0
-0.0178923 0.0648436 0.0363842 255 0 0
-0.0156019 0.0648431 0.0363868 255 0 0
-0.0133109 0.0648421 0.0363912 255 0 0
-0.0110193 0.0648407 0.0363966 255 0 0
-0.0087257 0.0648405 0.0364030 255 0 0
-0.0064311 0.0648413 0.0364143 255 0 0
-0.0041325 0.0648446 0.0364376 255 0 0
-0.0018077 0.0648912 0.0363903 255 0 0
0.0004028 0.0645421 0.0369400 255 0 0
-0.0773997 0.0670889 0.0365852 255 0 0
-0.0750963 0.0671102 0.0365130 255 0 0
-0.0728006 0.0671236 0.0364703 255 0 0
-0.0705351 0.0671333 0.0364431 255 0 0
-0.0682678 0.0671403 0.0364251 255 0 0
-0.0659595 0.0671409 0.0364231 255 0 0
-0.0636511 0.0671423 0.0364211 255 0 0
-0.0613617 0.0671443 0.0364194 255 0 0
-0.0590729 0.0671467 0.0364183 255 0 0
-0.0567808 0.0671475 0.0364179 255 0 0
-0.0544875 0.0671481 0.0364178 255 0 0
-0.0521989 0.0671486 0.0364178 255 0 0
-0.0499115 0.0671488 0.0364182 255 0 0
-0.0476237 0.0671487 0.0364186 255 0 0
-0.0453596 0.0671489 0.0364190 255 0 0
-0.0430820 0.0671488 0.0364192 255 0 0
-0.0407809 0.0671486 0.0364184 255 0 0
-0.0384829 0.0671486 0.0364180 255 0 0
-0.0361903 0.0671485 0.0364183 255 0 0
-0.0338964 0.0671484 0.0364187 255 0 0
-0.0316064 0.0671482 0.0364192 255 0 0
-0.0293168 0.0671467 0.0364202 255 0 0
-0.0270205 0.0671446 0.0364212 255 0 0
-0.0247745 0.0671469 0.0364224 255 0 0
-0.0225109 0.0671484 0.0364231 255 0 0
-0.0201970 0.0671462 0.0364220 255 0 0
-0.0178926 0.0671457 0.0364222 255 0 0
-0.0156021 0.0671458 0.0364239 255 0 0
-0.0133111 0.0671449 0.0364266 255 0 0
-0.0110194 0.0671446 0.0364300 255 0 0
-0.0087261 0.0671452 0.0364352 255 0 0
-0.0064327 0.0671451 0.0364434 255 0 0
-0.0041395 0.0671481 0.0364603 255 0 0
-0.0018264 0.0671716 0.0364542 255 0 0
0.0004063 0.0669929 0.0367588 255 0 0
-0.0796921 0.0693891 0.0366289 255 0 0
-0.0773872 0.0694087 0.0365443 255 0 0
-0.0750915 0.0694235 0.0364954 255 0 0
-0.0727981 0.0694314 0.0364696 255 0 0
-0.0705361 0.0694377 0.0364522 255 0 0
-0.0682693 0.0694428 0.0364412 255 0 0
-0.0659596 0.0694428 0.0364403 255 0 0
-0.0636505 0.0694432 0.0364394 255 0 0
-0.0613617 0.0694440 0.0364387 255 0 0
-0.0590726 0.0694446 0.0364384 255 0 0
-0.0567809 0.0694449 0.0364385 255 0 0
-0.0544870 0.0694452 0.0364386 255 0 0
-0.0521987 0.0694453 0.0364390 255 0 0
-0.0499112 0.0694455 0.0364396 255 0 0
-0.0476233 0.0694454 0.0364400 255 0 0
-0.0453600 0.0694455 0.0364406 255 0 0
-0.0430828 0.0694454 0.0364407 255 0 0
-0.0407821 0.0694449 0.0364399 255 0 0
-0.0384828 0.0694447 0.0364396 255 0 0
-0.0361905 0.0694449 0.0364398 255 0 0
-0.0338962 0.0694448 0.0364401 255 0 0
-0.0316055 0.0694446 0.0364405 255 0 0
-0.0293156 0.0694446 0.0364414 255 0 0
-0.0270198 0.0694438 0.0364423 255 0 0
-0.0247754 0.0694453 0.0364433 255 0 0
-0.0225133 0.0694462 0.0364437 255 0 0
-0.0201987 0.0694445 0.0364423 255 0 0
-0.0178925 0.0694440 0.0364421 255 0 0
-0.0156021 0.0694446 0.0364432 255 0 0
-0.0133113 0.0694450 0.0364448 255 0 0
-0.0110196 0.0694455 0.0364467 255 0 0
-0.0087276 0.0694440 0.0364499 255 0 0
-0.0064342 0.0694437 0.0364566 255 0 0
-0.0041430 0.0694440 0.0364685 255 0 0
-0.0018407 0.0694564 0.0364914 255 0 0
0.0004162 0.0693705 0.0366152 255 0 0
0.0027017 0.0693256 0.0367410 255 0 0
-0.0796887 0.0716977 0.0365734 255 0 0
-0.0773813 0.0717124 0.0365098 255 0 0
-0.0750898 0.0717226 0.0364718 255 0 0
-0.0727976 0.0717292 0.0364477 255 0 0
-0.0705363 0.0717338 0.0364346 255 0 0
-0.0682638 0.0717365 0.0364260 255 0 0
-0.0659605 0.0717364 0.0364247 255 0 0
-0.0636508 0.0717371 0.0364240 255 0 0
-0.0613616 0.0717378 0.0364231 255 0 0
-0.0590722 0.0717387 0.0364226 255 0 0
-0.0567827 0.0717392 0.0364225 255 0 0
-0.0544869 0.0717395 0.0364226 255 0 0
-0.0521982 0.0717397 0.0364230 255 0 0
-0.0499109 0.0717397 0.0364236 255 0 0
-0.0476229 0.0717397 0.0364240 255 0 0
-0.0453603 0.0717397 0.0364245 255 0 0
-0.0430831 0.0717397 0.0364246 255 0 0
-0.0407815 0.0717391 0.0364235 255 0 0
-0.0384829 0.0717391 0.0364227 255 0 0
-0.0361926 0.0717390 0.0364230 255 0 0
-0.0338957 0.0717389 0.0364233 255 0 0
-0.0316054 0.0717389 0.0364238 255 0 0
-0.0293160 0.0717387 0.0364248 255 0 0
-0.0270205 0.0717376 0.0364253 255 0 0
-0.0247744 0.0717396 0.0364266 255 0 0
-0.0225111 0.0717404 0.0364276 255 0 0
-0.0201968 0.0717391 0.0364255 255 0 0
-0.0178925 0.0717386 0.0364252 255 0 0
-0.0156020 0.0717393 0.0364263 255 0 0
-0.0133113 0.0717398 0.0364278 255 0 0
-0.0110200 0.0717396 0.0364294 255 0 0
-0.0087280 0.0717390 0.0364323 255 0 0
-0.0064357 0.0717396 0.0364386 255 0 0
-0.0041458 0.0717393 0.0364512 255 0 0
-0.0018484 0.0717480 0.0364766 255 0 0
0.0004209 0.0716792 0.0365532 255 0 0
0.0027116 0.0716418 0.0366464 255 0 0
-0.0819820 0.0739895 0.0366306 255 0 0
-0.0796880 0.0740047 0.0365319 255 0 0
-0.0773789 0.0740124 0.0364858 255 0 0
-0.0750892 0.0740176 0.0364564 255 0 0
-0.0727919 0.0740258 0.0364373 255 0 0
-0.0705374 0.0740295 0.0364266 255 0 0
-0.0682634 0.0740311 0.0364198 255 0 0
-0.0659572 0.0740308 0.0364188 255 0 0
-0.0636502 0.0740307 0.0364180 255 0 0
-0.0613613 0.0740321 0.0364175 255 0 0
-0.0590722 0.0740323 0.0364172 255 0 0
-0.0567827 0.0740325 0.0364171 255 0 0
-0.0544865 0.0740326 0.0364171 255 0 0
-0.0521981 0.0740328 0.0364172 255 0 0
-0.0499106 0.0740329 0.0364177 255 0 0
-0.0476229 0.0740329 0.0364180 255 0 0
-0.0453601 0.0740331 0.0364184 255 0 0
-0.0430821 0.0740330 0.0364185 255 0 0
-0.0407801 0.0740325 0.0364180 255 0 0
-0.0384829 0.0740322 0.0364180 255 0 0
-0.0361928 0.0740322 0.0364182 255 0 0
-0.0338957 0.0740322 0.0364185 255 0 0
-0.0316058 0.0740321 0.0364188 255 0 0
-0.0293160 0.0740320 0.0364194 255 0 0
-0.0270206 0.0740315 0.0364195 255 0 0
-0.0247747 0.0740328 0.0364209 255 0 0
-0.0225105 0.0740339 0.0364216 255 0 0
-0.0201971 0.0740322 0.0364204 255 0 0
-0.0178923 0.0740315 0.0364191 255 0 0
-0.0156020 0.0740321 0.0364203 255 0 0
-0.0133113 0.0740326 0.0364217 255 0 0
-0.0110200 0.0740326 0.0364235 255 0 0
-0.0087282 0.0740334 0.0364260 255 0 0
-0.0064363 0.0740341 0.0364314 255 0 0
-0.0041473 0.0740339 0.0364424 255 0 0
-0.0018531 0.0740388 0.0364674 255 0 0
0.0004215 0.0739853 0.0365131 255 0 0
0.0027140 0.0739539 0.0365831 255 0 0
0.0050310 0.0739717 0.0366820 255 0 0
-0.0842910 0.0762703 0.0366810 255 0 0
-0.0819797 0.0762883 0.0365694 255 0 0
-0.0796747 0.0763007 0.0365024 255 0 0
-0.0773775 0.0763090 0.0364701 255 0 0
-0.0750886 0.0763144 0.0364501 255 0 0
-0.0727884 0.0763177 0.0364363 255 0 0
-0.0705376 0.0763211 0.0364283 255 0 0
-0.0682614 0.0763236 0.0364229 255 0 0
-0.0659604 0.0763229 0.0364225 255 0 0
-0.0636507 0.0763228 0.0364222 255 0 0
-0.0613614 0.0763238 0.0364218 255 0 0
-0.0590720 0.0763245 0.0364217 255 0 0
-0.0567820 0.0763248 0.0364217 255 0 0
-0.0544863 0.0763252 0.0364217 255 0 0
-0.0521976 0.0763254 0.0364218 255 0 0
-0.0499103 0.0763256 0.0364222 255 0 0
-0.0476225 0.0763253 0.0364223 255 0 0
-0.0453608 0.0763254 0.0364227 255 0 0
-0.0430834 0.0763253 0.0364228 255 0 0
-0.0407821 0.0763246 0.0364223 255 0 0
-0.0384829 0.0763244 0.0364221 255 0 0
-0.0361924 0.0763244 0.0364224 255 0 0
-0.0338951 0.0763248 0.0364226 255 0 0
-0.0316048 0.0763253 0.0364229 255 0 0
-0.0293162 0.0763254 0.0364234 255 0 0
-0.0270201 0.0763262 0.0364236 255 0 0
-0.0247752 0.0763263 0.0364251 255 0 0
-0.0225120 0.0763271 0.0364261 255 0 0
-0.0201971 0.0763259 0.0364246 255 0 0
-0.0178926 0.0763265 0.0364239 255 0 0
-0.0156020 0.0763268 0.0364250 255 0 0
-0.0133122 0.0763263 0.0364261 255 0 0
-0.0110207 0.0763265 0.0364272 255 0 0
-0.0087279 0.0763265 0.0364295 255 0 0
-0.0064365 0.0763255 0.0364338 255 0 0
-0.0041476 0.0763232 0.0364427 255 0 0
-0.0018542 0.0763263 0.0364659 255 0 0
0.0004174 0.0762864 0.0364938 255 0 0
0.0027072 0.0762610 0.0365509 255 0 0
0.0050223 0.0762691 0.0366362 255 0 0
-0.0842753 0.0785728 0.0366015 255 0 0
-0.0819775 0.0785864 0.0365279 255 0 0
-0.0796702 0.0785952 0.0364840 255 0 0
-0.0773774 0.0786027 0.0364605 255 0 0
-0.0750885 0.0786081 0.0364466 255 0 0
-0.0727838 0.0786109 0.0364378 255 0 0
-0.0705388 0.0786121 0.0364323 255 0 0
-0.0682624 0.0786134 0.0364281 255 0 0
-0.0659623 0.0786130 0.0364272 255 0 0
-0.0636505 0.0786131 0.0364266 255 0 0
-0.0613612 0.0786143 0.0364266 255 0 0
-0.0590718 0.0786147 0.0364266 255 0 0
-0.0567811 0.0786152 0.0364266 255 0 0
-0.0544857 0.0786155 0.0364267 255 0 0
-0.0521974 0.0786157 0.0364267 255 0 0
-0.0499099 0.0786155 0.0364270 255 0 0
-0.0476221 0.0786155 0.0364273 255 0 0
-0.0453608 0.0786153 0.0364274 255 0 0
-0.0430851 0.0786155 0.0364275 255 0 0
-0.0407825 0.0786152 0.0364272 255 0 0
-0.0384829 0.0786149 0.0364271 255 0 0
-0.0361922 0.0786153 0.0364273 255 0 0
-0.0338950 0.0786150 0.0364275 255 0 0
-0.0316048 0.0786146 0.0364277 255 0 0
-0.0293157 0.0786139 0.0364281 255 0 0
-0.0270190 0.0786137 0.0364289 255 0 0
-0.0247760 0.0786155 0.0364306 255 0 0
-0.0225133 0.0786172 0.0364316 255 0 0
-0.0201978 0.0786165 0.0364294 255 0 0
-0.0178925 0.0786152 0.0364287 255 0 0
-0.0156020 0.0786157 0.0364294 255 0 0
-0.0133121 0.0786155 0.0364306 255 0 0
-0.0110208 0.0786150 0.0364320 255 0 0
-0.0087277 0.0786144 0.0364338 255 0 0
-0.0064362 0.0786147 0.0364370 255 0 0
-0.0041479 0.0786146 0.0364443 255 0 0
-0.0018549 0.0786159 0.0364624 255 0 0
0.0004136 0.0785864 0.0364810 255 0 0
0.0027010 0.0785661 0.0365272 255 0 0
0.0050156 0.0785689 0.0365935 255 0 0
-0.0865874 0.0808777 0.0366474 255 0 0
-0.0842706 0.0808744 0.0365548 255 0 0
-0.0819780 0.0808838 0.0365037 255 0 0
-0.0796673 0.0808904 0.0364701 255 0 0
-0.0773764 0.0808944 0.0364532 255 0 0
-0.0750880 0.0808974 0.0364424 255 0 0
-0.0727822 0.0809021 0.0364364 255 0 0
-0.0705389 0.0809039 0.0364335 255 0 0
-0.0682636 0.0809048 0.0364316 255 0 0
-0.0659616 0.0809048 0.0364308 255 0 0
-0.0636505 0.0809056 0.0364303 255 0 0
-0.0613612 0.0809068 0.0364304 255 0 0
-0.0590718 0.0809075 0.0364305 255 0 0
-0.0567815 0.0809077 0.0364306 255 0 0
-0.0544855 0.0809078 0.0364307 255 0 0
-0.0521970 0.0809078 0.0364308 255 0 0
-0.0499096 0.0809078 0.0364311 255 0 0
-0.0476217 0.0809076 0.0364313 255 0 0
-0.0453612 0.0809077 0.0364315 255 0 0
-0.0430858 0.0809078 0.0364316 255 0 0
-0.0407827 0.0809074 0.0364309 255 0 0
-0.0384829 0.0809070 0.0364308 255 0 0
-0.0361920 0.0809071 0.0364310 255 0 0
-0.0338944 0.0809070 0.0364312 255 0 0
-0.0316038 0.0809061 0.0364315 255 0 0
-0.0293155 0.0809049 0.0364319 255 0 0
-0.0270186 0.0809035 0.0364323 255 0 0
-0.0247765 0.0809062 0.0364336 255 0 0
-0.0225142 0.0809078 0.0364344 255 0 0
-0.0201979 0.0809058 0.0364326 255 0 0
-0.0178926 0.0809049 0.0364318 255 0 0
-0.0156018 0.0809054 0.0364326 255 0 0
-0.0133119 0.0809053 0.0364333 255 0 0
-0.0110206 0.0809049 0.0364341 255 0 0
-0.0087277 0.0809052 0.0364354 255 0 0
-0.0064361 0.0809050 0.0364378 255 0 0
-0.0041479 0.0809037 0.0364427 255 0 0
-0.0018552 0.0809014 0.0364549 255 0 0
0.0004102 0.0808857 0.0364717 255 0 0
0.0026950 0.0808670 0.0365098 255 0 0
0.0050103 0.0808668 0.0365534 255 0 0
0.0073312 0.0808538 0.0366426 255 0 0
-0.0865788 0.0831532 0.0366233 255 0 0
-0.0842666 0.0831687 0.0365181 255 0 0
-0.0819725 0.0831752 0.0364784 255 0 0
-0.0796658 0.0831826 0.0364535 255 0 0
-0.0773764 0.0831848 0.0364412 255 0 0
-0.0750876 0.0831872 0.0364325 255 0 0
-0.0727810 0.0831896 0.0364274 255 0 0
-0.0705399 0.0831906 0.0364254 255 0 0
-0.0682631 0.0831929 0.0364239 255 0 0
-0.0659613 0.0831925 0.0364227 255 0 0
-0.0636502 0.0831928 0.0364213 255 0 0
-0.0613611 0.0831940 0.0364216 255 0 0
-0.0590716 0.0831945 0.0364218 255 0 0
-0.0567815 0.0831951 0.0364220 255 0 0
-0.0544849 0.0831951 0.0364221 255 0 0
-0.0521966 0.0831953 0.0364224 255 0 0
-0.0499091 0.0831951 0.0364234 255 0 0
-0.0476213 0.0831950 0.0364237 255 0 0
-0.0453611 0.0831953 0.0364240 255 0 0
-0.0430865 0.0831953 0.0364241 255 0 0
-0.0407829 0.0831949 0.0364227 255 0 0
-0.0384830 0.0831947 0.0364218 255 0 0
-0.0361920 0.0831949 0.0364221 255 0 0
-0.0338942 0.0831934 0.0364231 255 0 0
-0.0316038 0.0831928 0.0364237 255 0 0
-0.0293151 0.0831909 0.0364247 255 0 0
-0.0270182 0.0831895 0.0364254 255 0 0
-0.0247766 0.0831927 0.0364258 255 0 0
-0.0225143 0.0831936 0.0364255 255 0 0
-0.0201982 0.0831917 0.0364242 255 0 0
-0.0178923 0.0831909 0.0364236 255 0 0
-0.0156020 0.0831912 0.0364242 255 0 0
-0.0133119 0.0831913 0.0364247 255 0 0
-0.0110205 0.0831909 0.0364253 255 0 0
-0.0087280 0.0831908 0.0364269 255 0 0
-0.0064362 0.0831904 0.0364289 255 0 0
-0.0041485 0.0831899 0.0364327 255 0 0
-0.0018559 0.0831885 0.0364426 255 0 0
0.0004072 0.0831791 0.0364571 255 0 0
0.0026899 0.0831659 0.0364870 255 0 0
0.0050050 0.0831629 0.0365157 255 0 0
0.0073235 0.0831506 0.0365880 255 0 0
-0.0865677 0.0854448 0.0365635 255 0 0
-0.0842667 0.0854583 0.0364751 255 0 0
-0.0819587 0.0854632 0.0364447 255 0 0
-0.0796650 0.0854678 0.0364242 255 0 0
-0.0773757 0.0854739 0.0364136 255 0 0
-0.0750872 0.0854756 0.0364075 255 0 0
-0.0727801 0.0854778 0.0364034 255 0 0
-0.0705400 0.0854789 0.0364023 255 0 0
-0.0682615 0.0854805 0.0364012 255 0 0
-0.0659594 0.0854799 0.0363972 255 0 0
-0.0636502 0.0854804 0.0363950 255 0 0
-0.0613607 0.0854815 0.0363954 255 0 0
-0.0590713 0.0854823 0.0363957 255 0 0
-0.0567818 0.0854826 0.0363959 255 0 0
-0.0544844 0.0854826 0.0363962 255 0 0
-0.0521959 0.0854825 0.0363972 255 0 0
-0.0499085 0.0854824 0.0363982 255 0 0
-0.0476205 0.0854819 0.0363990 255 0 0
-0.0453606 0.0854814 0.0364004 255 0 0
-0.0430866 0.0854812 0.0364006 255 0 0
-0.0407829 0.0854810 0.0363973 255 0 0
-0.0384824 0.0854810 0.0363966 255 0 0
-0.0361920 0.0854809 0.0363968 255 0 0
-0.0338934 0.0854798 0.0363971 255 0 0
-0.0316034 0.0854785 0.0363982 255 0 0
-0.0293149 0.0854784 0.0364009 255 0 0
-0.0270175 0.0854779 0.0364025 255 0 0
-0.0247760 0.0854788 0.0364027 255 0 0
-0.0225143 0.0854791 0.0364015 255 0 0
-0.0201980 0.0854777 0.0363991 255 0 0
-0.0178921 0.0854768 0.0363974 255 0 0
-0.0156021 0.0854774 0.0363979 255 0 0
-0.0133119 0.0854778 0.0363984 255 0 0
-0.0110204 0.0854775 0.0363995 255 0 0
-0.0087282 0.0854775 0.0364007 255 0 0
-0.0064363 0.0854774 0.0364038 255 0 0
-0.0041487 0.0854750 0.0364089 255 0 0
-0.0018566 0.0854741 0.0364163 255 0 0
0.0004048 0.0854647 0.0364278 255 0 0
0.0026858 0.0854594 0.0364528 255 0 0
0.0050007 0.0854571 0.0364742 255 0 0
0.0073171 0.0854457 0.0365332 255 0 0
0.0096320 0.0854260 0.0366197 255 0 0
-0.0888770 0.0876993 0.0366456 255 0 0
-0.0865645 0.0877197 0.0365503 255 0 0
-0.0842679 0.0877317 0.0364918 255 0 0
-0.0819554 0.0877361 0.0364685 255 0 0
-0.0796652 0.0877408 0.0364550 255 0 0
-0.0773761 0.0877418 0.0364469 255 0 0
-0.0750866 0.0877437 0.0364423 255 0 0
-0.0727793 0.0877462 0.0364393 255 0 0
-0.0705415 0.0877481 0.0364392 255 0 0
-0.0682643 0.0877490 0.0364386 255 0 0
-0.0659596 0.0877489 0.0364349 255 0 0
-0.0636509 0.0877489 0.0364338 255 0 0
-0.0613613 0.0877497 0.0364343 255 0 0
-0.0590716 0.0877501 0.0364346 255 0 0
-0.0567823 0.0877503 0.0364349 255 0 0
-0.0544842 0.0877506 0.0364352 255 0 0
-0.0521957 0.0877507 0.0364357 255 0 0
-0.0499084 0.0877504 0.0364363 255 0 0
-0.0476205 0.0877500 0.0364369 255 0 0
-0.0453627 0.0877500 0.0364382 255 0 0
-0.0430884 0.0877498 0.0364382 255 0 0
-0.0407837 0.0877497 0.0364362 255 0 0
-0.0384829 0.0877494 0.0364354 255 0 0
-0.0361926 0.0877493 0.0364357 255 0 0
-0.0338932 0.0877489 0.0364360 255 0 0
-0.0316032 0.0877488 0.0364364 255 0 0
-0.0293147 0.0877477 0.0364400 255 0 0
-0.0270170 0.0877470 0.0364415 255 0 0
-0.0247776 0.0877481 0.0364399 255 0 0
-0.0225169 0.0877496 0.0364379 255 0 0
-0.0201989 0.0877474 0.0364368 255 0 0
-0.0178926 0.0877462 0.0364358 255 0 0
-0.0156026 0.0877464 0.0364363 255 0 0
-0.0133121 0.0877463 0.0364368 255 0 0
-0.0110205 0.0877460 0.0364372 255 0 0
-0.0087285 0.0877444 0.0364378 255 0 0
-0.0064363 0.0877438 0.0364392 255 0 0
-0.0041493 0.0877427 0.0364429 255 0 0
-0.0018576 0.0877408 0.0364485 255 0 0
0.0004017 0.0877377 0.0364579 255 0 0
0.0026808 0.0877318 0.0364745 255 0 0
0.0049955 0.0877273 0.0364903 255 0 0
0.0073106 0.0877169 0.0365286 255 0 0
0.0096228 0.0876999 0.0365911 255 0 0
-0.0888773 0.0899716 0.0365897 255 0 0
-0.0865633 0.0899902 0.0365294 255 0 0
-0.0842691 0.0900032 0.0364922 255 0 0
-0.0819546 0.0900134 0.0364772 255 0 0
-0.0796647 0.0900161 0.0364667 255 0 0
-0.0773733 0.0900177 0.0364610 255 0 0
-0.0750852 0.0900184 0.0364585 255 0 0
-0.0727776 0.0900183 0.0364579 255 0 0
-0.0705424 0.0900194 0.0364579 255 0 0
-0.0682675 0.0900199 0.0364578 255 0 0
-0.0659593 0.0900190 0.0364540 255 0 0
-0.0636506 0.0900187 0.0364517 255 0 0
-0.0613620 0.0900192 0.0364524 255 0 0
-0.0590726 0.0900195 0.0364528 255 0 0
-0.0567812 0.0900195 0.0364532 255 0 0
-0.0544841 0.0900197 0.0364541 255 0 0
-0.0521954 0.0900201 0.0364550 255 0 0
-0.0499082 0.0900202 0.0364558 255 0 0
-0.0476203 0.0900203 0.0364570 255 0 0
-0.0453635 0.0900205 0.0364585 255 0 0
-0.0430891 0.0900203 0.0364583 255 0 0
-0.0407855 0.0900195 0.0364550 255 0 0
-0.0384832 0.0900192 0.0364534 255 0 0
-0.0361933 0.0900192 0.0364536 255 0 0
-0.0338928 0.0900193 0.0364538 255 0 0
-0.0316028 0.0900192 0.0364554 255 0 0
-0.0293137 0.0900192 0.0364590 255 0 0
-0.0270167 0.0900188 0.0364606 255 0 0
-0.0247787 0.0900191 0.0364595 255 0 0
-0.0225190 0.0900194 0.0364564 255 0 0
-0.0202008 0.0900179 0.0364544 255 0 0
-0.0178929 0.0900174 0.0364530 255 0 0
-0.0156028 0.0900177 0.0364534 255 0 0
-0.0133123 0.0900178 0.0364536 255 0 0
-0.0110207 0.0900177 0.0364540 255 0 0
-0.0087285 0.0900177 0.0364553 255 0 0
-0.0064362 0.0900172 0.0364564 255 0 0
-0.0041497 0.0900167 0.0364587 255 0 0
-0.0018583 0.0900152 0.0364619 255 0 0
0.0003993 0.0900128 0.0364704 255 0 0
0.0026772 0.0900049 0.0364820 255 0 0
0.0049918 0.0899968 0.0364912 255 0 0
0.0073059 0.0899868 0.0365187 255 0 0
0.0096162 0.0899716 0.0365623 255 0 0
0.0119410 0.0899473 0.0366474 255 0 0
-0.0911775 0.0921889 0.0367257 255 0 0
-0.0888682 0.0922468 0.0365446 255 0 0
-0.0865617 0.0922645 0.0364924 255 0 0
-0.0842695 0.0922765 0.0364570 255 0 0
-0.0819541 0.0922806 0.0364428 255 0 0
-0.0796649 0.0922840 0.0364339 255 0 0
-0.0773751 0.0922859 0.0364290 255 0 0
-0.0750870 0.0922869 0.0364260 255 0 0
-0.0727792 0.0922869 0.0364241 255 0 0
-0.0705425 0.0922873 0.0364241 255 0 0
-0.0682649 0.0922881 0.0364238 255 0 0
-0.0659572 0.0922878 0.0364221 255 0 0
-0.0636508 0.0922882 0.0364215 255 0 0
-0.0613615 0.0922888 0.0364219 255 0 0
-0.0590722 0.0922893 0.0364223 255 0 0
-0.0567823 0.0922896 0.0364226 255 0 0
-0.0544835 0.0922898 0.0364229 255 0 0
-0.0521947 0.0922898 0.0364232 255 0 0
-0.0499076 0.0922899 0.0364237 255 0 0
-0.0476197 0.0922897 0.0364240 255 0 0
-0.0453635 0.0922896 0.0364246 255 0 0
-0.0430894 0.0922894 0.0364246 255 0 0
-0.0407851 0.0922889 0.0364234 255 0 0
-0.0384828 0.0922887 0.0364231 255 0 0
-0.0361932 0.0922885 0.0364231 255 0 0
-0.0338924 0.0922882 0.0364234 255 0 0
-0.0316030 0.0922876 0.0364238 255 0 0
-0.0293140 0.0922869 0.0364249 255 0 0
-0.0270174 0.0922855 0.0364261 255 0 0
-0.0247779 0.0922871 0.0364251 255 0 0
-0.0225183 0.0922880 0.0364241 255 0 0
-0.0201998 0.0922867 0.0364232 255 0 0
-0.0178926 0.0922857 0.0364227 255 0 0
-0.0156029 0.0922857 0.0364229 255 0 0
-0.0133123 0.0922857 0.0364231 255 0 0
-0.0110205 0.0922853 0.0364232 255 0 0
-0.0087284 0.0922847 0.0364236 255 0 0
-0.0064365 0.0922839 0.0364244 255 0 0
-0.0041499 0.0922818 0.0364261 255 0 0
-0.0018588 0.0922798 0.0364290 255 0 0
0.0003984 0.0922762 0.0364356 255 0 0
0.0026759 0.0922718 0.0364466 255 0 0
0.0049895 0.0922676 0.0364546 255 0 0
0.0073027 0.0922551 0.0364800 255 0 0
0.0096121 0.0922427 0.0365210 255 0 0
0.0119364 0.0922154 0.0366052 255 0 0
-0.0911774 0.0944630 0.0366696 255 0 0
-0.0888634 0.0945157 0.0365112 255 0 0
-0.0865590 0.0945340 0.0364654 255 0 0
-0.0842495 0.0945464 0.0364312 255 0 0
-0.0819542 0.0945518 0.0364175 255 0 0
-0.0796646 0.0945566 0.0364089 255 0 0
-0.0773753 0.0945587 0.0364047 255 0 0
-0.0750859 0.0945595 0.0364020 255 0 0
-0.0727804 0.0945598 0.0364007 255 0 0
-0.0705426 0.0945600 0.0364005 255 0 0
-0.0682645 0.0945603 0.0364001 255 0 0
-0.0659557 0.0945599 0.0363991 255 0 0
-0.0636503 0.0945598 0.0363985 255 0 0
-0.0613610 0.0945604 0.0363988 255 0 0
-0.0590725 0.0945609 0.0363992 255 0 0
-0.0567835 0.0945611 0.0363994 255 0 0
-0.0544831 0.0945612 0.0363997 255 0 0
-0.0521947 0.0945610 0.0364000 255 0 0
-0.0499072 0.0945608 0.0364005 255 0 0
-0.0476194 0.0945606 0.0364009 255 0 0
-0.0453635 0.0945605 0.0364012 255 0 0
-0.0430896 0.0945603 0.0364012 255 0 0
-0.0407847 0.0945597 0.0364003 255 0 0
-0.0384828 0.0945592 0.0363997 255 0 0
-0.0361939 0.0945592 0.0363998 255 0 0
-0.0338924 0.0945591 0.0364000 255 0 0
-0.0316029 0.0945587 0.0364005 255 0 0
-0.0293138 0.0945585 0.0364014 255 0 0
-0.0270179 0.0945577 0.0364023 255 0 0
-0.0247780 0.0945580 0.0364016 255 0 0
-0.0225181 0.0945579 0.0364007 255 0 0
-0.0202000 0.0945566 0.0363998 255 0 0
-0.0178925 0.0945558 0.0363993 255 0 0
-0.0156029 0.0945559 0.0363995 255 0 0
-0.0133123 0.0945557 0.0363996 255 0 0
-0.0110205 0.0945551 0.0363997 255 0 0
-0.0087286 0.0945548 0.0363999 255 0 0
-0.0064366 0.0945542 0.0364006 255 0 0
-0.0041501 0.0945531 0.0364023 255 0 0
-0.0018591 0.0945515 0.0364052 255 0 0
0.0003979 0.0945467 0.0364101 255 0 0
0.0026752 0.0945400 0.0364217 255 0 0
0.0049885 0.0945348 0.0364288 255 0 0
0.0073015 0.0945225 0.0364556 255 0 0
0.0096115 0.0945062 0.0364963 255 0 0
0.0119362 0.0944755 0.0365804 255 0 0
-0.0911782 0.0967137 0.0366480 255 0 0
-0.0888655 0.0967801 0.0364932 255 0 0
-0.0865597 0.0968010 0.0364500 255 0 0
-0.0842530 0.0968134 0.0364177 255 0 0
-0.0819540 0.0968189 0.0364054 255 0 0
-0.0796645 0.0968215 0.0363972 255 0 0
-0.0773756 0.0968229 0.0363928 255 0 0
-0.0750875 0.0968244 0.0363905 255 0 0
-0.0727803 0.0968255 0.0363886 255 0 0
-0.0705433 0.0968270 0.0363888 255 0 0
-0.0682660 0.0968273 0.0363886 255 0 0
-0.0659563 0.0968278 0.0363862 255 0 0
-0.0636505 0.0968289 0.0363854 255 0 0
-0.0613614 0.0968296 0.0363858 255 0 0
-0.0590728 0.0968300 0.0363860 255 0 0
-0.0567819 0.0968306 0.0363863 255 0 0
-0.0544829 0.0968305 0.0363865 255 0 0
-0.0521944 0.0968303 0.0363868 255 0 0
-0.0499071 0.0968299 0.0363875 255 0 0
-0.0476192 0.0968296 0.0363878 255 0 0
-0.0453640 0.0968291 0.0363888 255 0 0
-0.0430903 0.0968289 0.0363888 255 0 0
-0.0407852 0.0968295 0.0363872 255 0 0
-0.0384830 0.0968297 0.0363869 255 0 0
-0.0361940 0.0968295 0.0363870 255 0 0
-0.0338918 0.0968289 0.0363871 255 0 0
-0.0316028 0.0968282 0.0363875 255 0 0
-0.0293136 0.0968266 0.0363885 255 0 0
-0.0270176 0.0968247 0.0363906 255 0 0
-0.0247784 0.0968266 0.0363896 255 0 0
-0.0225192 0.0968273 0.0363889 255 0 0
-0.0202001 0.0968280 0.0363873 255 0 0
-0.0178927 0.0968284 0.0363870 255 0 0
-0.0156030 0.0968280 0.0363871 255 0 0
-0.0133126 0.0968273 0.0363873 255 0 0
-0.0110208 0.0968267 0.0363874 255 0 0
-0.0087285 0.0968254 0.0363877 255 0 0
-0.0064366 0.0968237 0.0363884 255 0 0
-0.0041502 0.0968210 0.0363905 255 0 0
-0.0018590 0.0968167 0.0363943 255 0 0
0.0003975 0.0968115 0.0364008 255 0 0
0.0026749 0.0968060 0.0364125 255 0 0
0.0049888 0.0967993 0.0364207 255 0 0
0.0073033 0.0967873 0.0364502 255 0 0
0.0096144 0.0967658 0.0364963 255 0 0
0.0119437 0.0967299 0.0365856 255 0 0
-0.0911818 0.0989718 0.0366338 255 0 0
-0.0888684 0.0990489 0.0364800 255 0 0
-0.0865603 0.0990714 0.0364357 255 0 0
-0.0842569 0.0990854 0.0364062 255 0 0
-0.0819542 0.0990931 0.0363939 255 0 0
-0.0796650 0.0990998 0.0363865 255 0 0
-0.0773757 0.0991048 0.0363827 255 0 0
-0.0750870 0.0991062 0.0363804 255 0 0
-0.0727806 0.0991066 0.0363792 255 0 0
-0.0705444 0.0991065 0.0363786 255 0 0
-0.0682666 0.0991064 0.0363783 255 0 0
-0.0659561 0.0991066 0.0363776 255 0 0
-0.0636504 0.0991066 0.0363768 255 0 0
-0.0613612 0.0991071 0.0363770 255 0 0
-0.0590728 0.0991072 0.0363772 255 0 0
-0.0567827 0.0991073 0.0363775 255 0 0
-0.0544825 0.0991074 0.0363778 255 0 0
-0.0521941 0.0991073 0.0363782 255 0 0
-0.0499066 0.0991072 0.0363787 255 0 0
-0.0476188 0.0991069 0.0363791 255 0 0
-0.0453639 0.0991068 0.0363794 255 0 0
-0.0430906 0.0991068 0.0363794 255 0 0
-0.0407855 0.0991067 0.0363786 255 0 0
-0.0384830 0.0991065 0.0363779 255 0 0
-0.0361943 0.0991061 0.0363780 255 0 0
-0.0338917 0.0991058 0.0363781 255 0 0
-0.0316029 0.0991054 0.0363787 255 0 0
-0.0293135 0.0991052 0.0363797 255 0 0
-0.0270177 0.0991046 0.0363807 255 0 0
-0.0247787 0.0991045 0.0363799 255 0 0
-0.0225193 0.0991051 0.0363791 255 0 0
-0.0202006 0.0991044 0.0363785 255 0 0
-0.0178928 0.0991036 0.0363779 255 0 0
-0.0156030 0.0991035 0.0363780 255 0 0
-0.0133127 0.0991031 0.0363783 255 0 0
-0.0110207 0.0991029 0.0363785 255 0 0
-0.0087286 0.0991024 0.0363789 255 0 0
-0.0064367 0.0991018 0.0363799 255 0 0
-0.0041503 0.0991008 0.0363818 255 0 0
-0.0018590 0.0990986 0.0363853 255 0 0
0.0003977 0.0990949 0.0363910 255 0 0
0.0026756 0.0990873 0.0364029 255 0 0
0.0049900 0.0990813 0.0364130 255 0 0
0.0073054 0.0990640 0.0364454 255 0 0
0.0096182 0.0990364 0.0364972 255 0 0
-0.0911841 0.1012403 0.0366203 255 0 0
-0.0888697 0.1013199 0.0364690 255 0 0
-0.0865618 0.1013440 0.0364252 255 0 0
-0.0842673 0.1013569 0.0363982 255 0 0
-0.0819538 0.1013654 0.0363855 255 0 0
-0.0796645 0.1013732 0.0363770 255 0 0
-0.0773757 0.1013801 0.0363717 255 0 0
-0.0750875 0.1013842 0.0363693 255 0 0
-0.0727823 0.1013844 0.0363679 255 0 0
-0.0705441 0.1013845 0.0363689 255 0 0
-0.0682646 0.1013844 0.0363685 255 0 0
-0.0659542 0.1013845 0.0363642 255 0 0
-0.0636504 0.1013847 0.0363623 255 0 0
-0.0613613 0.1013852 0.0363625 255 0 0
-0.0590732 0.1013856 0.0363627 255 0 0
-0.0567846 0.1013856 0.0363629 255 0 0
-0.0544823 0.1013857 0.0363633 255 0 0
-0.0521937 0.1013857 0.0363638 255 0 0
-0.0499064 0.1013856 0.0363650 255 0 0
-0.0476185 0.1013854 0.0363660 255 0 0
-0.0453645 0.1013851 0.0363670 255 0 0
-0.0430889 0.1013847 0.0363668 255 0 0
-0.0407859 0.1013846 0.0363639 255 0 0
-0.0384829 0.1013847 0.0363631 255 0 0
-0.0361946 0.1013845 0.0363630 255 0 0
-0.0338913 0.1013843 0.0363634 255 0 0
-0.0316024 0.1013841 0.0363643 255 0 0
-0.0293139 0.1013838 0.0363678 255 0 0
-0.0270178 0.1013833 0.0363705 255 0 0
-0.0247784 0.1013832 0.0363670 255 0 0
-0.0225180 0.1013832 0.0363633 255 0 0
-0.0202000 0.1013827 0.0363632 255 0 0
-0.0178929 0.1013824 0.0363631 255 0 0
-0.0156031 0.1013822 0.0363626 255 0 0
-0.0133128 0.1013820 0.0363627 255 0 0
-0.0110208 0.1013816 0.0363634 255 0 0
-0.0087285 0.1013811 0.0363637 255 0 0
-0.0064369 0.1013805 0.0363650 255 0 0
-0.0041504 0.1013797 0.0363677 255 0 0
-0.0018590 0.1013780 0.0363727 255 0 0
0.0003987 0.1013729 0.0363818 255 0 0
0.0026770 0.1013625 0.0363956 255 0 0
0.0049915 0.1013547 0.0364071 255 0 0
0.0073078 0.1013341 0.0364425 255 0 0
0.0096226 0.1013026 0.0364990 255 0 0
-0.0911937 0.1035053 0.0366342 255 0 0
-0.0888779 0.1035941 0.0364642 255 0 0
-0.0865642 0.1036248 0.0364205 255 0 0
-0.0842711 0.1036507 0.0363930 255 0 0
-0.0819544 0.1036576 0.0363768 255 0 0
-0.0796650 0.1036621 0.0363667 255 0 0
-0.0773762 0.1036648 0.0363609 255 0 0
-0.0750877 0.1036656 0.0363581 255 0 0
-0.0727827 0.1036668 0.0363563 255 0 0
-0.0705424 0.1036669 0.0363574 255 0 0
-0.0682646 0.1036672 0.0363572 255 0 0
-0.0659536 0.1036672 0.0363537 255 0 0
-0.0636505 0.1036680 0.0363536 255 0 0
-0.0613611 0.1036683 0.0363537 255 0 0
-0.0590730 0.1036685 0.0363539 255 0 0
-0.0567848 0.1036689 0.0363540 255 0 0
-0.0544818 0.1036694 0.0363541 255 0 0
-0.0521935 0.1036694 0.0363542 255 0 0
-0.0499060 0.1036694 0.0363544 255 0 0
-0.0476181 0.1036693 0.0363552 255 0 0
-0.0453644 0.1036692 0.0363552 255 0 0
-0.0430882 0.1036692 0.0363551 255 0 0
-0.0407860 0.1036693 0.0363541 255 0 0
-0.0384830 0.1036692 0.0363540 255 0 0
-0.0361947 0.1036690 0.0363539 255 0 0
-0.0338911 0.1036690 0.0363539 255 0 0
-0.0316023 0.1036688 0.0363541 255 0 0
-0.0293141 0.1036683 0.0363552 255 0 0
-0.0270180 0.1036675 0.0363601 255 0 0
-0.0247783 0.1036688 0.0363549 255 0 0
-0.0225176 0.1036685 0.0363536 255 0 0
-0.0202001 0.1036682 0.0363535 255 0 0
-0.0178929 0.1036678 0.0363536 255 0 0
-0.0156028 0.1036675 0.0363536 255 0 0
-0.0133128 0.1036672 0.0363536 255 0 0
-0.0110207 0.1036669 0.0363537 255 0 0
-0.0087284 0.1036666 0.0363540 255 0 0
-0.0064372 0.1036660 0.0363549 255 0 0
-0.0041504 0.1036647 0.0363566 255 0 0
-0.0018588 0.1036616 0.0363610 255 0 0
0.0003996 0.1036558 0.0363692 255 0 0
0.0026788 0.1036458 0.0363867 255 0 0
0.0049939 0.1036371 0.0363973 255 0 0
0.0073112 0.1036123 0.0364401 255 0 0
0.0096276 0.1035769 0.0365000 255 0 0
-0.0888916 0.1058770 0.0364760 255 0 0
-0.0865677 0.1059134 0.0364223 255 0 0
-0.0842744 0.1059354 0.0363864 255 0 0
-0.0819543 0.1059453 0.0363706 255 0 0
-0.0796646 0.1059507 0.0363611 255 0 0
-0.0773758 0.1059538 0.0363561 255 0 0
-0.0750877 0.1059555 0.0363528 255 0 0
-0.0727834 0.1059564 0.0363500 255 0 0
-0.0705401 0.1059567 0.0363495 255 0 0
-0.0682628 0.1059573 0.0363486 255 0 0
-0.0659518 0.1059574 0.0363462 255 0 0
-0.0636503 0.1059576 0.0363457 255 0 0
-0.0613611 0.1059579 0.0363456 255 0 0
-0.0590730 0.1059583 0.0363457 255 0 0
-0.0567850 0.1059586 0.0363457 255 0 0
-0.0544816 0.1059589 0.0363458 255 0 0
-0.0521931 0.1059590 0.0363459 255 0 0
-0.0499057 0.1059591 0.0363460 255 0 0
-0.0476179 0.1059592 0.0363462 255 0 0
-0.0453645 0.1059593 0.0363459 255 0 0
-0.0430871 0.1059592 0.0363456 255 0 0
-0.0407854 0.1059591 0.0363449 255 0 0
-0.0384829 0.1059589 0.0363445 255 0 0
-0.0361948 0.1059587 0.0363444 255 0 0
-0.0338907 0.1059586 0.0363443 255 0 0
-0.0316020 0.1059583 0.0363446 255 0 0
-0.0293148 0.1059580 0.0363452 255 0 0
-0.0270180 0.1059578 0.0363475 255 0 0
-0.0247778 0.1059583 0.0363446 255 0 0
-0.0225169 0.1059595 0.0363433 255 0 0
-0.0201993 0.1059583 0.0363433 255 0 0
-0.0178928 0.1059579 0.0363430 255 0 0
-0.0156020 0.1059578 0.0363431 255 0 0
-0.0133127 0.1059575 0.0363432 255 0 0
-0.0110206 0.1059573 0.0363433 255 0 0
-0.0087284 0.1059570 0.0363438 255 0 0
-0.0064374 0.1059562 0.0363448 255 0 0
-0.0041504 0.1059546 0.0363469 255 0 0
-0.0018585 0.1059516 0.0363515 255 0 0
0.0004009 0.1059461 0.0363614 255 0 0
0.0026811 0.1059350 0.0363787 255 0 0
0.0049969 0.1059251 0.0363927 255 0 0
0.0073154 0.1058980 0.0364361 255 0 0
0.0096338 0.1058604 0.0365013 255 0 0
-0.0889094 0.1081577 0.0364870 255 0 0
-0.0865732 0.1082119 0.0364323 255 0 0
-0.0842749 0.1082218 0.0363790 255 0 0
-0.0819547 0.1082318 0.0363624 255 0 0
-0.0796651 0.1082397 0.0363512 255 0 0
-0.0773762 0.1082438 0.0363444 255 0 0
-0.0750879 0.1082457 0.0363404 255 0 0
-0.0727852 0.1082467 0.0363377 255 0 0
-0.0705362 0.1082471 0.0363358 255 0 0
-0.0682607 0.1082477 0.0363346 255 0 0
-0.0659488 0.1082481 0.0363342 255 0 0
-0.0636504 0.1082486 0.0363334 255 0 0
-0.0613609 0.1082492 0.0363332 255 0 0
-0.0590729 0.1082496 0.0363329 255 0 0
-0.0567848 0.1082499 0.0363328 255 0 0
-0.0544811 0.1082514 0.0363325 255 0 0
-0.0521928 0.1082514 0.0363324 255 0 0
-0.0499053 0.1082515 0.0363324 255 0 0
-0.0476199 0.1082516 0.0363322 255 0 0
-0.0453640 0.1082520 0.0363317 255 0 0
-0.0430850 0.1082523 0.0363308 255 0 0
-0.0407804 0.1082524 0.0363299 255 0 0
-0.0384828 0.1082524 0.0363296 255 0 0
-0.0361946 0.1082524 0.0363287 255 0 0
-0.0338905 0.1082522 0.0363285 255 0 0
-0.0316017 0.1082520 0.0363289 255 0 0
-0.0293160 0.1082518 0.0363291 255 0 0
-0.0270189 0.1082515 0.0363296 255 0 0
-0.0247766 0.1082526 0.0363282 255 0 0
-0.0225140 0.1082532 0.0363271 255 0 0
-0.0201986 0.1082529 0.0363265 255 0 0
-0.0178926 0.1082525 0.0363264 255 0 0
-0.0156024 0.1082526 0.0363254 255 0 0
-0.0133126 0.1082524 0.0363254 255 0 0
-0.0110204 0.1082523 0.0363262 255 0 0
-0.0087293 0.1082521 0.0363267 255 0 0
-0.0064379 0.1082514 0.0363276 255 0 0
-0.0041508 0.1082496 0.0363305 255 0 0
-0.0018585 0.1082457 0.0363356 255 0 0
0.0004030 0.1082383 0.0363476 255 0 0
0.0026848 0.1082263 0.0363675 255 0 0
0.0050001 0.1082156 0.0363838 255 0 0
0.0073195 0.1081875 0.0364296 255 0 0
0.0096392 0.1081551 0.0365013 255 0 0
-0.0888928 0.1101891 0.0366907 255 0 0
-0.0865993 0.1104203 0.0364417 255 0 0
-0.0842772 0.1105295 0.0363712 255 0 0
-0.0819554 0.1105250 0.0363511 255 0 0
-0.0796650 0.1105316 0.0363379 255 0 0
-0.0773759 0.1105367 0.0363283 255 0 0
-0.0750875 0.1105389 0.0363226 255 0 0
-0.0727879 0.1105407 0.0363190 255 0 0
-0.0705291 0.1105421 0.0363171 255 0 0
-0.0682598 0.1105429 0.0363144 255 0 0
-0.0659426 0.1105438 0.0363103 255 0 0
-0.0636499 0.1105444 0.0363085 255 0 0
-0.0613608 0.1105452 0.0363078 255 0 0
-0.0590727 0.1105464 0.0363073 255 0 0
-0.0567847 0.1105474 0.0363069 255 0 0
-0.0544844 0.1105480 0.0363065 255 0 0
-0.0521924 0.1105484 0.0363062 255 0 0
-0.0499087 0.1105486 0.0363059 255 0 0
-0.0476231 0.1105487 0.0363055 255 0 0
-0.0453630 0.1105490 0.0363043 255 0 0
-0.0430811 0.1105494 0.0363027 255 0 0
-0.0407746 0.1105495 0.0362997 255 0 0
-0.0384825 0.1105495 0.0362987 255 0 0
-0.0361945 0.1105496 0.0362976 255 0 0
-0.0338913 0.1105496 0.0362972 255 0 0
-0.0316015 0.1105498 0.0362977 255 0 0
-0.0293167 0.1105499 0.0362984 255 0 0
-0.0270209 0.1105499 0.0363023 255 0 0
-0.0247750 0.1105506 0.0362958 255 0 0
-0.0225098 0.1105508 0.0362944 255 0 0
-0.0201965 0.1105507 0.0362942 255 0 0
-0.0178924 0.1105507 0.0362940 255 0 0
-0.0156025 0.1105504 0.0362935 255 0 0
-0.0133124 0.1105503 0.0362933 255 0 0
-0.0110209 0.1105501 0.0362934 255 0 0
-0.0087304 0.1105499 0.0362939 255 0 0
-0.0064388 0.1105492 0.0362950 255 0 0
-0.0041511 0.1105475 0.0362984 255 0 0
-0.0018588 0.1105453 0.0363043 255 0 0
0.0004070 0.1105322 0.0363229 255 0 0
0.0026915 0.1105188 0.0363474 255 0 0
0.0050074 0.1105112 0.0363606 255 0 0
0.0073256 0.1104919 0.0364062 255 0 0
-0.0866425 0.1130009 0.0364642 255 0 0
-0.0842740 0.1127893 0.0364292 255 0 0
-0.0819475 0.1128111 0.0363812 255 0 0
-0.0796632 0.1128163 0.0363508 255 0 0
-0.0773752 0.1128217 0.0363369 255 0 0
-0.0750877 0.1128241 0.0363298 255 0 0
-0.0727890 0.1128263 0.0363238 255 0 0
-0.0705275 0.1128286 0.0363184 255 0 0
-0.0682609 0.1128306 0.0363137 255 0 0
-0.0659409 0.1128311 0.0363104 255 0 0
-0.0636497 0.1128318 0.0363074 255 0 0
-0.0613605 0.1128326 0.0363058 255 0 0
-0.0590725 0.1128330 0.0363044 255 0 0
-0.0567844 0.1128338 0.0363030 255 0 0
-0.0544840 0.1128344 0.0363016 255 0 0
-0.0521920 0.1128351 0.0363006 255 0 0
-0.0499077 0.1128356 0.0362991 255 0 0
-0.0476222 0.1128361 0.0362982 255 0 0
-0.0453632 0.1128368 0.0362959 255 0 0
-0.0430782 0.1128373 0.0362946 255 0 0
-0.0407718 0.1128375 0.0362936 255 0 0
-0.0384822 0.1128377 0.0362924 255 0 0
-0.0361942 0.1128381 0.0362911 255 0 0
-0.0338911 0.1128385 0.0362898 255 0 0
-0.0316010 0.1128388 0.0362889 255 0 0
-0.0293169 0.1128390 0.0362881 255 0 0
-0.0270209 0.1128391 0.0362884 255 0 0
-0.0247732 0.1128398 0.0362857 255 0 0
-0.0225070 0.1128403 0.0362843 255 0 0
-0.0201942 0.1128405 0.0362835 255 0 0
-0.0178922 0.1128405 0.0362830 255 0 0
-0.0156004 0.1128404 0.0362823 255 0 0
-0.0133121 0.1128405 0.0362818 255 0 0
-0.0110218 0.1128405 0.0362815 255 0 0
-0.0087310 0.1128401 0.0362818 255 0 0
-0.0064399 0.1128393 0.0362832 255 0 0
-0.0041519 0.1128367 0.0362872 255 0 0
-0.0018586 0.1128307 0.0362947 255 0 0
0.0004052 0.1128172 0.0363224 255 0 0
0.0026895 0.1128005 0.0363581 255 0 0
0.0050075 0.1127933 0.0363837 255 0 0
0.0073296 0.1127726 0.0364395 255 0 0
-0.0842683 0.1151031 0.0364802 255 0 0
-0.0819523 0.1150845 0.0364000 255 0 0
-0.0796616 0.1151052 0.0363560 255 0 0
-0.0773744 0.1151102 0.0363337 255 0 0
-0.0750874 0.1151142 0.0363214 255 0 0
-0.0727911 0.1151172 0.0363113 255 0 0
-0.0705182 0.1151222 0.0363030 255 0 0
-0.0682609 0.1151240 0.0362945 255 0 0
-0.0659393 0.1151245 0.0362923 255 0 0
-0.0636492 0.1151251 0.0362912 255 0 0
-0.0613608 0.1151263 0.0362896 255 0 0
-0.0590728 0.1151276 0.0362881 255 0 0
-0.0567848 0.1151285 0.0362862 255 0 0
-0.0544869 0.1151292 0.0362845 255 0 0
-0.0521918 0.1151301 0.0362829 255 0 0
-0.0499101 0.1151307 0.0362813 255 0 0
-0.0476239 0.1151315 0.0362798 255 0 0
-0.0453637 0.1151325 0.0362775 255 0 0
-0.0430773 0.1151333 0.0362758 255 0 0
-0.0407710 0.1151336 0.0362749 255 0 0
-0.0384822 0.1151338 0.0362740 255 0 0
-0.0361943 0.1151340 0.0362728 255 0 0
-0.0338944 0.1151341 0.0362717 255 0 0
-0.0316008 0.1151344 0.0362705 255 0 0
-0.0293177 0.1151349 0.0362694 255 0 0
-0.0270216 0.1151350 0.0362686 255 0 0
-0.0247708 0.1151367 0.0362657 255 0 0
-0.0225016 0.1151386 0.0362637 255 0 0
-0.0201904 0.1151383 0.0362632 255 0 0
-0.0178919 0.1151378 0.0362626 255 0 0
-0.0156001 0.1151378 0.0362616 255 0 0
-0.0133118 0.1151372 0.0362609 255 0 0
-0.0110227 0.1151370 0.0362604 255 0 0
-0.0087313 0.1151365 0.0362606 255 0 0
-0.0064408 0.1151351 0.0362614 255 0 0
-0.0041523 0.1151313 0.0362643 255 0 0
-0.0018571 0.1151260 0.0362781 255 0 0
0.0004048 0.1151073 0.0363124 255 0 0
0.0026887 0.1150882 0.0363610 255 0 0
0.0050114 0.1150905 0.0363897 255 0 0
-0.0842764 0.1174028 0.0364481 255 0 0
-0.0819809 0.1174049 0.0363776 255 0 0
-0.0796625 0.1174030 0.0363341 255 0 0
-0.0773746 0.1174115 0.0363027 255 0 0
-0.0750870 0.1174174 0.0362841 255 0 0
-0.0727988 0.1174218 0.0362736 255 0 0
-0.0705151 0.1174262 0.0362649 255 0 0
-0.0682609 0.1174292 0.0362580 255 0 0
-0.0659381 0.1174298 0.0362569 255 0 0
-0.0636484 0.1174307 0.0362554 255 0 0
-0.0613602 0.1174320 0.0362532 255 0 0
-0.0590723 0.1174330 0.0362513 255 0 0
-0.0567842 0.1174341 0.0362496 255 0 0
-0.0544963 0.1174352 0.0362476 255 0 0
-0.0521985 0.1174361 0.0362458 255 0 0
-0.0499206 0.1174371 0.0362439 255 0 0
-0.0476327 0.1174378 0.0362417 255 0 0
-0.0453534 0.1174388 0.0362390 255 0 0
-0.0430756 0.1174397 0.0362371 255 0 0
-0.0407704 0.1174401 0.0362361 255 0 0
-0.0384816 0.1174406 0.0362349 255 0 0
-0.0361937 0.1174411 0.0362336 255 0 0
-0.0339058 0.1174416 0.0362323 255 0 0
-0.0316005 0.1174421 0.0362311 255 0 0
-0.0293210 0.1174426 0.0362298 255 0 0
-0.0270240 0.1174428 0.0362289 255 0 0
-0.0247654 0.1174437 0.0362261 255 0 0
-0.0224972 0.1174445 0.0362208 255 0 0
-0.0201889 0.1174446 0.0362210 255 0 0
-0.0178914 0.1174446 0.0362211 255 0 0
-0.0156028 0.1174447 0.0362206 255 0 0
-0.0133114 0.1174448 0.0362215 255 0 0
-0.0110234 0.1174448 0.0362213 255 0 0
-0.0087315 0.1174444 0.0362212 255 0 0
-0.0064421 0.1174436 0.0362224 255 0 0
-0.0041536 0.1174402 0.0362259 255 0 0
-0.0018589 0.1174375 0.0362324 255 0 0
0.0004137 0.1174024 0.0363046 255 0 0
0.0027039 0.1173808 0.0363603 255 0 0
-0.0819707 0.1197066 0.0363765 255 0 0
-0.0796628 0.1197077 0.0363102 255 0 0
-0.0773749 0.1197102 0.0362753 255 0 0
-0.0750868 0.1197188 0.0362573 255 0 0
-0.0727985 0.1197240 0.0362448 255 0 0
-0.0705136 0.1197315 0.0362330 255 0 0
-0.0682609 0.1197357 0.0362252 255 0 0
-0.0659368 0.1197364 0.0362241 255 0 0
-0.0636476 0.1197371 0.0362223 255 0 0
-0.0613598 0.1197387 0.0362196 255 0 0
-0.0590719 0.1197404 0.0362172 255 0 0
-0.0567839 0.1197414 0.0362144 255 0 0
-0.0544960 0.1197424 0.0362113 255 0 0
-0.0522081 0.1197433 0.0362088 255 0 0
-0.0499204 0.1197443 0.0362063 255 0 0
-0.0476325 0.1197451 0.0362036 255 0 0
-0.0453467 0.1197462 0.0361998 255 0 0
-0.0430756 0.1197471 0.0361966 255 0 0
-0.0407698 0.1197474 0.0361942 255 0 0
-0.0384815 0.1197480 0.0361918 255 0 0
-0.0361936 0.1197485 0.0361893 255 0 0
-0.0339055 0.1197490 0.0361870 255 0 0
-0.0316103 0.1197495 0.0361856 255 0 0
-0.0293208 0.1197501 0.0361834 255 0 0
-0.0270280 0.1197504 0.0361829 255 0 0
-0.0247642 0.1197513 0.0361794 255 0 0
-0.0224894 0.1197521 0.0361777 255 0 0
-0.0201885 0.1197520 0.0361774 255 0 0
-0.0178910 0.1197521 0.0361769 255 0 0
-0.0156033 0.1197521 0.0361764 255 0 0
-0.0133111 0.1197520 0.0361765 255 0 0
-0.0110231 0.1197518 0.0361786 255 0 0
-0.0087338 0.1197513 0.0361814 255 0 0
-0.0064425 0.1197503 0.0361873 255 0 0
-0.0041530 0.1197459 0.0361875 255 0 0
-0.0018565 0.1197568 0.0361109 255 0 0
0.0004212 0.1196957 0.0364394 255 0 0
-0.0796630 0.1220124 0.0362941 255 0 0
-0.0773748 0.1220285 0.0362581 255 0 0
-0.0750867 0.1220169 0.0362352 255 0 0
-0.0727984 0.1220244 0.0362142 255 0 0
-0.0705125 0.1220317 0.0361914 255 0 0
-0.0682438 0.1220374 0.0361808 255 0 0
-0.0659358 0.1220382 0.0361795 255 0 0
-0.0636466 0.1220410 0.0361776 255 0 0
-0.0613594 0.1220434 0.0361747 255 0 0
-0.0590715 0.1220446 0.0361722 255 0 0
-0.0567835 0.1220455 0.0361701 255 0 0
-0.0544956 0.1220464 0.0361683 255 0 0
-0.0522077 0.1220472 0.0361666 255 0 0
-0.0499199 0.1220483 0.0361647 255 0 0
-0.0476321 0.1220489 0.0361629 255 0 0
-0.0453455 0.1220498 0.0361597 255 0 0
-0.0430746 0.1220505 0.0361576 255 0 0
-0.0407693 0.1220508 0.0361568 255 0 0
-0.0384810 0.1220512 0.0361558 255 0 0
-0.0361932 0.1220518 0.0361546 255 0 0
-0.0339053 0.1220523 0.0361535 255 0 0
-0.0316173 0.1220529 0.0361524 255 0 0
-0.0293205 0.1220535 0.0361513 255 0 0
-0.0270322 0.1220537 0.0361505 255 0 0
-0.0247637 0.1220543 0.0361484 255 0 0
-0.0224855 0.1220549 0.0361469 255 0 0
-0.0201879 0.1220547 0.0361465 255 0 0
-0.0178907 0.1220545 0.0361464 255 0 0
-0.0156030 0.1220545 0.0361463 255 0 0
-0.0133116 0.1220543 0.0361463 255 0 0
-0.0110230 0.1220519 0.0361463 255 0 0
-0.0087346 0.1220506 0.0361471 255 0 0
-0.0064428 0.1220497 0.0361512 255 0 0
-0.0041497 0.1220488 0.0361488 255 0 0
-0.0018412 0.1220749 0.0360411 255 0 0
0.0004146 0.1220024 0.0364146 255 0 0
-0.0773747 0.1243193 0.0362504 255 0 0
-0.0750868 0.1243345 0.0362114 255 0 0
