ply
format ascii 1.0
element vertex 1199
property float x
property float y
property float z
property uchar red
property uchar green
property uchar blue
end_header
-0.0819478 0.0763732 -0.0280394 255 0 0
-0.0796601 0.0763732 -0.0280394 255 0 0
-0.0773723 0.0763732 -0.0280394 255 0 0
-0.0750845 0.0763732 -0.0280394 255 0 0
-0.0727967 0.0763732 -0.0280394 255 0 0
-0.0705089 0.0763732 -0.0280394 255 0 0
-0.0682212 0.0763732 -0.0280394 255 0 0
-0.0659334 0.0763732 -0.0280394 255 0 0
-0.0636456 0.0763732 -0.0280394 255 0 0
-0.0613578 0.0763732 -0.0280394 255 0 0
-0.0590700 0.0763732 -0.0280394 255 0 0
-0.0567822 0.0763732 -0.0280394 255 0 0
-0.0544945 0.0763732 -0.0280394 255 0 0
-0.0522067 0.0763732 -0.0280394 255 0 0
-0.0499189 0.0763732 -0.0280394 255 0 0
-0.0476311 0.0763732 -0.0280394 255 0 0
-0.0453433 0.0763732 -0.0280394 255 0 0
-0.0430556 0.0763732 -0.0280394 255 0 0
-0.0407678 0.0763732 -0.0280394 255 0 0
-0.0384800 0.0763732 -0.0280394 255 0 0
-0.0361922 0.0763732 -0.0280394 255 0 0
-0.0339044 0.0763732 -0.0280394 255 0 0
-0.0316167 0.0763732 -0.0280394 255 0 0
-0.0293289 0.0763732 -0.0280394 255 0 0
-0.0270411 0.0763732 -0.0280394 255 0 0
-0.0247533 0.0763732 -0.0280394 255 0 0
-0.0224655 0.0763732 -0.0280394 255 0 0
-0.0201778 0.0763732 -0.0280394 255 0 0
-0.0178900 0.0763732 -0.0280394 255 0 0
-0.0156022 0.0763732 -0.0280394 255 0 0
-0.0133144 0.0763731 -0.0280394 255 0 0
-0.0110266 0.0763731 -0.0280394 255 0 0
-0.0087389 0.0763730 -0.0280394 255 0 0
-0.0064511 0.0763730 -0.0280394 255 0 0
-0.0041633 0.0763730 -0.0280394 255 0 0
-0.0018755 0.0763728 -0.0280394 255 0 0
0.0004123 0.0763737 -0.0280394 255 0 0
0.0027001 0.0763741 -0.0280394 255 0 0
0.0049879 0.0763737 -0.0280394 255 0 0
0.0072756 0.0763735 -0.0280394 255 0 0
-0.0910990 0.0786610 -0.0280394 255 0 0
-0.0888112 0.0786610 -0.0280394 255 0 0
-0.0865234 0.0786610 -0.0280394 255 0 0
-0.0842356 0.0786610 -0.0280394 255 0 0
-0.0819478 0.0786610 -0.0280394 255 0 0
-0.0796601 0.0786610 -0.0280394 255 0 0
-0.0773723 0.0786610 -0.0280394 255 0 0
-0.0750845 0.0786610 -0.0280394 255 0 0
-0.0727967 0.0786610 -0.0280394 255 0 0
-0.0705089 0.0786610 -0.0280394 255 0 0
-0.0682212 0.0786610 -0.0280394 255 0 0
-0.0659334 0.0786610 -0.0280394 255 0 0
-0.0636456 0.0786610 -0.0280394 255 0 0
-0.0613578 0.0786610 -0.0280394 255 0 0
-0.0590700 0.0786610 -0.0280394 255 0 0
-0.0567822 0.0786610 -0.0280394 255 0 0
-0.0544945 0.0786610 -0.0280394 255 0 0
-0.0522067 0.0786610 -0.0280394 255 0 0
-0.0499189 0.0786610 -0.0280394 255 0 0
-0.0476311 0.0786610 -0.0280394 255 0 0
-0.0453433 0.0786610 -0.0280394 255 0 0
-0.0430556 0.0786610 -0.0280394 255 0 0
-0.0407678 0.0786610 -0.0280394 255 0 0
-0.0384800 0.0786610 -0.0280394 255 0 0
-0.0361922 0.0786610 -0.0280394 255 0 0
-0.0339044 0.0786610 -0.0280394 255 0 0
-0.0316167 0.0786610 -0.0280394 255 0 0
-0.0293289 0.0786610 -0.0280394 255 0 0
-0.0270411 0.0786610 -0.0280394 255 0 0
-0.0247533 0.0786610 -0.0280394 255 0 0
-0.0224655 0.0786610 -0.0280394 255 0 0
-0.0201778 0.0786610 -0.0280394 255 0 0
-0.0178900 0.0786610 -0.0280394 255 0 0
-0.0156022 0.0786610 -0.0280394 255 0 0
-0.0133144 0.0786609 -0.0280394 255 0 0
-0.0110266 0.0786609 -0.0280394 255 0 0
-0.0087388 0.0786609 -0.0280394 255 0 0
-0.0064511 0.0786608 -0.0280394 255 0 0
-0.0041633 0.0786608 -0.0280394 255 0 0
-0.0018755 0.0786608 -0.0280394 255 0 0
0.0004123 0.0786613 -0.0280394 255 0 0
0.0027001 0.0786616 -0.0280394 255 0 0
0.0049879 0.0786613 -0.0280394 255 0 0
0.0072756 0.0786611 -0.0280394 255 0 0
0.0095634 0.0786611 -0.0280394 255 0 0
-0.0933868 0.0809487 -0.0280394 255 0 0
-0.0910990 0.0809487 -0.0280394 255 0 0
-0.0888112 0.0809487 -0.0280394 255 0 0
-0.0865234 0.0809487 -0.0280394 255 0 0
-0.0842356 0.0809487 -0.0280394 255 0 0
-0.0819478 0.0809487 -0.0280394 255 0 0
-0.0796601 0.0809487 -0.0280394 255 0 0
-0.0773723 0.0809487 -0.0280394 255 0 0
-0.0750845 0.0809487 -0.0280394 255 0 0
-0.0727967 0.0809487 -0.0280394 255 0 0
-0.0705089 0.0809487 -0.0280394 255 0 0
-0.0682212 0.0809487 -0.0280394 255 0 0
-0.0659334 0.0809487 -0.0280394 255 0 0
-0.0636456 0.0809487 -0.0280394 255 0 0
-0.0613578 0.0809487 -0.0280394 255 0 0
-0.0590700 0.0809487 -0.0280394 255 0 0
-0.0567822 0.0809487 -0.0280394 255 0 0
-0.0544945 0.0809487 -0.0280394 255 0 0
-0.0522067 0.0809487 -0.0280394 255 0 0
-0.0499189 0.0809487 -0.0280394 255 0 0
-0.0476311 0.0809487 -0.0280394 255 0 0
-0.0453433 0.0809487 -0.0280394 255 0 0
-0.0430556 0.0809487 -0.0280394 255 0 0
-0.0407678 0.0809487 -0.0280394 255 0 0
-0.0384800 0.0809487 -0.0280394 255 0 0
-0.0361922 0.0809487 -0.0280394 255 0 0
-0.0339044 0.0809487 -0.0280394 255 0 0
-0.0316167 0.0809487 -0.0280394 255 0 0
-0.0293289 0.0809487 -0.0280394 255 0 0
-0.0270411 0.0809487 -0.0280394 255 0 0
-0.0247533 0.0809487 -0.0280394 255 0 0
-0.0224655 0.0809487 -0.0280394 255 0 0
-0.0201778 0.0809487 -0.0280394 255 0 0
-0.0178900 0.0809487 -0.0280394 255 0 0
-0.0156022 0.0809487 -0.0280394 255 0 0
-0.0133144 0.0809487 -0.0280394 255 0 0
-0.0110266 0.0809487 -0.0280394 255 0 0
-0.0087388 0.0809487 -0.0280394 255 0 0
-0.0064511 0.0809487 -0.0280394 255 0 0
-0.0041633 0.0809487 -0.0280394 255 0 0
-0.0018755 0.0809486 -0.0280394 255 0 0
0.0004123 0.0809490 -0.0280394 255 0 0
0.0027001 0.0809492 -0.0280394 255 0 0
0.0049879 0.0809490 -0.0280394 255 0 0
0.0072756 0.0809488 -0.0280394 255 0 0
0.0095634 0.0809488 -0.0280394 255 0 0
-0.0933868 0.0832365 -0.0280394 255 0 0
-0.0910990 0.0832365 -0.0280394 255 0 0
-0.0888112 0.0832365 -0.0280394 255 0 0
-0.0865234 0.0832365 -0.0280394 255 0 0
-0.0842356 0.0832365 -0.0280394 255 0 0
-0.0819478 0.0832365 -0.0280394 255 0 0
-0.0796601 0.0832365 -0.0280394 255 0 0
-0.0773723 0.0832365 -0.0280394 255 0 0
-0.0750845 0.0832365 -0.0280394 255 0 0
-0.0727967 0.0832365 -0.0280394 255 0 0
-0.0705089 0.0832365 -0.0280394 255 0 0
-0.0682212 0.0832365 -0.0280394 255 0 0
-0.0659334 0.0832365 -0.0280394 255 0 0
-0.0636456 0.0832365 -0.0280394 255 0 0
-0.0613578 0.0832365 -0.0280394 255 0 0
-0.0590700 0.0832365 -0.0280394 255 0 0
-0.0567822 0.0832365 -0.0280394 255 0 0
-0.0544945 0.0832365 -0.0280394 255 0 0
-0.0522067 0.0832365 -0.0280394 255 0 0
-0.0499189 0.0832365 -0.0280394 255 0 0
-0.0476311 0.0832365 -0.0280394 255 0 0
-0.0453433 0.0832365 -0.0280394 255 0 0
-0.0430556 0.0832365 -0.0280394 255 0 0
-0.0407678 0.0832365 -0.0280394 255 0 0
-0.0384800 0.0832365 -0.0280394 255 0 0
-0.0361922 0.0832365 -0.0280394 255 0 0
-0.0339044 0.0832365 -0.0280394 255 0 0
-0.0316167 0.0832365 -0.0280394 255 0 0
-0.0293289 0.0832365 -0.0280394 255 0 0
-0.0270411 0.0832365 -0.0280394 255 0 0
-0.0247533 0.0832365 -0.0280394 255 0 0
-0.0224655 0.0832365 -0.0280394 255 0 0
-0.0201778 0.0832365 -0.0280394 255 0 0
-0.0178900 0.0832365 -0.0280394 255 0 0
-0.0156022 0.0832365 -0.0280394 255 0 0
-0.0133144 0.0832365 -0.0280394 255 0 0
-0.0110266 0.0832365 -0.0280394 255 0 0
-0.0087388 0.0832365 -0.0280394 255 0 0
-0.0064511 0.0832365 -0.0280394 255 0 0
-0.0041633 0.0832365 -0.0280394 255 0 0
-0.0018755 0.0832364 -0.0280394 255 0 0
0.0004123 0.0832367 -0.0280394 255 0 0
0.0027001 0.0832368 -0.0280394 255 0 0
0.0049879 0.0832367 -0.0280394 255 0 0
0.0072756 0.0832366 -0.0280394 255 0 0
0.0095634 0.0832366 -0.0280394 255 0 0
0.0118512 0.0832366 -0.0280394 255 0 0
-0.0933868 0.0855243 -0.0280394 255 0 0
-0.0910990 0.0855243 -0.0280394 255 0 0
-0.0888112 0.0855243 -0.0280394 255 0 0
-0.0865234 0.0855243 -0.0280394 255 0 0
-0.0842356 0.0855243 -0.0280394 255 0 0
-0.0819478 0.0855243 -0.0280394 255 0 0
-0.0796601 0.0855243 -0.0280394 255 0 0
-0.0773723 0.0855243 -0.0280394 255 0 0
-0.0750845 0.0855243 -0.0280394 255 0 0
-0.0727967 0.0855243 -0.0280394 255 0 0
-0.0705089 0.0855243 -0.0280394 255 0 0
-0.0682212 0.0855243 -0.0280394 255 0 0
-0.0659334 0.0855243 -0.0280394 255 0 0
-0.0636456 0.0855243 -0.0280394 255 0 0
-0.0613578 0.0855243 -0.0280394 255 0 0
-0.0590700 0.0855243 -0.0280394 255 0 0
-0.0567822 0.0855243 -0.0280394 255 0 0
-0.0544945 0.0855243 -0.0280394 255 0 0
-0.0522067 0.0855243 -0.0280394 255 0 0
-0.0499189 0.0855243 -0.0280394 255 0 0
-0.0476311 0.0855243 -0.0280394 255 0 0
-0.0453433 0.0855243 -0.0280394 255 0 0
-0.0430556 0.0855243 -0.0280394 255 0 0
-0.0407678 0.0855243 -0.0280394 255 0 0
-0.0384800 0.0855243 -0.0280394 255 0 0
-0.0361922 0.0855243 -0.0280394 255 0 0
-0.0339044 0.0855243 -0.0280394 255 0 0
-0.0316167 0.0855243 -0.0280394 255 0 0
-0.0293289 0.0855243 -0.0280394 255 0 0
-0.0270411 0.0855243 -0.0280394 255 0 0
-0.0247533 0.0855243 -0.0280394 255 0 0
-0.0224655 0.0855243 -0.0280394 255 0 0
-0.0201778 0.0855243 -0.0280394 255 0 0
-0.0178900 0.0855243 -0.0280394 255 0 0
-0.0156022 0.0855243 -0.0280394 255 0 0
-0.0133144 0.0855243 -0.0280394 255 0 0
-0.0110266 0.0855243 -0.0280394 255 0 0
-0.0087388 0.0855243 -0.0280394 255 0 0
-0.0064511 0.0855243 -0.0280394 255 0 0
-0.0041633 0.0855243 -0.0280394 255 0 0
-0.0018755 0.0855243 -0.0280394 255 0 0
0.0004123 0.0855244 -0.0280394 255 0 0
0.0027001 0.0855245 -0.0280394 255 0 0
0.0049879 0.0855244 -0.0280394 255 0 0
0.0072756 0.0855244 -0.0280394 255 0 0
0.0095634 0.0855243 -0.0280394 255 0 0
0.0118512 0.0855243 -0.0280394 255 0 0
-0.0933868 0.0878121 -0.0280394 255 0 0
-0.0910990 0.0878121 -0.0280394 255 0 0
-0.0888112 0.0878121 -0.0280394 255 0 0
-0.0865234 0.0878121 -0.0280394 255 0 0
-0.0842356 0.0878121 -0.0280394 255 0 0
-0.0819478 0.0878121 -0.0280394 255 0 0
-0.0796601 0.0878121 -0.0280394 255 0 0
-0.0773723 0.0878121 -0.0280394 255 0 0
-0.0750845 0.0878121 -0.0280394 255 0 0
-0.0727967 0.0878121 -0.0280394 255 0 0
-0.0705089 0.0878121 -0.0280394 255 0 0
-0.0682212 0.0878121 -0.0280394 255 0 0
-0.0659334 0.0878121 -0.0280394 255 0 0
-0.0636456 0.0878121 -0.0280394 255 0 0
-0.0613578 0.0878121 -0.0280394 255 0 0
-0.0590700 0.0878121 -0.0280394 255 0 0
-0.0567822 0.0878121 -0.0280394 255 0 0
-0.0544945 0.0878121 -0.0280394 255 0 0
-0.0522067 0.0878121 -0.0280394 255 0 0
-0.0499189 0.0878121 -0.0280394 255 0 0
-0.0476311 0.0878121 -0.0280394 255 0 0
-0.0453433 0.0878121 -0.0280394 255 0 0
-0.0430556 0.0878121 -0.0280394 255 0 0
-0.0407678 0.0878121 -0.0280394 255 0 0
-0.0384800 0.0878121 -0.0280394 255 0 0
-0.0361922 0.0878121 -0.0280394 255 0 0
-0.0339044 0.0878121 -0.0280394 255 0 0
-0.0316167 0.0878121 -0.0280394 255 0 0
-0.0293289 0.0878121 -0.0280394 255 0 0
-0.0270411 0.0878121 -0.0280394 255 0 0
-0.0247533 0.0878121 -0.0280394 255 0 0
-0.0224655 0.0878121 -0.0280394 255 0 0
-0.0201778 0.0878121 -0.0280394 255 0 0
-0.0178900 0.0878121 -0.0280394 255 0 0
-0.0156022 0.0878121 -0.0280394 255 0 0
-0.0133144 0.0878121 -0.0280394 255 0 0
-0.0110266 0.0878121 -0.0280394 255 0 0
-0.0087388 0.0878121 -0.0280394 255 0 0
-0.0064511 0.0878121 -0.0280394 255 0 0
-0.0041633 0.0878121 -0.0280394 255 0 0
-0.0018755 0.0878121 -0.0280394 255 0 0
0.0004123 0.0878121 -0.0280394 255 0 0
0.0027001 0.0878121 -0.0280394 255 0 0
0.0049878 0.0878121 -0.0280394 255 0 0
0.0072756 0.0878121 -0.0280394 255 0 0
0.0095634 0.0878121 -0.0280394 255 0 0
0.0118512 0.0878121 -0.0280394 255 0 0
0.0141390 0.0878121 -0.0280394 255 0 0
-0.0933868 0.0900999 -0.0280394 255 0 0
-0.0910990 0.0900999 -0.0280394 255 0 0
-0.0888112 0.0900999 -0.0280394 255 0 0
-0.0865234 0.0900999 -0.0280394 255 0 0
-0.0842356 0.0900999 -0.0280394 255 0 0
-0.0819478 0.0900999 -0.0280394 255 0 0
-0.0796601 0.0900999 -0.0280394 255 0 0
-0.0773723 0.0900999 -0.0280394 255 0 0
-0.0750845 0.0900999 -0.0280394 255 0 0
-0.0727967 0.0900999 -0.0280394 255 0 0
-0.0705089 0.0900999 -0.0280394 255 0 0
-0.0682212 0.0900999 -0.0280394 255 0 0
-0.0659334 0.0900999 -0.0280394 255 0 0
-0.0636456 0.0900999 -0.0280394 255 0 0
-0.0613578 0.0900999 -0.0280394 255 0 0
-0.0590700 0.0900999 -0.0280394 255 0 0
-0.0567822 0.0900999 -0.0280394 255 0 0
-0.0544945 0.0900999 -0.0280394 255 0 0
-0.0522067 0.0900999 -0.0280393 255 0 0
-0.0499189 0.0900999 -0.0280392 255 0 0
-0.0476311 0.0900999 -0.0280392 255 0 0
-0.0453433 0.0900999 -0.0280392 255 0 0
-0.0430556 0.0900999 -0.0280391 255 0 0
-0.0407678 0.0900999 -0.0280392 255 0 0
-0.0384800 0.0900999 -0.0280392 255 0 0
-0.0361922 0.0900999 -0.0280392 255 0 0
-0.0339044 0.0900999 -0.0280392 255 0 0
-0.0316167 0.0900999 -0.0280392 255 0 0
-0.0293289 0.0900999 -0.0280392 255 0 0
-0.0270411 0.0900999 -0.0280392 255 0 0
-0.0247533 0.0900999 -0.0280393 255 0 0
-0.0224655 0.0900999 -0.0280393 255 0 0
-0.0201778 0.0900999 -0.0280394 255 0 0
-0.0178900 0.0900999 -0.0280394 255 0 0
-0.0156022 0.0900999 -0.0280394 255 0 0
-0.0133144 0.0900999 -0.0280394 255 0 0
-0.0110266 0.0900999 -0.0280394 255 0 0
-0.0087388 0.0900999 -0.0280394 255 0 0
-0.0064511 0.0900999 -0.0280394 255 0 0
-0.0041633 0.0900999 -0.0280394 255 0 0
-0.0018755 0.0900999 -0.0280394 255 0 0
0.0004123 0.0900999 -0.0280394 255 0 0
0.0027001 0.0900999 -0.0280394 255 0 0
0.0049878 0.0900999 -0.0280394 255 0 0
0.0072756 0.0900999 -0.0280394 255 0 0
0.0095634 0.0900999 -0.0280394 255 0 0
0.0118512 0.0900999 -0.0280394 255 0 0
0.0141390 0.0900999 -0.0280394 255 0 0
-0.0956745 0.0923876 -0.0280394 255 0 0
-0.0933868 0.0923876 -0.0280394 255 0 0
-0.0910990 0.0923876 -0.0280394 255 0 0
-0.0888112 0.0923876 -0.0280394 255 0 0
-0.0865234 0.0923876 -0.0280394 255 0 0
-0.0842356 0.0923876 -0.0280394 255 0 0
-0.0819478 0.0923876 -0.0280394 255 0 0
-0.0796601 0.0923876 -0.0280394 255 0 0
-0.0773723 0.0923876 -0.0280394 255 0 0
-0.0750845 0.0923876 -0.0280394 255 0 0
-0.0727967 0.0923876 -0.0280394 255 0 0
-0.0705089 0.0923876 -0.0280394 255 0 0
-0.0682212 0.0923876 -0.0280394 255 0 0
-0.0659334 0.0923876 -0.0280394 255 0 0
-0.0636456 0.0923876 -0.0280394 255 0 0
-0.0613578 0.0923876 -0.0280394 255 0 0
-0.0590700 0.0923876 -0.0280394 255 0 0
-0.0567822 0.0923876 -0.0280394 255 0 0
-0.0544945 0.0923876 -0.0280394 255 0 0
-0.0522067 0.0923876 -0.0280394 255 0 0
-0.0499189 0.0923876 -0.0280394 255 0 0
-0.0476311 0.0923876 -0.0280394 255 0 0
-0.0453433 0.0923876 -0.0280394 255 0 0
-0.0430556 0.0923876 -0.0280394 255 0 0
-0.0407678 0.0923876 -0.0280394 255 0 0
-0.0384800 0.0923876 -0.0280394 255 0 0
-0.0361922 0.0923876 -0.0280394 255 0 0
-0.0339044 0.0923876 -0.0280394 255 0 0
-0.0316167 0.0923876 -0.0280394 255 0 0
-0.0293289 0.0923876 -0.0280394 255 0 0
-0.0270411 0.0923876 -0.0280394 255 0 0
-0.0247533 0.0923876 -0.0280394 255 0 0
-0.0224655 0.0923876 -0.0280394 255 0 0
-0.0201778 0.0923876 -0.0280394 255 0 0
-0.0178900 0.0923876 -0.0280394 255 0 0
-0.0156022 0.0923876 -0.0280394 255 0 0
-0.0133144 0.0923876 -0.0280394 255 0 0
-0.0110266 0.0923876 -0.0280394 255 0 0
-0.0087388 0.0923876 -0.0280394 255 0 0
-0.0064511 0.0923876 -0.0280394 255 0 0
-0.0041633 0.0923876 -0.0280394 255 0 0
-0.0018755 0.0923876 -0.0280394 255 0 0
0.0004123 0.0923876 -0.0280394 255 0 0
0.0027001 0.0923876 -0.0280394 255 0 0
0.0049878 0.0923876 -0.0280394 255 0 0
0.0072756 0.0923876 -0.0280394 255 0 0
0.0095634 0.0923876 -0.0280394 255 0 0
0.0118512 0.0923876 -0.0280394 255 0 0
0.0141390 0.0923876 -0.0280394 255 0 0
0.0164268 0.0923876 -0.0280394 255 0 0
-0.0956745 0.0946754 -0.0280394 255 0 0
-0.0933868 0.0946754 -0.0280394 255 0 0
-0.0910990 0.0946754 -0.0280394 255 0 0
-0.0888112 0.0946754 -0.0280394 255 0 0
-0.0865234 0.0946754 -0.0280394 255 0 0
-0.0842356 0.0946754 -0.0280394 255 0 0
-0.0819478 0.0946754 -0.0280394 255 0 0
-0.0796601 0.0946754 -0.0280394 255 0 0
-0.0773723 0.0946754 -0.0280394 255 0 0
-0.0750845 0.0946754 -0.0280394 255 0 0
-0.0727967 0.0946754 -0.0280394 255 0 0
-0.0705089 0.0946754 -0.0280394 255 0 0
-0.0682212 0.0946754 -0.0280394 255 0 0
-0.0659334 0.0946754 -0.0280394 255 0 0
-0.0636456 0.0946754 -0.0280394 255 0 0
-0.0613578 0.0946754 -0.0280394 255 0 0
-0.0590700 0.0946754 -0.0280394 255 0 0
-0.0567822 0.0946754 -0.0280394 255 0 0
-0.0544945 0.0946754 -0.0280394 255 0 0
-0.0522067 0.0946754 -0.0280394 255 0 0
-0.0499189 0.0946754 -0.0280394 255 0 0
-0.0476311 0.0946754 -0.0280394 255 0 0
-0.0453433 0.0946754 -0.0280394 255 0 0
-0.0430556 0.0946754 -0.0280394 255 0 0
-0.0407678 0.0946754 -0.0280394 255 0 0
-0.0384800 0.0946754 -0.0280394 255 0 0
-0.0361922 0.0946754 -0.0280394 255 0 0
-0.0339044 0.0946754 -0.0280394 255 0 0
-0.0316167 0.0946754 -0.0280394 255 0 0
-0.0293289 0.0946754 -0.0280394 255 0 0
-0.0270411 0.0946754 -0.0280394 255 0 0
-0.0247533 0.0946754 -0.0280394 255 0 0
-0.0224655 0.0946754 -0.0280394 255 0 0
-0.0201778 0.0946754 -0.0280394 255 0 0
-0.0178900 0.0946754 -0.0280394 255 0 0
-0.0156022 0.0946754 -0.0280394 255 0 0
-0.0133144 0.0946754 -0.0280394 255 0 0
-0.0110266 0.0946754 -0.0280394 255 0 0
-0.0087388 0.0946754 -0.0280394 255 0 0
-0.0064511 0.0946754 -0.0280394 255 0 0
-0.0041633 0.0946754 -0.0280394 255 0 0
-0.0018755 0.0946754 -0.0280394 255 0 0
0.0004123 0.0946754 -0.0280394 255 0 0
0.0027001 0.0946754 -0.0280394 255 0 0
0.0049878 0.0946754 -0.0280394 255 0 0
0.0072756 0.0946754 -0.0280394 255 0 0
0.0095634 0.0946754 -0.0280394 255 0 0
0.0118512 0.0946754 -0.0280394 255 0 0
0.0141390 0.0946754 -0.0280394 255 0 0
0.0164268 0.0946754 -0.0280394 255 0 0
-0.0956745 0.0969632 -0.0280394 255 0 0
-0.0933868 0.0969632 -0.0280394 255 0 0
-0.0910990 0.0969632 -0.0280394 255 0 0
-0.0888112 0.0969632 -0.0280394 255 0 0
-0.0865234 0.0969632 -0.0280394 255 0 0
-0.0842356 0.0969632 -0.0280394 255 0 0
-0.0819478 0.0969632 -0.0280394 255 0 0
-0.0796601 0.0969632 -0.0280394 255 0 0
-0.0773723 0.0969632 -0.0280394 255 0 0
-0.0750845 0.0969632 -0.0280394 255 0 0
-0.0727967 0.0969632 -0.0280394 255 0 0
-0.0705089 0.0969632 -0.0280394 255 0 0
-0.0682212 0.0969632 -0.0280394 255 0 0
-0.0659334 0.0969632 -0.0280394 255 0 0
-0.0636456 0.0969632 -0.0280394 255 0 0
-0.0613578 0.0969632 -0.0280394 255 0 0
-0.0590700 0.0969632 -0.0280394 255 0 0
-0.0567822 0.0969632 -0.0280394 255 0 0
-0.0544945 0.0969632 -0.0280394 255 0 0
-0.0522067 0.0969632 -0.0280394 255 0 0
-0.0499189 0.0969632 -0.0280394 255 0 0
-0.0476311 0.0969632 -0.0280394 255 0 0
-0.0453433 0.0969632 -0.0280394 255 0 0
-0.0430556 0.0969632 -0.0280394 255 0 0
-0.0407678 0.0969632 -0.0280394 255 0 0
-0.0384800 0.0969632 -0.0280394 255 0 0
-0.0361922 0.0969632 -0.0280394 255 0 0
-0.0339044 0.0969632 -0.0280394 255 0 0
-0.0316167 0.0969632 -0.0280394 255 0 0
-0.0293289 0.0969632 -0.0280394 255 0 0
-0.0270411 0.0969632 -0.0280394 255 0 0
-0.0247533 0.0969632 -0.0280394 255 0 0
-0.0224655 0.0969632 -0.0280394 255 0 0
-0.0201778 0.0969632 -0.0280394 255 0 0
-0.0178900 0.0969632 -0.0280394 255 0 0
-0.0156022 0.0969632 -0.0280394 255 0 0
-0.0133144 0.0969632 -0.0280394 255 0 0
-0.0110266 0.0969632 -0.0280394 255 0 0
-0.0087388 0.0969632 -0.0280394 255 0 0
-0.0064511 0.0969632 -0.0280394 255 0 0
-0.0041633 0.0969632 -0.0280394 255 0 0
-0.0018755 0.0969632 -0.0280394 255 0 0
0.0004123 0.0969632 -0.0280394 255 0 0
0.0027001 0.0969632 -0.0280394 255 0 0
0.0049878 0.0969632 -0.0280394 255 0 0
0.0072756 0.0969632 -0.0280394 255 0 0
0.0095634 0.0969632 -0.0280394 255 0 0
0.0118512 0.0969632 -0.0280394 255 0 0
0.0141390 0.0969632 -0.0280394 255 0 0
0.0164268 0.0969632 -0.0280394 255 0 0
-0.0956745 0.0992510 -0.0280394 255 0 0
-0.0933868 0.0992510 -0.0280394 255 0 0
-0.0910990 0.0992510 -0.0280394 255 0 0
-0.0888112 0.0992510 -0.0280394 255 0 0
-0.0865234 0.0992510 -0.0280394 255 0 0
-0.0842356 0.0992510 -0.0280394 255 0 0
-0.0819478 0.0992510 -0.0280394 255 0 0
-0.0796601 0.0992510 -0.0280394 255 0 0
-0.0773723 0.0992510 -0.0280394 255 0 0
-0.0750845 0.0992510 -0.0280394 255 0 0
-0.0727967 0.0992510 -0.0280394 255 0 0
-0.0705089 0.0992510 -0.0280394 255 0 0
-0.0682212 0.0992510 -0.0280394 255 0 0
-0.0659334 0.0992510 -0.0280394 255 0 0
-0.0636456 0.0992510 -0.0280394 255 0 0
-0.0613578 0.0992510 -0.0280394 255 0 0
-0.0590700 0.0992510 -0.0280394 255 0 0
-0.0567822 0.0992510 -0.0280394 255 0 0
-0.0544945 0.0992510 -0.0280394 255 0 0
-0.0522067 0.0992510 -0.0280394 255 0 0
-0.0499189 0.0992510 -0.0280394 255 0 0
-0.0476311 0.0992510 -0.0280394 255 0 0
-0.0453433 0.0992510 -0.0280394 255 0 0
-0.0430556 0.0992510 -0.0280394 255 0 0
-0.0407678 0.0992510 -0.0280394 255 0 0
-0.0384800 0.0992510 -0.0280394 255 0 0
-0.0361922 0.0992510 -0.0280394 255 0 0
-0.0339044 0.0992510 -0.0280394 255 0 0
-0.0316167 0.0992510 -0.0280394 255 0 0
-0.0293289 0.0992510 -0.0280394 255 0 0
-0.0270411 0.0992510 -0.0280394 255 0 0
-0.0247533 0.0992510 -0.0280394 255 0 0
-0.0224655 0.0992510 -0.0280394 255 0 0
-0.0201778 0.0992510 -0.0280394 255 0 0
-0.0178900 0.0992510 -0.0280394 255 0 0
-0.0156022 0.0992510 -0.0280394 255 0 0
-0.0133144 0.0992510 -0.0280394 255 0 0
-0.0110266 0.0992510 -0.0280394 255 0 0
-0.0087388 0.0992510 -0.0280394 255 0 0
-0.0064511 0.0992510 -0.0280394 255 0 0
-0.0041633 0.0992510 -0.0280394 255 0 0
-0.0018755 0.0992510 -0.0280394 255 0 0
0.0004123 0.0992510 -0.0280394 255 0 0
0.0027001 0.0992510 -0.0280394 255 0 0
0.0049878 0.0992510 -0.0280394 255 0 0
0.0072756 0.0992510 -0.0280394 255 0 0
0.0095634 0.0992510 -0.0280394 255 0 0
0.0118512 0.0992510 -0.0280394 255 0 0
0.0141390 0.0992510 -0.0280394 255 0 0
0.0164268 0.0992510 -0.0280394 255 0 0
-0.0956745 0.1015388 -0.0280394 255 0 0
-0.0933868 0.1015388 -0.0280394 255 0 0
-0.0910990 0.1015388 -0.0280394 255 0 0
-0.0888112 0.1015388 -0.0280394 255 0 0
-0.0865234 0.1015388 -0.0280394 255 0 0
-0.0842356 0.1015388 -0.0280394 255 0 0
-0.0819478 0.1015388 -0.0280394 255 0 0
-0.0796601 0.1015388 -0.0280394 255 0 0
-0.0773723 0.1015388 -0.0280394 255 0 0
-0.0750845 0.1015388 -0.0280394 255 0 0
-0.0727967 0.1015388 -0.0280394 255 0 0
-0.0705089 0.1015388 -0.0280394 255 0 0
-0.0682212 0.1015388 -0.0280394 255 0 0
-0.0659334 0.1015388 -0.0280394 255 0 0
-0.0636456 0.1015388 -0.0280394 255 0 0
-0.0613578 0.1015388 -0.0280394 255 0 0
-0.0590700 0.1015388 -0.0280394 255 0 0
-0.0567822 0.1015388 -0.0280394 255 0 0
-0.0544945 0.1015388 -0.0280394 255 0 0
-0.0522067 0.1015388 -0.0280394 255 0 0
-0.0499189 0.1015388 -0.0280394 255 0 0
-0.0476311 0.1015388 -0.0280394 255 0 0
-0.0453433 0.1015388 -0.0280394 255 0 0
-0.0430556 0.1015388 -0.0280394 255 0 0
-0.0407678 0.1015388 -0.0280394 255 0 0
-0.0384800 0.1015388 -0.0280394 255 0 0
-0.0361922 0.1015388 -0.0280394 255 0 0
-0.0339044 0.1015388 -0.0280394 255 0 0
-0.0316167 0.1015388 -0.0280394 255 0 0
-0.0293289 0.1015388 -0.0280394 255 0 0
-0.0270411 0.1015388 -0.0280394 255 0 0
-0.0247533 0.1015388 -0.0280394 255 0 0
-0.0224655 0.1015388 -0.0280394 255 0 0
-0.0201778 0.1015388 -0.0280394 255 0 0
-0.0178900 0.1015388 -0.0280394 255 0 0
-0.0156022 0.1015388 -0.0280394 255 0 0
-0.0133144 0.1015388 -0.0280394 255 0 0
-0.0110266 0.1015388 -0.0280394 255 0 0
-0.0087388 0.1015388 -0.0280394 255 0 0
-0.0064511 0.1015388 -0.0280394 255 0 0
-0.0041633 0.1015388 -0.0280394 255 0 0
-0.0018755 0.1015388 -0.0280394 255 0 0
0.0004123 0.1015388 -0.0280394 255 0 0
0.0027001 0.1015388 -0.0280394 255 0 0
0.0049878 0.1015388 -0.0280394 255 0 0
0.0072756 0.1015388 -0.0280394 255 0 0
0.0095634 0.1015388 -0.0280394 255 0 0
0.0118512 0.1015388 -0.0280394 255 0 0
0.0141390 0.1015388 -0.0280394 255 0 0
-0.0956745 0.1038265 -0.0280394 255 0 0
-0.0933868 0.1038265 -0.0280394 255 0 0
-0.0910990 0.1038265 -0.0280394 255 0 0
-0.0888112 0.1038265 -0.0280394 255 0 0
-0.0865234 0.1038265 -0.0280394 255 0 0
-0.0842356 0.1038265 -0.0280394 255 0 0
-0.0819478 0.1038265 -0.0280394 255 0 0
-0.0796601 0.1038265 -0.0280394 255 0 0
-0.0773723 0.1038265 -0.0280394 255 0 0
-0.0750845 0.1038265 -0.0280394 255 0 0
-0.0727967 0.1038265 -0.0280394 255 0 0
-0.0705089 0.1038265 -0.0280394 255 0 0
-0.0682212 0.1038265 -0.0280394 255 0 0
-0.0659334 0.1038265 -0.0280394 255 0 0
-0.0636456 0.1038265 -0.0280394 255 0 0
-0.0613578 0.1038265 -0.0280394 255 0 0
-0.0590700 0.1038265 -0.0280394 255 0 0
-0.0567822 0.1038265 -0.0280394 255 0 0
-0.0544945 0.1038265 -0.0280394 255 0 0
-0.0522067 0.1038265 -0.0280394 255 0 0
-0.0499189 0.1038265 -0.0280394 255 0 0
-0.0476311 0.1038265 -0.0280394 255 0 0
-0.0453433 0.1038265 -0.0280394 255 0 0
-0.0430556 0.1038265 -0.0280394 255 0 0
-0.0407678 0.1038265 -0.0280394 255 0 0
-0.0384800 0.1038265 -0.0280394 255 0 0
-0.0361922 0.1038265 -0.0280394 255 0 0
-0.0339044 0.1038265 -0.0280394 255 0 0
-0.0316167 0.1038265 -0.0280394 255 0 0
-0.0293289 0.1038265 -0.0280394 255 0 0
-0.0270411 0.1038265 -0.0280394 255 0 0
-0.0247533 0.1038265 -0.0280394 255 0 0
-0.0224655 0.1038265 -0.0280394 255 0 0
-0.0201778 0.1038265 -0.0280394 255 0 0
-0.0178900 0.1038265 -0.0280394 255 0 0
-0.0156022 0.1038265 -0.0280394 255 0 0
-0.0133144 0.1038265 -0.0280394 255 0 0
-0.0110266 0.1038265 -0.0280394 255 0 0
-0.0087388 0.1038265 -0.0280394 255 0 0
-0.0064511 0.1038265 -0.0280394 255 0 0
-0.0041633 0.1038265 -0.0280394 255 0 0
-0.0018755 0.1038265 -0.0280394 255 0 0
0.0004123 0.1038265 -0.0280394 255 0 0
0.0027001 0.1038265 -0.0280394 255 0 0
0.0049878 0.1038265 -0.0280394 255 0 0
0.0072756 0.1038265 -0.0280394 255 0 0
0.0095634 0.1038265 -0.0280394 255 0 0
0.0118512 0.1038265 -0.0280394 255 0 0
0.0141390 0.1038265 -0.0280394 255 0 0
-0.0956745 0.1061143 -0.0280394 255 0 0
-0.0933868 0.1061143 -0.0280394 255 0 0
-0.0910990 0.1061143 -0.0280394 255 0 0
-0.0888112 0.1061143 -0.0280394 255 0 0
-0.0865234 0.1061143 -0.0280394 255 0 0
-0.0842356 0.1061143 -0.0280394 255 0 0
-0.0819478 0.1061143 -0.0280394 255 0 0
-0.0796601 0.1061143 -0.0280394 255 0 0
-0.0773723 0.1061143 -0.0280394 255 0 0
-0.0750845 0.1061143 -0.0280394 255 0 0
-0.0727967 0.1061143 -0.0280394 255 0 0
-0.0705089 0.1061143 -0.0280394 255 0 0
-0.0682212 0.1061143 -0.0280394 255 0 0
-0.0659334 0.1061143 -0.0280394 255 0 0
-0.0636456 0.1061143 -0.0280394 255 0 0
-0.0613578 0.1061143 -0.0280394 255 0 0
-0.0590700 0.1061143 -0.0280394 255 0 0
-0.0567822 0.1061143 -0.0280394 255 0 0
-0.0544945 0.1061143 -0.0280394 255 0 0
-0.0522067 0.1061143 -0.0280394 255 0 0
-0.0499189 0.1061143 -0.0280394 255 0 0
-0.0476311 0.1061143 -0.0280394 255 0 0
-0.0453433 0.1061143 -0.0280394 255 0 0
-0.0430556 0.1061143 -0.0280394 255 0 0
-0.0407678 0.1061143 -0.0280394 255 0 0
-0.0384800 0.1061143 -0.0280394 255 0 0
-0.0361922 0.1061143 -0.0280394 255 0 0
-0.0339044 0.1061143 -0.0280394 255 0 0
-0.0316167 0.1061143 -0.0280394 255 0 0
-0.0293289 0.1061143 -0.0280394 255 0 0
-0.0270411 0.1061143 -0.0280394 255 0 0
-0.0247533 0.1061143 -0.0280394 255 0 0
-0.0224655 0.1061143 -0.0280394 255 0 0
-0.0201778 0.1061143 -0.0280394 255 0 0
-0.0178900 0.1061143 -0.0280394 255 0 0
-0.0156022 0.1061143 -0.0280394 255 0 0
-0.0133144 0.1061143 -0.0280394 255 0 0
-0.0110266 0.1061143 -0.0280394 255 0 0
-0.0087388 0.1061143 -0.0280394 255 0 0
-0.0064511 0.1061143 -0.0280394 255 0 0
-0.0041633 0.1061143 -0.0280394 255 0 0
-0.0018755 0.1061143 -0.0280394 255 0 0
0.0004123 0.1061143 -0.0280394 255 0 0
0.0027001 0.1061143 -0.0280394 255 0 0
0.0049878 0.1061143 -0.0280394 255 0 0
0.0072756 0.1061143 -0.0280394 255 0 0
0.0095634 0.1061143 -0.0280394 255 0 0
0.0118512 0.1061143 -0.0280394 255 0 0
0.0141390 0.1061143 -0.0280394 255 0 0
-0.0933868 0.1084021 -0.0280394 255 0 0
-0.0910990 0.1084021 -0.0280394 255 0 0
-0.0888112 0.1084021 -0.0280394 255 0 0
-0.0865234 0.1084021 -0.0280394 255 0 0
-0.0842356 0.1084021 -0.0280394 255 0 0
-0.0819478 0.1084021 -0.0280394 255 0 0
-0.0796601 0.1084021 -0.0280394 255 0 0
-0.0773723 0.1084021 -0.0280394 255 0 0
-0.0750845 0.1084021 -0.0280394 255 0 0
-0.0727967 0.1084021 -0.0280394 255 0 0
-0.0705089 0.1084021 -0.0280394 255 0 0
-0.0682212 0.1084021 -0.0280394 255 0 0
-0.0659334 0.1084021 -0.0280394 255 0 0
-0.0636456 0.1084021 -0.0280394 255 0 0
-0.0613578 0.1084021 -0.0280394 255 0 0
-0.0590700 0.1084021 -0.0280394 255 0 0
-0.0567822 0.1084021 -0.0280394 255 0 0
-0.0544945 0.1084021 -0.0280394 255 0 0
-0.0522067 0.1084021 -0.0280394 255 0 0
-0.0499189 0.1084021 -0.0280394 255 0 0
-0.0476311 0.1084021 -0.0280394 255 0 0
-0.0453433 0.1084021 -0.0280394 255 0 0
-0.0430556 0.1084021 -0.0280394 255 0 0
-0.0407678 0.1084021 -0.0280394 255 0 0
-0.0384800 0.1084021 -0.0280394 255 0 0
-0.0361922 0.1084021 -0.0280394 255 0 0
-0.0339044 0.1084021 -0.0280394 255 0 0
-0.0316167 0.1084021 -0.0280394 255 0 0
-0.0293289 0.1084021 -0.0280394 255 0 0
-0.0270411 0.1084021 -0.0280394 255 0 0
-0.0247533 0.1084021 -0.0280394 255 0 0
-0.0224655 0.1084021 -0.0280394 255 0 0
-0.0201778 0.1084021 -0.0280394 255 0 0
-0.0178900 0.1084021 -0.0280394 255 0 0
-0.0156022 0.1084021 -0.0280394 255 0 0
-0.0133144 0.1084021 -0.0280394 255 0 0
-0.0110266 0.1084021 -0.0280394 255 0 0
-0.0087388 0.1084021 -0.0280394 255 0 0
-0.0064511 0.1084021 -0.0280394 255 0 0
-0.0041633 0.1084021 -0.0280394 255 0 0
-0.0018755 0.1084021 -0.0280394 255 0 0
0.0004123 0.1084021 -0.0280394 255 0 0
0.0027001 0.1084021 -0.0280394 255 0 0
0.0049878 0.1084021 -0.0280394 255 0 0
0.0072756 0.1084021 -0.0280394 255 0 0
0.0095634 0.1084021 -0.0280394 255 0 0
0.0118512 0.1084021 -0.0280394 255 0 0
0.0141390 0.1084021 -0.0280394 255 0 0
-0.0933868 0.1106899 -0.0280394 255 0 0
-0.0910990 0.1106899 -0.0280394 255 0 0
-0.0888112 0.1106899 -0.0280394 255 0 0
-0.0865234 0.1106899 -0.0280394 255 0 0
-0.0842356 0.1106899 -0.0280394 255 0 0
-0.0819478 0.1106899 -0.0280394 255 0 0
-0.0796601 0.1106899 -0.0280394 255 0 0
-0.0773723 0.1106899 -0.0280394 255 0 0
-0.0750845 0.1106899 -0.0280394 255 0 0
-0.0727967 0.1106899 -0.0280394 255 0 0
-0.0705089 0.1106899 -0.0280394 255 0 0
-0.0682212 0.1106899 -0.0280394 255 0 0
-0.0659334 0.1106899 -0.0280394 255 0 0
-0.0636456 0.1106899 -0.0280394 255 0 0
-0.0613578 0.1106899 -0.0280394 255 0 0
-0.0590700 0.1106899 -0.0280394 255 0 0
-0.0567822 0.1106899 -0.0280394 255 0 0
-0.0544945 0.1106899 -0.0280394 255 0 0
-0.0522067 0.1106899 -0.0280394 255 0 0
-0.0499189 0.1106899 -0.0280394 255 0 0
-0.0476311 0.1106899 -0.0280394 255 0 0
-0.0453433 0.1106899 -0.0280394 255 0 0
-0.0430556 0.1106899 -0.0280394 255 0 0
-0.0407678 0.1106899 -0.0280394 255 0 0
-0.0384800 0.1106899 -0.0280394 255 0 0
-0.0361922 0.1106899 -0.0280394 255 0 0
-0.0339044 0.1106899 -0.0280394 255 0 0
-0.0316167 0.1106899 -0.0280394 255 0 0
-0.0293289 0.1106899 -0.0280394 255 0 0
-0.0270411 0.1106899 -0.0280394 255 0 0
-0.0247533 0.1106899 -0.0280394 255 0 0
-0.0224655 0.1106899 -0.0280394 255 0 0
-0.0201778 0.1106899 -0.0280394 255 0 0
-0.0178900 0.1106899 -0.0280394 255 0 0
-0.0156022 0.1106899 -0.0280394 255 0 0
-0.0133144 0.1106899 -0.0280394 255 0 0
-0.0110266 0.1106899 -0.0280394 255 0 0
-0.0087388 0.1106899 -0.0280394 255 0 0
-0.0064511 0.1106899 -0.0280394 255 0 0
-0.0041633 0.1106899 -0.0280394 255 0 0
-0.0018755 0.1106899 -0.0280394 255 0 0
0.0004123 0.1106899 -0.0280394 255 0 0
0.0027001 0.1106899 -0.0280394 255 0 0
0.0049878 0.1106899 -0.0280394 255 0 0
0.0072756 0.1106899 -0.0280394 255 0 0
0.0095634 0.1106899 -0.0280394 255 0 0
0.0118512 0.1106899 -0.0280394 255 0 0
-0.0933868 0.1129777 -0.0280394 255 0 0
-0.0910990 0.1129777 -0.0280394 255 0 0
-0.0888112 0.1129777 -0.0280394 255 0 0
-0.0865234 0.1129777 -0.0280394 255 0 0
-0.0842356 0.1129777 -0.0280394 255 0 0
-0.0819478 0.1129777 -0.0280394 255 0 0
-0.0796601 0.1129777 -0.0280394 255 0 0
-0.0773723 0.1129777 -0.0280394 255 0 0
-0.0750845 0.1129777 -0.0280394 255 0 0
-0.0727967 0.1129777 -0.0280394 255 0 0
-0.0705089 0.1129777 -0.0280394 255 0 0
-0.0682212 0.1129777 -0.0280394 255 0 0
-0.0659334 0.1129777 -0.0280394 255 0 0
-0.0636456 0.1129777 -0.0280394 255 0 0
-0.0613578 0.1129777 -0.0280394 255 0 0
-0.0590700 0.1129777 -0.0280394 255 0 0
-0.0567822 0.1129777 -0.0280394 255 0 0
-0.0544945 0.1129777 -0.0280394 255 0 0
-0.0522067 0.1129777 -0.0280394 255 0 0
-0.0499189 0.1129777 -0.0280394 255 0 0
-0.0476311 0.1129777 -0.0280394 255 0 0
-0.0453433 0.1129777 -0.0280394 255 0 0
-0.0430556 0.1129777 -0.0280394 255 0 0
-0.0407678 0.1129777 -0.0280394 255 0 0
-0.0384800 0.1129777 -0.0280394 255 0 0
-0.0361922 0.1129777 -0.0280394 255 0 0
-0.0339044 0.1129777 -0.0280394 255 0 0
-0.0316167 0.1129777 -0.0280394 255 0 0
-0.0293289 0.1129777 -0.0280394 255 0 0
-0.0270411 0.1129777 -0.0280394 255 0 0
-0.0247533 0.1129777 -0.0280394 255 0 0
-0.0224655 0.1129776 -0.0280394 255 0 0
-0.0201778 0.1129776 -0.0280394 255 0 0
-0.0178900 0.1129776 -0.0280394 255 0 0
-0.0156022 0.1129776 -0.0280394 255 0 0
-0.0133144 0.1129776 -0.0280394 255 0 0
-0.0110266 0.1129776 -0.0280394 255 0 0
-0.0087388 0.1129776 -0.0280394 255 0 0
-0.0064511 0.1129777 -0.0280394 255 0 0
-0.0041633 0.1129777 -0.0280394 255 0 0
-0.0018755 0.1129777 -0.0280394 255 0 0
0.0004123 0.1129777 -0.0280394 255 0 0
0.0027001 0.1129777 -0.0280394 255 0 0
0.0049878 0.1129777 -0.0280394 255 0 0
0.0072756 0.1129777 -0.0280394 255 0 0
0.0095634 0.1129777 -0.0280394 255 0 0
0.0118512 0.1129777 -0.0280394 255 0 0
-0.0910990 0.1152655 -0.0280394 255 0 0
-0.0888112 0.1152655 -0.0280394 255 0 0
-0.0865234 0.1152655 -0.0280394 255 0 0
-0.0842356 0.1152655 -0.0280394 255 0 0
-0.0819478 0.1152655 -0.0280394 255 0 0
-0.0796601 0.1152655 -0.0280394 255 0 0
-0.0773723 0.1152655 -0.0280394 255 0 0
-0.0750845 0.1152655 -0.0280394 255 0 0
-0.0727967 0.1152655 -0.0280394 255 0 0
-0.0705089 0.1152654 -0.0280394 255 0 0
-0.0682212 0.1152654 -0.0280394 255 0 0
-0.0659334 0.1152655 -0.0280394 255 0 0
-0.0636456 0.1152655 -0.0280394 255 0 0
-0.0613578 0.1152655 -0.0280394 255 0 0
-0.0590700 0.1152655 -0.0280394 255 0 0
-0.0567822 0.1152655 -0.0280394 255 0 0
-0.0544945 0.1152655 -0.0280394 255 0 0
-0.0522067 0.1152655 -0.0280394 255 0 0
-0.0499189 0.1152655 -0.0280394 255 0 0
-0.0476311 0.1152655 -0.0280394 255 0 0
-0.0453433 0.1152655 -0.0280394 255 0 0
-0.0430556 0.1152655 -0.0280394 255 0 0
-0.0407678 0.1152655 -0.0280394 255 0 0
-0.0384800 0.1152655 -0.0280394 255 0 0
-0.0361922 0.1152655 -0.0280394 255 0 0
-0.0339044 0.1152655 -0.0280394 255 0 0
-0.0316167 0.1152655 -0.0280394 255 0 0
-0.0293289 0.1152655 -0.0280394 255 0 0
-0.0270411 0.1152655 -0.0280394 255 0 0
-0.0247533 0.1152654 -0.0280394 255 0 0
-0.0224655 0.1152654 -0.0280394 255 0 0
-0.0201778 0.1152654 -0.0280394 255 0 0
-0.0178900 0.1152654 -0.0280394 255 0 0
-0.0156022 0.1152654 -0.0280394 255 0 0
-0.0133144 0.1152654 -0.0280394 255 0 0
-0.0110266 0.1152654 -0.0280394 255 0 0
-0.0087388 0.1152654 -0.0280394 255 0 0
-0.0064511 0.1152654 -0.0280394 255 0 0
-0.0041633 0.1152654 -0.0280394 255 0 0
-0.0018755 0.1152654 -0.0280394 255 0 0
0.0004123 0.1152655 -0.0280394 255 0 0
0.0027001 0.1152655 -0.0280394 255 0 0
0.0049878 0.1152655 -0.0280394 255 0 0
0.0072756 0.1152655 -0.0280394 255 0 0
0.0095634 0.1152655 -0.0280394 255 0 0
-0.0888112 0.1175532 -0.0280394 255 0 0
-0.0865234 0.1175532 -0.0280394 255 0 0
-0.0842356 0.1175532 -0.0280394 255 0 0
-0.0819478 0.1175532 -0.0280394 255 0 0
-0.0796601 0.1175532 -0.0280394 255 0 0
-0.0773723 0.1175532 -0.0280394 255 0 0
-0.0750845 0.1175532 -0.0280394 255 0 0
-0.0727967 0.1175532 -0.0280394 255 0 0
-0.0705089 0.1175532 -0.0280394 255 0 0
-0.0682212 0.1175532 -0.0280394 255 0 0
-0.0659334 0.1175532 -0.0280394 255 0 0
-0.0636456 0.1175532 -0.0280394 255 0 0
-0.0613578 0.1175532 -0.0280394 255 0 0
-0.0590700 0.1175532 -0.0280394 255 0 0
-0.0567822 0.1175532 -0.0280394 255 0 0
-0.0544945 0.1175532 -0.0280394 255 0 0
-0.0522067 0.1175532 -0.0280394 255 0 0
-0.0499189 0.1175532 -0.0280394 255 0 0
-0.0476311 0.1175532 -0.0280394 255 0 0
-0.0453433 0.1175532 -0.0280394 255 0 0
-0.0430556 0.1175532 -0.0280394 255 0 0
-0.0407678 0.1175532 -0.0280394 255 0 0
-0.0384800 0.1175532 -0.0280394 255 0 0
-0.0361922 0.1175532 -0.0280394 255 0 0
-0.0339044 0.1175532 -0.0280394 255 0 0
-0.0316167 0.1175532 -0.0280394 255 0 0
-0.0293289 0.1175532 -0.0280394 255 0 0
-0.0270411 0.1175532 -0.0280394 255 0 0
-0.0247533 0.1175532 -0.0280394 255 0 0
-0.0224655 0.1175531 -0.0280394 255 0 0
-0.0201778 0.1175531 -0.0280394 255 0 0
-0.0178900 0.1175531 -0.0280394 255 0 0
-0.0156022 0.1175531 -0.0280394 255 0 0
-0.0133144 0.1175531 -0.0280394 255 0 0
-0.0110266 0.1175531 -0.0280394 255 0 0
-0.0087388 0.1175531 -0.0280394 255 0 0
-0.0064511 0.1175531 -0.0280394 255 0 0
-0.0041633 0.1175532 -0.0280394 255 0 0
-0.0018755 0.1175532 -0.0280394 255 0 0
0.0004123 0.1175532 -0.0280394 255 0 0
0.0027001 0.1175532 -0.0280394 255 0 0
0.0049878 0.1175532 -0.0280394 255 0 0
0.0072756 0.1175532 -0.0280394 255 0 0
-0.0865234 0.1198410 -0.0280394 255 0 0
-0.0842356 0.1198410 -0.0280394 255 0 0
-0.0819478 0.1198410 -0.0280394 255 0 0
-0.0796601 0.1198410 -0.0280394 255 0 0
-0.0773723 0.1198410 -0.0280394 255 0 0
-0.0750845 0.1198410 -0.0280394 255 0 0
-0.0727967 0.1198410 -0.0280394 255 0 0
-0.0705089 0.1198409 -0.0280394 255 0 0
-0.0682212 0.1198409 -0.0280394 255 0 0
-0.0659334 0.1198409 -0.0280394 255 0 0
-0.0636456 0.1198409 -0.0280394 255 0 0
-0.0613578 0.1198409 -0.0280394 255 0 0
-0.0590700 0.1198410 -0.0280394 255 0 0
-0.0567822 0.1198409 -0.0280394 255 0 0
-0.0544945 0.1198409 -0.0280394 255 0 0
-0.0522067 0.1198410 -0.0280394 255 0 0
-0.0499189 0.1198410 -0.0280394 255 0 0
-0.0476311 0.1198410 -0.0280394 255 0 0
-0.0453433 0.1198409 -0.0280394 255 0 0
-0.0430556 0.1198409 -0.0280394 255 0 0
-0.0407678 0.1198409 -0.0280394 255 0 0
-0.0384800 0.1198409 -0.0280394 255 0 0
-0.0361922 0.1198410 -0.0280394 255 0 0
-0.0339044 0.1198410 -0.0280394 255 0 0
-0.0316167 0.1198410 -0.0280394 255 0 0
-0.0293289 0.1198410 -0.0280394 255 0 0
-0.0270411 0.1198410 -0.0280394 255 0 0
-0.0247533 0.1198409 -0.0280394 255 0 0
-0.0224655 0.1198408 -0.0280394 255 0 0
-0.0201778 0.1198408 -0.0280394 255 0 0
-0.0178900 0.1198408 -0.0280394 255 0 0
-0.0156022 0.1198407 -0.0280394 255 0 0
-0.0133144 0.1198407 -0.0280394 255 0 0
-0.0110266 0.1198407 -0.0280394 255 0 0
-0.0087388 0.1198408 -0.0280394 255 0 0
-0.0064511 0.1198408 -0.0280394 255 0 0
-0.0041633 0.1198409 -0.0280394 255 0 0
-0.0018755 0.1198409 -0.0280394 255 0 0
0.0004124 0.1198410 -0.0280394 255 0 0
0.0027001 0.1198410 -0.0280394 255 0 0
0.0049878 0.1198410 -0.0280394 255 0 0
-0.0842356 0.1221288 -0.0280394 255 0 0
-0.0819478 0.1221288 -0.0280394 255 0 0
-0.0796601 0.1221288 -0.0280394 255 0 0
-0.0773723 0.1221288 -0.0280394 255 0 0
-0.0750845 0.1221287 -0.0280394 255 0 0
-0.0727967 0.1221288 -0.0280394 255 0 0
-0.0705089 0.1221286 -0.0280394 255 0 0
-0.0682212 0.1221285 -0.0280394 255 0 0
-0.0659334 0.1221285 -0.0280395 255 0 0
-0.0636456 0.1221286 -0.0280395 255 0 0
-0.0613578 0.1221286 -0.0280395 255 0 0
-0.0590700 0.1221286 -0.0280395 255 0 0
-0.0567822 0.1221286 -0.0280395 255 0 0
-0.0544945 0.1221286 -0.0280394 255 0 0
-0.0522067 0.1221287 -0.0280394 255 0 0
-0.0499189 0.1221287 -0.0280394 255 0 0
-0.0476311 0.1221287 -0.0280394 255 0 0
-0.0453433 0.1221287 -0.0280394 255 0 0
-0.0430556 0.1221287 -0.0280394 255 0 0
-0.0407678 0.1221287 -0.0280394 255 0 0
-0.0384800 0.1221286 -0.0280394 255 0 0
-0.0361922 0.1221286 -0.0280394 255 0 0
-0.0339044 0.1221286 -0.0280394 255 0 0
-0.0316167 0.1221287 -0.0280394 255 0 0
-0.0293289 0.1221287 -0.0280394 255 0 0
-0.0270411 0.1221287 -0.0280394 255 0 0
-0.0247533 0.1221286 -0.0280394 255 0 0
-0.0224655 0.1221285 -0.0280394 255 0 0
-0.0201778 0.1221284 -0.0280394 255 0 0
-0.0178900 0.1221283 -0.0280394 255 0 0
-0.0156022 0.1221283 -0.0280394 255 0 0
-0.0133144 0.1221282 -0.0280394 255 0 0
-0.0110266 0.1221283 -0.0280394 255 0 0
-0.0087388 0.1221283 -0.0280394 255 0 0
-0.0064511 0.1221284 -0.0280394 255 0 0
-0.0041633 0.1221285 -0.0280394 255 0 0
-0.0018754 0.1221286 -0.0280394 255 0 0
0.0004124 0.1221287 -0.0280394 255 0 0
0.0027001 0.1221288 -0.0280394 255 0 0
-0.0842356 0.1244166 -0.0280394 255 0 0
-0.0819478 0.1244166 -0.0280394 255 0 0
-0.0796601 0.1244166 -0.0280394 255 0 0
-0.0773723 0.1244165 -0.0280394 255 0 0
-0.0750845 0.1244165 -0.0280394 255 0 0
-0.0727967 0.1244165 -0.0280394 255 0 0
-0.0705089 0.1244160 -0.0280395 255 0 0
-0.0682212 0.1244157 -0.0280395 255 0 0
-0.0659334 0.1244160 -0.0280396 255 0 0
-0.0636456 0.1244160 -0.0280396 255 0 0
-0.0613577 0.1244161 -0.0280396 255 0 0
-0.0590700 0.1244161 -0.0280396 255 0 0
-0.0567822 0.1244162 -0.0280396 255 0 0
-0.0544944 0.1244162 -0.0280396 255 0 0
-0.0522067 0.1244163 -0.0280395 255 0 0
-0.0499189 0.1244163 -0.0280395 255 0 0
-0.0476311 0.1244163 -0.0280395 255 0 0
-0.0453433 0.1244163 -0.0280395 255 0 0
-0.0430555 0.1244163 -0.0280395 255 0 0
-0.0407678 0.1244163 -0.0280395 255 0 0
-0.0384800 0.1244163 -0.0280394 255 0 0
-0.0361922 0.1244163 -0.0280394 255 0 0
-0.0339044 0.1244163 -0.0280394 255 0 0
-0.0316167 0.1244162 -0.0280394 255 0 0
-0.0293289 0.1244163 -0.0280394 255 0 0
-0.0270411 0.1244163 -0.0280394 255 0 0
-0.0247533 0.1244161 -0.0280394 255 0 0
-0.0224655 0.1244159 -0.0280394 255 0 0
-0.0201778 0.1244158 -0.0280394 255 0 0
-0.0178900 0.1244157 -0.0280394 255 0 0
-0.0156022 0.1244154 -0.0280394 255 0 0
-0.0133144 0.1244153 -0.0280394 255 0 0
-0.0110266 0.1244154 -0.0280394 255 0 0
-0.0087388 0.1244156 -0.0280394 255 0 0
-0.0064511 0.1244159 -0.0280394 255 0 0
-0.0041633 0.1244161 -0.0280394 255 0 0
-0.0018751 0.1244163 -0.0280394 255 0 0
0.0004124 0.1244165 -0.0280394 255 0 0
-0.0796601 0.1267044 -0.0280394 255 0 0
-0.0773723 0.1267043 -0.0280394 255 0 0
-0.0750845 0.1267042 -0.0280394 255 0 0
-0.0727967 0.1267042 -0.0280395 255 0 0
-0.0705089 0.1267031 -0.0280396 255 0 0
-0.0682211 0.1267025 -0.0280397 255 0 0
-0.0659333 0.1267031 -0.0280397 255 0 0
-0.0636455 0.1267035 -0.0280398 255 0 0
-0.0613576 0.1267034 -0.0280399 255 0 0
-0.0590698 0.1267035 -0.0280399 255 0 0
-0.0567821 0.1267037 -0.0280398 255 0 0
-0.0544944 0.1267037 -0.0280397 255 0 0
-0.0522066 0.1267038 -0.0280396 255 0 0
-0.0499189 0.1267038 -0.0280396 255 0 0
-0.0476311 0.1267041 -0.0280395 255 0 0
-0.0453433 0.1267040 -0.0280395 255 0 0
-0.0430556 0.1267039 -0.0280395 255 0 0
-0.0407678 0.1267039 -0.0280395 255 0 0
-0.0384800 0.1267040 -0.0280395 255 0 0
-0.0361922 0.1267040 -0.0280395 255 0 0
-0.0339044 0.1267039 -0.0280395 255 0 0
-0.0316167 0.1267039 -0.0280394 255 0 0
-0.0293289 0.1267040 -0.0280394 255 0 0
-0.0270411 0.1267039 -0.0280394 255 0 0
-0.0247533 0.1267035 -0.0280394 255 0 0
-0.0224655 0.1267032 -0.0280394 255 0 0
-0.0201778 0.1267029 -0.0280394 255 0 0
-0.0178900 0.1267026 -0.0280394 255 0 0
-0.0156022 0.1267018 -0.0280394 255 0 0
-0.0133144 0.1267017 -0.0280394 255 0 0
-0.0110266 0.1267020 -0.0280394 255 0 0
-0.0087388 0.1267025 -0.0280394 255 0 0
-0.0064495 0.1267031 -0.0280394 255 0 0
-0.0041633 0.1267036 -0.0280394 255 0 0
-0.0018751 0.1267039 -0.0280394 255 0 0
-0.0773723 0.1289920 -0.0280394 255 0 0
-0.0750845 0.1289916 -0.0280395 255 0 0
-0.0727967 0.1289918 -0.0280396 255 0 0
-0.0705088 0.1289889 -0.0280398 255 0 0
-0.0682210 0.1289875 -0.0280400 255 0 0
-0.0659331 0.1289890 -0.0280402 255 0 0
-0.0636452 0.1289900 -0.0280404 255 0 0
-0.0613573 0.1289901 -0.0280405 255 0 0
-0.0590696 0.1289903 -0.0280405 255 0 0
-0.0567819 0.1289906 -0.0280403 255 0 0
-0.0544942 0.1289909 -0.0280401 255 0 0
-0.0522065 0.1289912 -0.0280399 255 0 0
-0.0499188 0.1289913 -0.0280398 255 0 0
-0.0476311 0.1289913 -0.0280397 255 0 0
-0.0453433 0.1289913 -0.0280397 255 0 0
-0.0430555 0.1289912 -0.0280397 255 0 0
-0.0407677 0.1289913 -0.0280397 255 0 0
-0.0384800 0.1289913 -0.0280396 255 0 0
-0.0361922 0.1289913 -0.0280396 255 0 0
-0.0339044 0.1289912 -0.0280395 255 0 0
-0.0316166 0.1289913 -0.0280395 255 0 0
-0.0293289 0.1289911 -0.0280395 255 0 0
-0.0270411 0.1289910 -0.0280394 255 0 0
-0.0247533 0.1289906 -0.0280394 255 0 0
-0.0224655 0.1289898 -0.0280394 255 0 0
-0.0201778 0.1289891 -0.0280394 255 0 0
-0.0178900 0.1289882 -0.0280394 255 0 0
-0.0156022 0.1289865 -0.0280394 255 0 0
-0.0133144 0.1289860 -0.0280394 255 0 0
-0.0110235 0.1289868 -0.0280394 255 0 0
-0.0087357 0.1289881 -0.0280394 255 0 0
-0.0064495 0.1289897 -0.0280394 255 0 0
-0.0727966 0.1312844 -0.0280400 255 0 0
-0.0705081 0.1312521 -0.0280416 255 0 0
-0.0682207 0.1312461 -0.0280403 255 0 0
-0.0659314 0.1312862 -0.0280444 255 0 0
-0.0636426 0.1312844 -0.0280464 255 0 0
-0.0613524 0.1312770 -0.0280508 255 0 0
-0.0590644 0.1312786 -0.0280502 255 0 0
-0.0567785 0.1312871 -0.0280457 255 0 0
-0.0544923 0.1312831 -0.0280432 255 0 0
-0.0522055 0.1312766 -0.0280420 255 0 0
-0.0499185 0.1312765 -0.0280413 255 0 0
-0.0476313 0.1312767 -0.0280409 255 0 0
-0.0453429 0.1312758 -0.0280411 255 0 0
-0.0430549 0.1312767 -0.0280413 255 0 0
-0.0407672 0.1312766 -0.0280410 255 0 0
-0.0384795 0.1312768 -0.0280407 255 0 0
-0.0361917 0.1312771 -0.0280405 255 0 0
-0.0339040 0.1312772 -0.0280406 255 0 0
-0.0316163 0.1312769 -0.0280406 255 0 0
-0.0293286 0.1312773 -0.0280403 255 0 0
-0.0270409 0.1312764 -0.0280400 255 0 0
-0.0247532 0.1313084 -0.0280396 255 0 0
-0.0224655 0.1313105 -0.0280394 255 0 0
-0.0201777 0.1313058 -0.0280394 255 0 0
-0.0178899 0.1312694 -0.0280394 255 0 0
-0.0156021 0.1312545 -0.0280394 255 0 0
-0.0133113 0.1312580 -0.0280393 255 0 0
-0.0110235 0.1312652 -0.0280393 255 0 0
-0.0659356 0.1335606 -0.0280334 255 0 0
-0.0636496 0.1335440 -0.0280303 255 0 0
-0.0613668 0.1335574 -0.0280197 255 0 0
-0.0590797 0.1335581 -0.0280196 255 0 0
-0.0567881 0.1335462 -0.0280292 255 0 0
-0.0544977 0.1335392 -0.0280343 255 0 0
-0.0522082 0.1335356 -0.0280366 255 0 0
-0.0499194 0.1335336 -0.0280374 255 0 0
-0.0476308 0.1335329 -0.0280374 255 0 0
-0.0453439 0.1335350 -0.0280361 255 0 0
-0.0430566 0.1335355 -0.0280355 255 0 0
-0.0407685 0.1335348 -0.0280358 255 0 0
-0.0384806 0.1335340 -0.0280362 255 0 0
-0.0361929 0.1335336 -0.0280367 255 0 0
-0.0339051 0.1335336 -0.0280370 255 0 0
-0.0316172 0.1335340 -0.0280375 255 0 0
-0.0293293 0.1335340 -0.0280380 255 0 0
-0.0270415 0.1335353 -0.0280384 255 0 0
-0.0247534 0.1335383 -0.0280390 255 0 0
-0.0224656 0.1335410 -0.0280395 255 0 0
-0.0201778 0.1335501 -0.0280389 255 0 0
-0.0499189 0.0351931 -0.0257516 255 0 0
-0.0476311 0.0351931 -0.0257516 255 0 0
-0.0567822 0.0374809 -0.0257516 255 0 0
-0.0544945 0.0374809 -0.0257516 255 0 0
-0.0522067 0.0374809 -0.0257516 255 0 0
-0.0499189 0.0374809 -0.0257516 255 0 0
-0.0476311 0.0374809 -0.0257516 255 0 0
-0.0453433 0.0374809 -0.0257516 255 0 0
-0.0430556 0.0374809 -0.0257516 255 0 0
-0.0407678 0.0374809 -0.0257516 255 0 0
-0.0384800 0.0374808 -0.0257516 255 0 0
-0.0361922 0.0374808 -0.0257516 255 0 0
-0.0339044 0.0374809 -0.0257516 255 0 0
-0.0316167 0.0374808 -0.0257516 255 0 0
-0.0293289 0.0374808 -0.0257516 255 0 0
-0.0270411 0.0374808 -0.0257517 255 0 0
-0.0247533 0.0374808 -0.0257516 255 0 0
-0.0224656 0.0374808 -0.0257515 255 0 0
-0.0613578 0.0397687 -0.0257516 255 0 0
-0.0590700 0.0397687 -0.0257516 255 0 0
-0.0567822 0.0397687 -0.0257516 255 0 0
-0.0544945 0.0397687 -0.0257516 255 0 0
-0.0522067 0.0397687 -0.0257516 255 0 0
-0.0499189 0.0397687 -0.0257516 255 0 0
-0.0476311 0.0397687 -0.0257516 255 0 0
-0.0453433 0.0397687 -0.0257516 255 0 0
-0.0430556 0.0397687 -0.0257516 255 0 0
-0.0407678 0.0397686 -0.0257516 255 0 0
-0.0384800 0.0397686 -0.0257516 255 0 0
-0.0361922 0.0397686 -0.0257516 255 0 0
-0.0339044 0.0397686 -0.0257516 255 0 0
-0.0316167 0.0397686 -0.0257516 255 0 0
-0.0293289 0.0397686 -0.0257516 255 0 0
-0.0270410 0.0397685 -0.0257517 255 0 0
-0.0247533 0.0397686 -0.0257516 255 0 0
-0.0224656 0.0397686 -0.0257515 255 0 0
-0.0201778 0.0397686 -0.0257515 255 0 0
-0.0178900 0.0397685 -0.0257516 255 0 0
-0.0156022 0.0397685 -0.0257516 255 0 0
-0.0636456 0.0420564 -0.0257516 255 0 0
-0.0613578 0.0420564 -0.0257516 255 0 0
-0.0590700 0.0420564 -0.0257516 255 0 0
-0.0567822 0.0420564 -0.0257516 255 0 0
-0.0544945 0.0420564 -0.0257516 255 0 0
-0.0522067 0.0420564 -0.0257516 255 0 0
-0.0499189 0.0420564 -0.0257516 255 0 0
-0.0476311 0.0420564 -0.0257516 255 0 0
-0.0453433 0.0420564 -0.0257516 255 0 0
-0.0430556 0.0420564 -0.0257516 255 0 0
-0.0407678 0.0420564 -0.0257516 255 0 0
-0.0384800 0.0420564 -0.0257516 255 0 0
-0.0361922 0.0420564 -0.0257516 255 0 0
-0.0339044 0.0420564 -0.0257516 255 0 0
-0.0316166 0.0420563 -0.0257517 255 0 0
-0.0293288 0.0420563 -0.0257517 255 0 0
-0.0270409 0.0420556 -0.0257518 255 0 0
-0.0247534 0.0420564 -0.0257515 255 0 0
-0.0224657 0.0420566 -0.0257513 255 0 0
-0.0201778 0.0420564 -0.0257515 255 0 0
-0.0178900 0.0420563 -0.0257516 255 0 0
-0.0156022 0.0420562 -0.0257516 255 0 0
-0.0133144 0.0420562 -0.0257516 255 0 0
-0.0682212 0.0443442 -0.0257516 255 0 0
-0.0659334 0.0443442 -0.0257516 255 0 0
-0.0636456 0.0443442 -0.0257516 255 0 0
-0.0613578 0.0443442 -0.0257516 255 0 0
-0.0590700 0.0443442 -0.0257516 255 0 0
