ply
format ascii 1.0
element vertex 1196
property float x
property float y
property float z
property uchar red
property uchar green
property uchar blue
end_header
-0.0269909 0.0809060 -0.0437864 255 0 0
-0.0247696 0.0808974 -0.0438032 255 0 0
-0.0225209 0.0808950 -0.0438206 255 0 0
-0.0201773 0.0808913 -0.0438405 255 0 0
-0.0178527 0.0808882 -0.0438782 255 0 0
-0.0155492 0.0808906 -0.0439254 255 0 0
-0.0132542 0.0808904 -0.0439716 255 0 0
-0.0109630 0.0808952 -0.0440207 255 0 0
-0.0086776 0.0808981 -0.0440621 255 0 0
-0.0063969 0.0809036 -0.0440996 255 0 0
-0.0041161 0.0809044 -0.0441255 255 0 0
-0.0018219 0.0809466 -0.0441077 255 0 0
-0.0796601 0.0831972 -0.0441903 255 0 0
-0.0773723 0.0832021 -0.0441713 255 0 0
-0.0750845 0.0832020 -0.0441484 255 0 0
-0.0727967 0.0831963 -0.0441206 255 0 0
-0.0705705 0.0831949 -0.0440587 255 0 0
-0.0682851 0.0831906 -0.0440033 255 0 0
-0.0659971 0.0831898 -0.0439621 255 0 0
-0.0637085 0.0831899 -0.0439207 255 0 0
-0.0614004 0.0831925 -0.0438715 255 0 0
-0.0591019 0.0831940 -0.0438318 255 0 0
-0.0568022 0.0831985 -0.0438126 255 0 0
-0.0544945 0.0831990 -0.0437935 255 0 0
-0.0522067 0.0832004 -0.0437822 255 0 0
-0.0499189 0.0832050 -0.0437763 255 0 0
-0.0476297 0.0832083 -0.0437730 255 0 0
-0.0453744 0.0832092 -0.0437692 255 0 0
-0.0431124 0.0832102 -0.0437683 255 0 0
-0.0407826 0.0832099 -0.0437717 255 0 0
-0.0384800 0.0832097 -0.0437737 255 0 0
-0.0361922 0.0832091 -0.0437734 255 0 0
-0.0338763 0.0832082 -0.0437733 255 0 0
-0.0315844 0.0832070 -0.0437737 255 0 0
-0.0292923 0.0832038 -0.0437747 255 0 0
-0.0269928 0.0832012 -0.0437791 255 0 0
-0.0247767 0.0831916 -0.0437843 255 0 0
-0.0225253 0.0831877 -0.0438006 255 0 0
-0.0201831 0.0831852 -0.0438190 255 0 0
-0.0178536 0.0831817 -0.0438440 255 0 0
-0.0155541 0.0831780 -0.0438850 255 0 0
-0.0132532 0.0831795 -0.0439316 255 0 0
-0.0109603 0.0831793 -0.0439903 255 0 0
-0.0086726 0.0831841 -0.0440381 255 0 0
-0.0063916 0.0831838 -0.0440717 255 0 0
-0.0041136 0.0831920 -0.0441081 255 0 0
-0.0018248 0.0832001 -0.0441206 255 0 0
0.0004184 0.0831556 -0.0442207 255 0 0
-0.0819478 0.0854796 -0.0442021 255 0 0
-0.0796601 0.0854845 -0.0441764 255 0 0
-0.0773723 0.0854908 -0.0441578 255 0 0
-0.0750845 0.0854886 -0.0441366 255 0 0
-0.0727967 0.0854861 -0.0441086 255 0 0
-0.0705706 0.0854878 -0.0440429 255 0 0
-0.0682845 0.0854882 -0.0439874 255 0 0
-0.0659963 0.0854874 -0.0439286 255 0 0
-0.0637079 0.0854881 -0.0438850 255 0 0
-0.0613960 0.0854909 -0.0438420 255 0 0
-0.0591012 0.0854934 -0.0438167 255 0 0
-0.0567867 0.0854975 -0.0437984 255 0 0
-0.0544945 0.0854978 -0.0437860 255 0 0
-0.0522056 0.0854987 -0.0437787 255 0 0
-0.0499183 0.0855007 -0.0437739 255 0 0
-0.0476293 0.0855012 -0.0437705 255 0 0
-0.0453740 0.0855038 -0.0437678 255 0 0
-0.0431082 0.0855046 -0.0437664 255 0 0
-0.0407826 0.0855043 -0.0437706 255 0 0
-0.0384800 0.0855038 -0.0437726 255 0 0
-0.0361922 0.0855034 -0.0437717 255 0 0
-0.0338811 0.0855013 -0.0437715 255 0 0
-0.0315847 0.0854998 -0.0437717 255 0 0
-0.0292951 0.0854987 -0.0437723 255 0 0
-0.0269946 0.0854977 -0.0437746 255 0 0
-0.0247812 0.0854932 -0.0437790 255 0 0
-0.0225284 0.0854889 -0.0437882 255 0 0
-0.0201857 0.0854858 -0.0438018 255 0 0
-0.0178545 0.0854800 -0.0438257 255 0 0
-0.0155569 0.0854732 -0.0438487 255 0 0
-0.0132531 0.0854729 -0.0438938 255 0 0
-0.0109586 0.0854685 -0.0439587 255 0 0
-0.0086693 0.0854760 -0.0440063 255 0 0
-0.0063882 0.0854722 -0.0440541 255 0 0
-0.0041118 0.0854757 -0.0440927 255 0 0
-0.0018266 0.0854769 -0.0441102 255 0 0
0.0004201 0.0854600 -0.0441938 255 0 0
-0.0819478 0.0877550 -0.0441992 255 0 0
-0.0796601 0.0877611 -0.0441735 255 0 0
-0.0773723 0.0877641 -0.0441528 255 0 0
-0.0750845 0.0877570 -0.0441211 255 0 0
-0.0727967 0.0877610 -0.0440969 255 0 0
-0.0705713 0.0877512 -0.0440099 255 0 0
-0.0683062 0.0877305 -0.0439473 255 0 0
-0.0659963 0.0877314 -0.0438891 255 0 0
-0.0637072 0.0877316 -0.0438463 255 0 0
-0.0613978 0.0877306 -0.0438191 255 0 0
-0.0591005 0.0877329 -0.0437996 255 0 0
-0.0567833 0.0877315 -0.0437805 255 0 0
-0.0544945 0.0877331 -0.0437713 255 0 0
-0.0522008 0.0877340 -0.0437660 255 0 0
-0.0499176 0.0877364 -0.0437632 255 0 0
-0.0476187 0.0877374 -0.0437622 255 0 0
-0.0453737 0.0877401 -0.0437601 255 0 0
-0.0431142 0.0877422 -0.0437596 255 0 0
-0.0407839 0.0877435 -0.0437624 255 0 0
-0.0384800 0.0877433 -0.0437639 255 0 0
-0.0361921 0.0877414 -0.0437634 255 0 0
-0.0338870 0.0877400 -0.0437630 255 0 0
-0.0315850 0.0877373 -0.0437624 255 0 0
-0.0292974 0.0877357 -0.0437622 255 0 0
-0.0269952 0.0877347 -0.0437640 255 0 0
-0.0247832 0.0877286 -0.0437645 255 0 0
-0.0225382 0.0877265 -0.0437691 255 0 0
-0.0201946 0.0877249 -0.0437779 255 0 0
-0.0178714 0.0877234 -0.0437984 255 0 0
-0.0155646 0.0877235 -0.0438145 255 0 0
-0.0132593 0.0877187 -0.0438497 255 0 0
-0.0109593 0.0877198 -0.0438983 255 0 0
-0.0086652 0.0877259 -0.0439536 255 0 0
-0.0063771 0.0877323 -0.0440101 255 0 0
-0.0041006 0.0877414 -0.0440613 255 0 0
-0.0018177 0.0877476 -0.0441023 255 0 0
0.0004267 0.0877426 -0.0441702 255 0 0
0.0026975 0.0877307 -0.0442161 255 0 0
-0.0819478 0.0900347 -0.0441947 255 0 0
-0.0796601 0.0900416 -0.0441696 255 0 0
-0.0773723 0.0900438 -0.0441492 255 0 0
-0.0750845 0.0900363 -0.0441112 255 0 0
-0.0727986 0.0900354 -0.0440925 255 0 0
-0.0705835 0.0900176 -0.0439965 255 0 0
-0.0683079 0.0900051 -0.0439202 255 0 0
-0.0659960 0.0900059 -0.0438639 255 0 0
-0.0637064 0.0900022 -0.0438273 255 0 0
-0.0613975 0.0900003 -0.0438074 255 0 0
-0.0590991 0.0900001 -0.0437913 255 0 0
-0.0567825 0.0900024 -0.0437751 255 0 0
-0.0544945 0.0900011 -0.0437677 255 0 0
-0.0521984 0.0900123 -0.0437424 255 0 0
-0.0499132 0.0900099 -0.0437330 255 0 0
-0.0476249 0.0900067 -0.0437248 255 0 0
-0.0453734 0.0900060 -0.0437226 255 0 0
-0.0431062 0.0900068 -0.0437233 255 0 0
-0.0407839 0.0900093 -0.0437284 255 0 0
-0.0384800 0.0900095 -0.0437346 255 0 0
-0.0361917 0.0900086 -0.0437297 255 0 0
-0.0338877 0.0900076 -0.0437281 255 0 0
-0.0315853 0.0900061 -0.0437267 255 0 0
-0.0292989 0.0900046 -0.0437261 255 0 0
-0.0269974 0.0900046 -0.0437285 255 0 0
-0.0247851 0.0900025 -0.0437287 255 0 0
-0.0225399 0.0900014 -0.0437367 255 0 0
-0.0202028 0.0899929 -0.0437697 255 0 0
-0.0178736 0.0899942 -0.0437797 255 0 0
-0.0155689 0.0899931 -0.0437925 255 0 0
-0.0132657 0.0899932 -0.0438196 255 0 0
-0.0109599 0.0899947 -0.0438570 255 0 0
-0.0086630 0.0900008 -0.0439118 255 0 0
-0.0063709 0.0900055 -0.0439810 255 0 0
-0.0040940 0.0900186 -0.0440395 255 0 0
-0.0018121 0.0900203 -0.0440955 255 0 0
0.0004307 0.0900205 -0.0441570 255 0 0
0.0027000 0.0900169 -0.0442043 255 0 0
-0.0842395 0.0923082 -0.0442088 255 0 0
-0.0819478 0.0923187 -0.0441805 255 0 0
-0.0796601 0.0923286 -0.0441638 255 0 0
-0.0773723 0.0923263 -0.0441424 255 0 0
-0.0750845 0.0923240 -0.0441071 255 0 0
-0.0727972 0.0923255 -0.0440843 255 0 0
-0.0705705 0.0923221 -0.0439944 255 0 0
-0.0683070 0.0923129 -0.0439233 255 0 0
-0.0659949 0.0923130 -0.0438742 255 0 0
-0.0637057 0.0923135 -0.0438344 255 0 0
-0.0613900 0.0923133 -0.0438111 255 0 0
-0.0590992 0.0923094 -0.0437955 255 0 0
-0.0567823 0.0923028 -0.0437805 255 0 0
-0.0544945 0.0923031 -0.0437691 255 0 0
-0.0521935 0.0923040 -0.0437642 255 0 0
-0.0499076 0.0923045 -0.0437609 255 0 0
-0.0476173 0.0923038 -0.0437597 255 0 0
-0.0453729 0.0923033 -0.0437587 255 0 0
-0.0431155 0.0923031 -0.0437583 255 0 0
-0.0407845 0.0923029 -0.0437611 255 0 0
-0.0384800 0.0923031 -0.0437624 255 0 0
-0.0361922 0.0923027 -0.0437621 255 0 0
-0.0338878 0.0923019 -0.0437612 255 0 0
-0.0315858 0.0923013 -0.0437608 255 0 0
-0.0292986 0.0923005 -0.0437603 255 0 0
-0.0269956 0.0922998 -0.0437612 255 0 0
-0.0247842 0.0922969 -0.0437592 255 0 0
-0.0225418 0.0922951 -0.0437613 255 0 0
-0.0202009 0.0922941 -0.0437700 255 0 0
-0.0178739 0.0922926 -0.0437837 255 0 0
-0.0155708 0.0922870 -0.0437966 255 0 0
-0.0132671 0.0922957 -0.0438204 255 0 0
-0.0109630 0.0923027 -0.0438573 255 0 0
-0.0086638 0.0923054 -0.0439119 255 0 0
-0.0063718 0.0923094 -0.0439719 255 0 0
-0.0040950 0.0923116 -0.0440339 255 0 0
-0.0018126 0.0923118 -0.0440883 255 0 0
0.0004298 0.0923019 -0.0441526 255 0 0
0.0026985 0.0922967 -0.0441987 255 0 0
-0.0842370 0.0945968 -0.0441998 255 0 0
-0.0819478 0.0946041 -0.0441738 255 0 0
-0.0796601 0.0946132 -0.0441563 255 0 0
-0.0773723 0.0946122 -0.0441380 255 0 0
-0.0750845 0.0946094 -0.0441043 255 0 0
-0.0727976 0.0946130 -0.0440810 255 0 0
-0.0705694 0.0946098 -0.0439942 255 0 0
-0.0682830 0.0946090 -0.0439309 255 0 0
-0.0659939 0.0946080 -0.0438812 255 0 0
-0.0637047 0.0946104 -0.0438440 255 0 0
-0.0613886 0.0946050 -0.0438156 255 0 0
-0.0590992 0.0946052 -0.0438005 255 0 0
-0.0567822 0.0945984 -0.0437804 255 0 0
-0.0544945 0.0945984 -0.0437719 255 0 0
-0.0521935 0.0945979 -0.0437664 255 0 0
-0.0499068 0.0945982 -0.0437634 255 0 0
-0.0476173 0.0945980 -0.0437623 255 0 0
-0.0453725 0.0945975 -0.0437614 255 0 0
-0.0431161 0.0945971 -0.0437610 255 0 0
-0.0407850 0.0945968 -0.0437636 255 0 0
-0.0384800 0.0945964 -0.0437648 255 0 0
-0.0361922 0.0945959 -0.0437644 255 0 0
-0.0338878 0.0945954 -0.0437640 255 0 0
-0.0315863 0.0945949 -0.0437636 255 0 0
-0.0292983 0.0945942 -0.0437630 255 0 0
-0.0269954 0.0945938 -0.0437638 255 0 0
-0.0247843 0.0945924 -0.0437630 255 0 0
-0.0225418 0.0945913 -0.0437650 255 0 0
-0.0202002 0.0945893 -0.0437733 255 0 0
-0.0178742 0.0945896 -0.0437843 255 0 0
-0.0155698 0.0945903 -0.0438029 255 0 0
-0.0132669 0.0945973 -0.0438263 255 0 0
-0.0109633 0.0946006 -0.0438642 255 0 0
-0.0086644 0.0946012 -0.0439137 255 0 0
-0.0063729 0.0946024 -0.0439708 255 0 0
-0.0040957 0.0946008 -0.0440337 255 0 0
-0.0018132 0.0946000 -0.0440873 255 0 0
0.0004290 0.0945906 -0.0441472 255 0 0
0.0026976 0.0945810 -0.0441958 255 0 0
-0.0842366 0.0968817 -0.0441982 255 0 0
-0.0819478 0.0968905 -0.0441724 255 0 0
-0.0796601 0.0968991 -0.0441533 255 0 0
-0.0773723 0.0969022 -0.0441373 255 0 0
-0.0750845 0.0968989 -0.0441041 255 0 0
-0.0728058 0.0969067 -0.0440808 255 0 0
-0.0705687 0.0969092 -0.0439956 255 0 0
-0.0682822 0.0969127 -0.0439387 255 0 0
-0.0659933 0.0969137 -0.0438868 255 0 0
-0.0637042 0.0969140 -0.0438482 255 0 0
-0.0613887 0.0969127 -0.0438227 255 0 0
-0.0590989 0.0969117 -0.0438001 255 0 0
-0.0567825 0.0969130 -0.0437805 255 0 0
-0.0544945 0.0969095 -0.0437714 255 0 0
-0.0521934 0.0969074 -0.0437662 255 0 0
-0.0499119 0.0969047 -0.0437633 255 0 0
-0.0476169 0.0969020 -0.0437620 255 0 0
-0.0453722 0.0969011 -0.0437610 255 0 0
-0.0431166 0.0968991 -0.0437605 255 0 0
-0.0407851 0.0968983 -0.0437633 255 0 0
-0.0384800 0.0968976 -0.0437647 255 0 0
-0.0361922 0.0968973 -0.0437644 255 0 0
-0.0338875 0.0968969 -0.0437636 255 0 0
-0.0315865 0.0968965 -0.0437628 255 0 0
-0.0292982 0.0968964 -0.0437623 255 0 0
-0.0269954 0.0968960 -0.0437633 255 0 0
-0.0247848 0.0968960 -0.0437626 255 0 0
-0.0225422 0.0969005 -0.0437643 255 0 0
-0.0201995 0.0968998 -0.0437728 255 0 0
-0.0178742 0.0969017 -0.0437870 255 0 0
-0.0155695 0.0969044 -0.0438031 255 0 0
-0.0132667 0.0969053 -0.0438297 255 0 0
-0.0109636 0.0969072 -0.0438706 255 0 0
-0.0086649 0.0969048 -0.0439193 255 0 0
-0.0063745 0.0969056 -0.0439781 255 0 0
-0.0040961 0.0968955 -0.0440400 255 0 0
-0.0018138 0.0968938 -0.0440884 255 0 0
0.0004283 0.0968787 -0.0441468 255 0 0
0.0026971 0.0968674 -0.0441964 255 0 0
-0.0842380 0.0991681 -0.0441979 255 0 0
-0.0819478 0.0991772 -0.0441720 255 0 0
-0.0796601 0.0991876 -0.0441527 255 0 0
-0.0773723 0.0991947 -0.0441364 255 0 0
-0.0750845 0.0991938 -0.0441118 255 0 0
-0.0728046 0.0991963 -0.0440804 255 0 0
-0.0705680 0.0992012 -0.0440044 255 0 0
-0.0682812 0.0992088 -0.0439465 255 0 0
-0.0659925 0.0992077 -0.0438980 255 0 0
-0.0637034 0.0992078 -0.0438615 255 0 0
-0.0613888 0.0992037 -0.0438312 255 0 0
-0.0590986 0.0992054 -0.0438055 255 0 0
-0.0567832 0.0992052 -0.0437876 255 0 0
-0.0544945 0.0992044 -0.0437765 255 0 0
-0.0521935 0.0992037 -0.0437692 255 0 0
-0.0499170 0.0992005 -0.0437648 255 0 0
-0.0476169 0.0992009 -0.0437632 255 0 0
-0.0453718 0.0991990 -0.0437619 255 0 0
-0.0431174 0.0991985 -0.0437596 255 0 0
-0.0407855 0.0991976 -0.0437641 255 0 0
-0.0384800 0.0991969 -0.0437650 255 0 0
-0.0361922 0.0991964 -0.0437648 255 0 0
-0.0338875 0.0991961 -0.0437643 255 0 0
-0.0315868 0.0991957 -0.0437638 255 0 0
-0.0292981 0.0991950 -0.0437634 255 0 0
-0.0269951 0.0991947 -0.0437641 255 0 0
-0.0247849 0.0991946 -0.0437671 255 0 0
-0.0225424 0.0991964 -0.0437713 255 0 0
-0.0201970 0.0991979 -0.0437796 255 0 0
-0.0178743 0.0991988 -0.0437926 255 0 0
-0.0155690 0.0992014 -0.0438084 255 0 0
-0.0132659 0.0992012 -0.0438364 255 0 0
-0.0109634 0.0992060 -0.0438794 255 0 0
-0.0086652 0.0992050 -0.0439289 255 0 0
-0.0063762 0.0991982 -0.0439917 255 0 0
-0.0040985 0.0991946 -0.0440460 255 0 0
-0.0018153 0.0991902 -0.0440919 255 0 0
0.0004278 0.0991678 -0.0441510 255 0 0
0.0026971 0.0991570 -0.0441977 255 0 0
-0.0842398 0.1014558 -0.0441994 255 0 0
-0.0819478 0.1014647 -0.0441734 255 0 0
-0.0796601 0.1014822 -0.0441535 255 0 0
-0.0773723 0.1014837 -0.0441382 255 0 0
-0.0750845 0.1014830 -0.0441137 255 0 0
-0.0727981 0.1014880 -0.0440820 255 0 0
-0.0705668 0.1014926 -0.0440139 255 0 0
-0.0682800 0.1015000 -0.0439544 255 0 0
-0.0659914 0.1015014 -0.0439167 255 0 0
-0.0637027 0.1014977 -0.0438794 255 0 0
-0.0613892 0.1015004 -0.0438409 255 0 0
-0.0590984 0.1014998 -0.0438136 255 0 0
-0.0567841 0.1014993 -0.0437942 255 0 0
-0.0544945 0.1014976 -0.0437840 255 0 0
-0.0522064 0.1014950 -0.0437772 255 0 0
-0.0499189 0.1014953 -0.0437737 255 0 0
-0.0476170 0.1014941 -0.0437704 255 0 0
-0.0453715 0.1014925 -0.0437635 255 0 0
-0.0431179 0.1014917 -0.0437611 255 0 0
-0.0407857 0.1014912 -0.0437704 255 0 0
-0.0384800 0.1014908 -0.0437716 255 0 0
-0.0361922 0.1014905 -0.0437716 255 0 0
-0.0338871 0.1014903 -0.0437711 255 0 0
-0.0315871 0.1014900 -0.0437706 255 0 0
-0.0292976 0.1014899 -0.0437679 255 0 0
-0.0269950 0.1014901 -0.0437717 255 0 0
-0.0247851 0.1014903 -0.0437709 255 0 0
-0.0225417 0.1014910 -0.0437774 255 0 0
-0.0201933 0.1014915 -0.0437856 255 0 0
-0.0178739 0.1014951 -0.0437990 255 0 0
-0.0155665 0.1014974 -0.0438194 255 0 0
-0.0132645 0.1014984 -0.0438466 255 0 0
-0.0109635 0.1014949 -0.0438941 255 0 0
-0.0086668 0.1014999 -0.0439454 255 0 0
-0.0063779 0.1014914 -0.0440043 255 0 0
-0.0040997 0.1014898 -0.0440556 255 0 0
-0.0018177 0.1014793 -0.0440979 255 0 0
0.0004272 0.1014565 -0.0441564 255 0 0
0.0026974 0.1014402 -0.0442013 255 0 0
-0.0842445 0.1037422 -0.0442041 255 0 0
-0.0819478 0.1037588 -0.0441765 255 0 0
-0.0796601 0.1037700 -0.0441551 255 0 0
-0.0773723 0.1037733 -0.0441402 255 0 0
-0.0750845 0.1037703 -0.0441170 255 0 0
-0.0727971 0.1037753 -0.0440863 255 0 0
-0.0705656 0.1037910 -0.0440219 255 0 0
-0.0682790 0.1037955 -0.0439665 255 0 0
-0.0659907 0.1037963 -0.0439292 255 0 0
-0.0637021 0.1037958 -0.0438933 255 0 0
-0.0613891 0.1037970 -0.0438545 255 0 0
-0.0590981 0.1037951 -0.0438234 255 0 0
-0.0567851 0.1037930 -0.0438046 255 0 0
-0.0544945 0.1037928 -0.0437917 255 0 0
-0.0522067 0.1037912 -0.0437843 255 0 0
-0.0499189 0.1037901 -0.0437795 255 0 0
-0.0476227 0.1037880 -0.0437723 255 0 0
-0.0453712 0.1037883 -0.0437670 255 0 0
-0.0431187 0.1037862 -0.0437654 255 0 0
-0.0407860 0.1037857 -0.0437732 255 0 0
-0.0384800 0.1037851 -0.0437767 255 0 0
-0.0361922 0.1037850 -0.0437763 255 0 0
-0.0338871 0.1037850 -0.0437721 255 0 0
-0.0315876 0.1037858 -0.0437691 255 0 0
-0.0292971 0.1037853 -0.0437683 255 0 0
-0.0269947 0.1037850 -0.0437708 255 0 0
-0.0247852 0.1037875 -0.0437719 255 0 0
-0.0225400 0.1037895 -0.0437827 255 0 0
-0.0201903 0.1037906 -0.0437936 255 0 0
-0.0178679 0.1037901 -0.0438102 255 0 0
-0.0155652 0.1037938 -0.0438315 255 0 0
-0.0132632 0.1037956 -0.0438634 255 0 0
-0.0109635 0.1037947 -0.0439130 255 0 0
-0.0086688 0.1037919 -0.0439674 255 0 0
-0.0063802 0.1037853 -0.0440160 255 0 0
-0.0041027 0.1037761 -0.0440649 255 0 0
-0.0018195 0.1037693 -0.0441039 255 0 0
0.0004259 0.1037540 -0.0441638 255 0 0
0.0026964 0.1037279 -0.0442068 255 0 0
-0.0819478 0.1060463 -0.0441804 255 0 0
-0.0796601 0.1060573 -0.0441580 255 0 0
-0.0773723 0.1060620 -0.0441453 255 0 0
-0.0750845 0.1060657 -0.0441231 255 0 0
-0.0727967 0.1060658 -0.0440987 255 0 0
-0.0705644 0.1060803 -0.0440291 255 0 0
-0.0682777 0.1060857 -0.0439823 255 0 0
-0.0659899 0.1060870 -0.0439481 255 0 0
-0.0637012 0.1060903 -0.0439198 255 0 0
-0.0613897 0.1060887 -0.0438722 255 0 0
-0.0590980 0.1060911 -0.0438437 255 0 0
-0.0567915 0.1060868 -0.0438182 255 0 0
-0.0544945 0.1060870 -0.0438011 255 0 0
-0.0522067 0.1060859 -0.0437930 255 0 0
-0.0499189 0.1060829 -0.0437832 255 0 0
-0.0476311 0.1060814 -0.0437739 255 0 0
-0.0453709 0.1060798 -0.0437703 255 0 0
-0.0431191 0.1060782 -0.0437690 255 0 0
-0.0407863 0.1060776 -0.0437722 255 0 0
-0.0384800 0.1060771 -0.0437758 255 0 0
-0.0361922 0.1060770 -0.0437736 255 0 0
-0.0338866 0.1060770 -0.0437720 255 0 0
-0.0315878 0.1060771 -0.0437717 255 0 0
-0.0292946 0.1060786 -0.0437718 255 0 0
-0.0269944 0.1060785 -0.0437744 255 0 0
-0.0247851 0.1060819 -0.0437790 255 0 0
-0.0225372 0.1060871 -0.0437922 255 0 0
-0.0201875 0.1060869 -0.0438030 255 0 0
-0.0178662 0.1060867 -0.0438231 255 0 0
-0.0155595 0.1060895 -0.0438492 255 0 0
-0.0132626 0.1060894 -0.0438827 255 0 0
-0.0109637 0.1060887 -0.0439464 255 0 0
-0.0086715 0.1060816 -0.0439960 255 0 0
-0.0063841 0.1060776 -0.0440331 255 0 0
-0.0041061 0.1060669 -0.0440729 255 0 0
-0.0018210 0.1060587 -0.0441171 255 0 0
0.0004236 0.1060400 -0.0441724 255 0 0
0.0026941 0.1060116 -0.0442161 255 0 0
-0.0819478 0.1083341 -0.0441862 255 0 0
-0.0796601 0.1083419 -0.0441651 255 0 0
-0.0773723 0.1083493 -0.0441507 255 0 0
-0.0750845 0.1083502 -0.0441289 255 0 0
-0.0727967 0.1083522 -0.0441073 255 0 0
-0.0705630 0.1083680 -0.0440539 255 0 0
-0.0682766 0.1083773 -0.0440048 255 0 0
-0.0659888 0.1083751 -0.0439887 255 0 0
-0.0637004 0.1083748 -0.0439498 255 0 0
-0.0613908 0.1083790 -0.0439061 255 0 0
-0.0590978 0.1083784 -0.0438698 255 0 0
-0.0567951 0.1083804 -0.0438447 255 0 0
-0.0544945 0.1083781 -0.0438184 255 0 0
-0.0522067 0.1083752 -0.0438045 255 0 0
-0.0499189 0.1083748 -0.0437943 255 0 0
-0.0476311 0.1083730 -0.0437806 255 0 0
-0.0453706 0.1083703 -0.0437755 255 0 0
-0.0431198 0.1083684 -0.0437728 255 0 0
-0.0407864 0.1083678 -0.0437755 255 0 0
-0.0384800 0.1083675 -0.0437779 255 0 0
-0.0361922 0.1083674 -0.0437763 255 0 0
-0.0338862 0.1083677 -0.0437759 255 0 0
-0.0315882 0.1083679 -0.0437760 255 0 0
-0.0292931 0.1083706 -0.0437776 255 0 0
-0.0269930 0.1083705 -0.0437813 255 0 0
-0.0247799 0.1083756 -0.0437898 255 0 0
-0.0225294 0.1083829 -0.0438075 255 0 0
-0.0201867 0.1083836 -0.0438235 255 0 0
-0.0178556 0.1083845 -0.0438498 255 0 0
-0.0155586 0.1083816 -0.0438765 255 0 0
-0.0132619 0.1083799 -0.0439220 255 0 0
-0.0109643 0.1083745 -0.0439734 255 0 0
-0.0086745 0.1083740 -0.0440157 255 0 0
-0.0063903 0.1083651 -0.0440577 255 0 0
-0.0041115 0.1083551 -0.0440870 255 0 0
-0.0018233 0.1083476 -0.0441232 255 0 0
0.0004198 0.1083095 -0.0441904 255 0 0
-0.0819478 0.1106287 -0.0441728 255 0 0
-0.0796601 0.1106289 -0.0441723 255 0 0
-0.0773723 0.1106369 -0.0441559 255 0 0
-0.0750845 0.1106390 -0.0441405 255 0 0
-0.0727967 0.1106426 -0.0441154 255 0 0
-0.0705471 0.1106527 -0.0440685 255 0 0
-0.0682754 0.1106637 -0.0440264 255 0 0
-0.0659876 0.1106650 -0.0440106 255 0 0
-0.0636996 0.1106645 -0.0439814 255 0 0
-0.0613887 0.1106660 -0.0439491 255 0 0
-0.0590977 0.1106690 -0.0439044 255 0 0
-0.0568093 0.1106731 -0.0438672 255 0 0
-0.0544956 0.1106740 -0.0438365 255 0 0
-0.0522068 0.1106728 -0.0438219 255 0 0
-0.0499190 0.1106690 -0.0438091 255 0 0
-0.0476311 0.1106672 -0.0437965 255 0 0
-0.0453705 0.1106633 -0.0437861 255 0 0
-0.0431155 0.1106626 -0.0437826 255 0 0
-0.0407868 0.1106618 -0.0437856 255 0 0
-0.0384800 0.1106616 -0.0437871 255 0 0
-0.0361922 0.1106613 -0.0437856 255 0 0
-0.0338858 0.1106614 -0.0437854 255 0 0
-0.0315885 0.1106610 -0.0437861 255 0 0
-0.0292929 0.1106623 -0.0437887 255 0 0
-0.0269920 0.1106658 -0.0438022 255 0 0
-0.0247699 0.1106731 -0.0438121 255 0 0
-0.0225218 0.1106885 -0.0438275 255 0 0
-0.0201789 0.1106774 -0.0438412 255 0 0
-0.0178535 0.1106719 -0.0438721 255 0 0
-0.0155583 0.1106732 -0.0439202 255 0 0
-0.0132627 0.1106675 -0.0439638 255 0 0
-0.0109666 0.1106630 -0.0440058 255 0 0
-0.0086786 0.1106587 -0.0440374 255 0 0
-0.0063955 0.1106492 -0.0440720 255 0 0
-0.0041149 0.1106408 -0.0441067 255 0 0
-0.0018239 0.1106356 -0.0441000 255 0 0
0.0004256 0.1106228 -0.0442455 255 0 0
-0.0796628 0.1128782 -0.0442110 255 0 0
-0.0773723 0.1129065 -0.0441822 255 0 0
-0.0750845 0.1129164 -0.0441572 255 0 0
-0.0727966 0.1129249 -0.0441403 255 0 0
-0.0705319 0.1129354 -0.0441025 255 0 0
-0.0682590 0.1129418 -0.0440700 255 0 0
-0.0659770 0.1129419 -0.0440565 255 0 0
-0.0636866 0.1129448 -0.0440269 255 0 0
-0.0613921 0.1129474 -0.0440037 255 0 0
-0.0590986 0.1129482 -0.0439672 255 0 0
-0.0568089 0.1129481 -0.0439259 255 0 0
-0.0545034 0.1129443 -0.0438969 255 0 0
-0.0522068 0.1129446 -0.0438624 255 0 0
-0.0499191 0.1129456 -0.0438365 255 0 0
-0.0476313 0.1129393 -0.0438211 255 0 0
-0.0453709 0.1129363 -0.0438085 255 0 0
-0.0431158 0.1129357 -0.0438013 255 0 0
-0.0407871 0.1129347 -0.0438031 255 0 0
-0.0384801 0.1129346 -0.0438041 255 0 0
-0.0361923 0.1129345 -0.0438035 255 0 0
-0.0338789 0.1129358 -0.0438043 255 0 0
-0.0315889 0.1129357 -0.0438064 255 0 0
-0.0292920 0.1129353 -0.0438131 255 0 0
-0.0269893 0.1129373 -0.0438201 255 0 0
-0.0247629 0.1129443 -0.0438566 255 0 0
-0.0225123 0.1129463 -0.0438782 255 0 0
-0.0201739 0.1129468 -0.0439122 255 0 0
-0.0178527 0.1129467 -0.0439513 255 0 0
-0.0155581 0.1129463 -0.0439775 255 0 0
-0.0132642 0.1129433 -0.0440115 255 0 0
-0.0109743 0.1129383 -0.0440396 255 0 0
-0.0086899 0.1129334 -0.0440716 255 0 0
-0.0064083 0.1129293 -0.0441053 255 0 0
-0.0041287 0.1129199 -0.0441402 255 0 0
-0.0018318 0.1129542 -0.0441967 255 0 0
-0.0773723 0.1151859 -0.0442060 255 0 0
-0.0750844 0.1152003 -0.0441769 255 0 0
-0.0727966 0.1152083 -0.0441516 255 0 0
-0.0705093 0.1152187 -0.0441301 255 0 0
-0.0682586 0.1152238 -0.0441026 255 0 0
-0.0659627 0.1152248 -0.0440881 255 0 0
-0.0636505 0.1152254 -0.0440622 255 0 0
-0.0613899 0.1152318 -0.0440348 255 0 0
-0.0591009 0.1152311 -0.0440099 255 0 0
-0.0568087 0.1152311 -0.0439772 255 0 0
-0.0545045 0.1152299 -0.0439445 255 0 0
-0.0522078 0.1152280 -0.0439025 255 0 0
-0.0499195 0.1152254 -0.0438703 255 0 0
-0.0476315 0.1152236 -0.0438557 255 0 0
-0.0453710 0.1152235 -0.0438353 255 0 0
-0.0431066 0.1152228 -0.0438194 255 0 0
-0.0407871 0.1152224 -0.0438207 255 0 0
-0.0384802 0.1152220 -0.0438219 255 0 0
-0.0361923 0.1152222 -0.0438205 255 0 0
-0.0338789 0.1152225 -0.0438213 255 0 0
-0.0315893 0.1152237 -0.0438282 255 0 0
-0.0292919 0.1152234 -0.0438457 255 0 0
-0.0269881 0.1152242 -0.0438547 255 0 0
-0.0247587 0.1152283 -0.0438936 255 0 0
-0.0225045 0.1152324 -0.0439306 255 0 0
-0.0201737 0.1152304 -0.0439672 255 0 0
-0.0178527 0.1152290 -0.0439998 255 0 0
-0.0155584 0.1152300 -0.0440179 255 0 0
-0.0132699 0.1152273 -0.0440396 255 0 0
-0.0109825 0.1152240 -0.0440693 255 0 0
-0.0086966 0.1152196 -0.0441010 255 0 0
-0.0064164 0.1152122 -0.0441269 255 0 0
-0.0041372 0.1152017 -0.0441544 255 0 0
-0.0750845 0.1174891 -0.0441800 255 0 0
-0.0727966 0.1174957 -0.0441535 255 0 0
-0.0705088 0.1175067 -0.0441317 255 0 0
-0.0682585 0.1175189 -0.0441054 255 0 0
-0.0659379 0.1175198 -0.0440945 255 0 0
-0.0636472 0.1175215 -0.0440804 255 0 0
-0.0613844 0.1175290 -0.0440431 255 0 0
-0.0590968 0.1175356 -0.0440260 255 0 0
-0.0568100 0.1175402 -0.0440038 255 0 0
-0.0545049 0.1175401 -0.0439773 255 0 0
-0.0522080 0.1175382 -0.0439560 255 0 0
-0.0499198 0.1175380 -0.0439286 255 0 0
-0.0476314 0.1175389 -0.0439094 255 0 0
-0.0453700 0.1175375 -0.0438737 255 0 0
-0.0430850 0.1175369 -0.0438612 255 0 0
-0.0407870 0.1175366 -0.0438614 255 0 0
-0.0384801 0.1175365 -0.0438615 255 0 0
-0.0361922 0.1175364 -0.0438610 255 0 0
-0.0338795 0.1175366 -0.0438625 255 0 0
-0.0315895 0.1175370 -0.0438669 255 0 0
-0.0292922 0.1175388 -0.0438857 255 0 0
-0.0269911 0.1175372 -0.0439080 255 0 0
-0.0247546 0.1175392 -0.0439398 255 0 0
-0.0225006 0.1175423 -0.0439732 255 0 0
-0.0201738 0.1175412 -0.0439885 255 0 0
-0.0178532 0.1175364 -0.0440159 255 0 0
-0.0155651 0.1175283 -0.0440321 255 0 0
-0.0132745 0.1175235 -0.0440459 255 0 0
-0.0109850 0.1175168 -0.0440872 255 0 0
-0.0087020 0.1175151 -0.0441036 255 0 0
-0.0064181 0.1175036 -0.0441276 255 0 0
-0.0041327 0.1174966 -0.0441513 255 0 0
-0.0727967 0.1197850 -0.0441570 255 0 0
-0.0705088 0.1197938 -0.0441378 255 0 0
-0.0682584 0.1198056 -0.0441104 255 0 0
-0.0659335 0.1198104 -0.0441010 255 0 0
-0.0636456 0.1198144 -0.0440911 255 0 0
-0.0613844 0.1198214 -0.0440648 255 0 0
-0.0590977 0.1198336 -0.0440407 255 0 0
-0.0568097 0.1198525 -0.0440249 255 0 0
-0.0545039 0.1198546 -0.0439998 255 0 0
-0.0522079 0.1198589 -0.0439848 255 0 0
-0.0499198 0.1198564 -0.0439709 255 0 0
-0.0476313 0.1198604 -0.0439465 255 0 0
-0.0453694 0.1198608 -0.0439271 255 0 0
-0.0430822 0.1198613 -0.0439026 255 0 0
-0.0407869 0.1198610 -0.0439042 255 0 0
-0.0384800 0.1198609 -0.0439060 255 0 0
-0.0361922 0.1198610 -0.0439036 255 0 0
-0.0338865 0.1198615 -0.0439065 255 0 0
-0.0315900 0.1198614 -0.0439200 255 0 0
-0.0292927 0.1198620 -0.0439317 255 0 0
-0.0269947 0.1198603 -0.0439432 255 0 0
-0.0247538 0.1198588 -0.0439757 255 0 0
-0.0224987 0.1198588 -0.0439928 255 0 0
-0.0201741 0.1198547 -0.0440055 255 0 0
-0.0178538 0.1198491 -0.0440296 255 0 0
-0.0155697 0.1198396 -0.0440509 255 0 0
-0.0132820 0.1198171 -0.0440657 255 0 0
-0.0109962 0.1198104 -0.0440938 255 0 0
-0.0087072 0.1198026 -0.0441080 255 0 0
-0.0064192 0.1197908 -0.0441294 255 0 0
-0.0705094 0.1220760 -0.0441475 255 0 0
-0.0682256 0.1220804 -0.0441175 255 0 0
-0.0659333 0.1220953 -0.0441079 255 0 0
-0.0636455 0.1221006 -0.0440986 255 0 0
-0.0613830 0.1221051 -0.0440773 255 0 0
-0.0590908 0.1221121 -0.0440636 255 0 0
-0.0567917 0.1221316 -0.0440498 255 0 0
-0.0544959 0.1221406 -0.0440180 255 0 0
-0.0522077 0.1221475 -0.0440032 255 0 0
-0.0499196 0.1221497 -0.0439900 255 0 0
-0.0476313 0.1221518 -0.0439812 255 0 0
-0.0453690 0.1221521 -0.0439551 255 0 0
-0.0430814 0.1221534 -0.0439468 255 0 0
-0.0407694 0.1221527 -0.0439469 255 0 0
-0.0384800 0.1221521 -0.0439469 255 0 0
-0.0361922 0.1221524 -0.0439464 255 0 0
-0.0338872 0.1221533 -0.0439478 255 0 0
-0.0315911 0.1221518 -0.0439510 255 0 0
-0.0292962 0.1221520 -0.0439576 255 0 0
-0.0270004 0.1221482 -0.0439676 255 0 0
-0.0247534 0.1221489 -0.0439955 255 0 0
-0.0224912 0.1221454 -0.0440126 255 0 0
-0.0201742 0.1221360 -0.0440295 255 0 0
-0.0178623 0.1221311 -0.0440500 255 0 0
-0.0155770 0.1221312 -0.0440627 255 0 0
-0.0132848 0.1221245 -0.0440766 255 0 0
-0.0109969 0.1220932 -0.0440996 255 0 0
-0.0087086 0.1220866 -0.0441118 255 0 0
-0.0659333 0.1243729 -0.0441140 255 0 0
-0.0636455 0.1243817 -0.0441042 255 0 0
-0.0613612 0.1243885 -0.0440837 255 0 0
-0.0590719 0.1244150 -0.0440746 255 0 0
-0.0567837 0.1244268 -0.0440643 255 0 0
-0.0544954 0.1244278 -0.0440407 255 0 0
-0.0522073 0.1244304 -0.0440281 255 0 0
-0.0499194 0.1244346 -0.0440151 255 0 0
-0.0476313 0.1244363 -0.0439977 255 0 0
-0.0453679 0.1244397 -0.0439761 255 0 0
-0.0430809 0.1244417 -0.0439697 255 0 0
-0.0407685 0.1244415 -0.0439699 255 0 0
-0.0384801 0.1244409 -0.0439706 255 0 0
-0.0361923 0.1244405 -0.0439704 255 0 0
-0.0339036 0.1244401 -0.0439707 255 0 0
-0.0315921 0.1244392 -0.0439728 255 0 0
-0.0293025 0.1244362 -0.0439779 255 0 0
-0.0270045 0.1244362 -0.0439973 255 0 0
-0.0247534 0.1244322 -0.0440105 255 0 0
-0.0224865 0.1244302 -0.0440322 255 0 0
-0.0201746 0.1244279 -0.0440398 255 0 0
-0.0178744 0.1244226 -0.0440517 255 0 0
-0.0155782 0.1244181 -0.0440701 255 0 0
-0.0132912 0.1244083 -0.0440806 255 0 0
-0.0636456 0.1266637 -0.0440972 255 0 0
-0.0613596 0.1266657 -0.0440875 255 0 0
-0.0590710 0.1266718 -0.0440796 255 0 0
-0.0567831 0.1266766 -0.0440588 255 0 0
-0.0544951 0.1266897 -0.0440497 255 0 0
-0.0522071 0.1266930 -0.0440388 255 0 0
-0.0499193 0.1266983 -0.0440174 255 0 0
-0.0476313 0.1267024 -0.0440102 255 0 0
-0.0453625 0.1267078 -0.0440032 255 0 0
-0.0430748 0.1267096 -0.0439997 255 0 0
-0.0407685 0.1267092 -0.0440002 255 0 0
-0.0384804 0.1267087 -0.0440006 255 0 0
-0.0361925 0.1267084 -0.0440008 255 0 0
-0.0339047 0.1267074 -0.0440015 255 0 0
-0.0315996 0.1267036 -0.0440036 255 0 0
-0.0293156 0.1267001 -0.0440061 255 0 0
-0.0270081 0.1266955 -0.0440087 255 0 0
-0.0247538 0.1266908 -0.0440198 255 0 0
-0.0224879 0.1266847 -0.0440309 255 0 0
-0.0201778 0.1266804 -0.0440472 255 0 0
-0.0499193 0.1289798 -0.0440277 255 0 0
-0.0476314 0.1289814 -0.0440198 255 0 0
-0.0453453 0.1289870 -0.0440174 255 0 0
-0.0430743 0.1289889 -0.0440151 255 0 0
-0.0407693 0.1289891 -0.0440183 255 0 0
-0.0384817 0.1289896 -0.0440201 255 0 0
-0.0361940 0.1289903 -0.0440215 255 0 0
-0.0339047 0.1289889 -0.0440226 255 0 0
-0.0316016 0.1289866 -0.0440227 255 0 0
-0.0293167 0.1289828 -0.0440250 255 0 0
-0.0270084 0.1289793 -0.0440242 255 0 0
-0.0361968 0.1312850 -0.0440545 255 0 0
-0.0453529 0.0488216 -0.0419518 255 0 0
-0.0430652 0.0488276 -0.0419380 255 0 0
-0.0407709 0.0488284 -0.0419364 255 0 0
-0.0384802 0.0488288 -0.0419353 255 0 0
-0.0361921 0.0488284 -0.0419351 255 0 0
-0.0339040 0.0488273 -0.0419356 255 0 0
-0.0316098 0.0488249 -0.0419381 255 0 0
-0.0293225 0.0488196 -0.0419416 255 0 0
-0.0270490 0.0488162 -0.0419069 255 0 0
-0.0522069 0.0511061 -0.0419581 255 0 0
-0.0499189 0.0511122 -0.0419457 255 0 0
-0.0476311 0.0511174 -0.0419370 255 0 0
-0.0453530 0.0511230 -0.0419233 255 0 0
-0.0430653 0.0511265 -0.0419148 255 0 0
-0.0407707 0.0511277 -0.0419127 255 0 0
-0.0384800 0.0511281 -0.0419106 255 0 0
-0.0361921 0.0511281 -0.0419102 255 0 0
-0.0339043 0.0511267 -0.0419115 255 0 0
-0.0316098 0.0511252 -0.0419154 255 0 0
-0.0293205 0.0511210 -0.0419198 255 0 0
-0.0270421 0.0511145 -0.0419073 255 0 0
-0.0247469 0.0510979 -0.0419507 255 0 0
-0.0224617 0.0510849 -0.0419940 255 0 0
-0.0590802 0.0533908 -0.0419610 255 0 0
-0.0567858 0.0533985 -0.0419480 255 0 0
-0.0544948 0.0534048 -0.0419387 255 0 0
-0.0522067 0.0534093 -0.0419278 255 0 0
-0.0499189 0.0534138 -0.0419189 255 0 0
-0.0476311 0.0534157 -0.0419107 255 0 0
-0.0453533 0.0534158 -0.0419035 255 0 0
-0.0430658 0.0534164 -0.0418992 255 0 0
-0.0407702 0.0534174 -0.0418967 255 0 0
-0.0384800 0.0534180 -0.0418959 255 0 0
-0.0361922 0.0534180 -0.0418959 255 0 0
-0.0339043 0.0534201 -0.0418964 255 0 0
-0.0316095 0.0534197 -0.0418983 255 0 0
-0.0293235 0.0534189 -0.0419020 255 0 0
-0.0270297 0.0534148 -0.0419078 255 0 0
-0.0247593 0.0534131 -0.0419199 255 0 0
-0.0224768 0.0534084 -0.0419289 255 0 0
-0.0201792 0.0533992 -0.0419420 255 0 0
-0.0178811 0.0533905 -0.0419563 255 0 0
-0.0613683 0.0556856 -0.0419526 255 0 0
-0.0590802 0.0556944 -0.0419364 255 0 0
-0.0567848 0.0557004 -0.0419253 255 0 0
-0.0544945 0.0557048 -0.0419170 255 0 0
-0.0522067 0.0557058 -0.0419089 255 0 0
-0.0499189 0.0557054 -0.0419030 255 0 0
-0.0476311 0.0557058 -0.0418981 255 0 0
-0.0453536 0.0557073 -0.0418921 255 0 0
-0.0430659 0.0557083 -0.0418882 255 0 0
-0.0407697 0.0557084 -0.0418866 255 0 0
-0.0384800 0.0557090 -0.0418865 255 0 0
-0.0361922 0.0557092 -0.0418870 255 0 0
-0.0339044 0.0557090 -0.0418878 255 0 0
-0.0316092 0.0557089 -0.0418897 255 0 0
-0.0293239 0.0557078 -0.0418924 255 0 0
-0.0270310 0.0557058 -0.0418964 255 0 0
-0.0247588 0.0557093 -0.0419075 255 0 0
-0.0224814 0.0557051 -0.0419154 255 0 0
-0.0201793 0.0556999 -0.0419246 255 0 0
-0.0178817 0.0556928 -0.0419361 255 0 0
-0.0155911 0.0556821 -0.0419550 255 0 0
-0.0636658 0.0579798 -0.0419498 255 0 0
-0.0613686 0.0579884 -0.0419311 255 0 0
-0.0590737 0.0579947 -0.0419175 255 0 0
-0.0567829 0.0579959 -0.0419086 255 0 0
-0.0544945 0.0579958 -0.0419017 255 0 0
-0.0522067 0.0579966 -0.0418962 255 0 0
-0.0499189 0.0579971 -0.0418917 255 0 0
-0.0476311 0.0579970 -0.0418867 255 0 0
-0.0453542 0.0579951 -0.0418812 255 0 0
-0.0430665 0.0579850 -0.0418736 255 0 0
-0.0407699 0.0579852 -0.0418730 255 0 0
-0.0384800 0.0579858 -0.0418736 255 0 0
-0.0361922 0.0579955 -0.0418775 255 0 0
-0.0339040 0.0579982 -0.0418801 255 0 0
-0.0316086 0.0579978 -0.0418832 255 0 0
-0.0293234 0.0579985 -0.0418863 255 0 0
-0.0270313 0.0579977 -0.0418892 255 0 0
-0.0247589 0.0580035 -0.0418966 255 0 0
-0.0224804 0.0580004 -0.0419074 255 0 0
-0.0201797 0.0579969 -0.0419127 255 0 0
-0.0178853 0.0579916 -0.0419238 255 0 0
-0.0155934 0.0579820 -0.0419411 255 0 0
-0.0133000 0.0579696 -0.0419641 255 0 0
-0.0682426 0.0602608 -0.0419719 255 0 0
-0.0659547 0.0602726 -0.0419485 255 0 0
-0.0636506 0.0602815 -0.0419283 255 0 0
-0.0613686 0.0602838 -0.0419150 255 0 0
-0.0590729 0.0602849 -0.0419054 255 0 0
-0.0567827 0.0602867 -0.0418991 255 0 0
-0.0544945 0.0602876 -0.0418929 255 0 0
-0.0522067 0.0602872 -0.0418867 255 0 0
-0.0499189 0.0602760 -0.0418758 255 0 0
-0.0476311 0.0602757 -0.0418587 255 0 0
-0.0453543 0.0602730 -0.0418539 255 0 0
-0.0430668 0.0602720 -0.0418518 255 0 0
-0.0407704 0.0602725 -0.0418514 255 0 0
-0.0384800 0.0602735 -0.0418516 255 0 0
-0.0361922 0.0602738 -0.0418523 255 0 0
-0.0338980 0.0602749 -0.0418536 255 0 0
-0.0316079 0.0602760 -0.0418566 255 0 0
-0.0293201 0.0602765 -0.0418763 255 0 0
-0.0270307 0.0602875 -0.0418827 255 0 0
-0.0247589 0.0602893 -0.0418921 255 0 0
-0.0224812 0.0602943 -0.0419005 255 0 0
-0.0201797 0.0602929 -0.0419034 255 0 0
-0.0178854 0.0602875 -0.0419126 255 0 0
-0.0155951 0.0602813 -0.0419281 255 0 0
-0.0133023 0.0602712 -0.0419505 255 0 0
-0.0705312 0.0625521 -0.0419800 255 0 0
-0.0682434 0.0625663 -0.0419444 255 0 0
-0.0659547 0.0625747 -0.0419274 255 0 0
-0.0636456 0.0625768 -0.0419142 255 0 0
-0.0613687 0.0625828 -0.0419042 255 0 0
-0.0590730 0.0625849 -0.0418959 255 0 0
-0.0567833 0.0625805 -0.0418880 255 0 0
-0.0544946 0.0625749 -0.0418653 255 0 0
-0.0522067 0.0625731 -0.0418598 255 0 0
-0.0499189 0.0625715 -0.0418542 255 0 0
-0.0476311 0.0625708 -0.0418507 255 0 0
-0.0453549 0.0625696 -0.0418463 255 0 0
-0.0430672 0.0625697 -0.0418429 255 0 0
-0.0407707 0.0625698 -0.0418429 255 0 0
-0.0384800 0.0625696 -0.0418439 255 0 0
-0.0361922 0.0625694 -0.0418455 255 0 0
-0.0338965 0.0625692 -0.0418478 255 0 0
-0.0316069 0.0625703 -0.0418505 255 0 0
-0.0293089 0.0625709 -0.0418541 255 0 0
-0.0270149 0.0625712 -0.0418580 255 0 0
-0.0247591 0.0625829 -0.0418845 255 0 0
-0.0224820 0.0625856 -0.0418956 255 0 0
-0.0201798 0.0625855 -0.0418982 255 0 0
-0.0178851 0.0625834 -0.0419053 255 0 0
-0.0155950 0.0625755 -0.0419181 255 0 0
-0.0133043 0.0625694 -0.0419368 255 0 0
-0.0110109 0.0625602 -0.0419626 255 0 0
-0.0727992 0.0648395 -0.0419979 255 0 0
-0.0705316 0.0648585 -0.0419543 255 0 0
-0.0682439 0.0648678 -0.0419227 255 0 0
-0.0659511 0.0648721 -0.0419125 255 0 0
-0.0636456 0.0648745 -0.0419032 255 0 0
-0.0613635 0.0648729 -0.0418923 255 0 0
-0.0590728 0.0648643 -0.0418699 255 0 0
-0.0567837 0.0648631 -0.0418627 255 0 0
-0.0544952 0.0648623 -0.0418560 255 0 0
-0.0522070 0.0648605 -0.0418491 255 0 0
-0.0499192 0.0648586 -0.0418417 255 0 0
-0.0476311 0.0648583 -0.0418290 255 0 0
-0.0453554 0.0648586 -0.0418220 255 0 0
-0.0430678 0.0648569 -0.0418166 255 0 0
-0.0407709 0.0648568 -0.0418177 255 0 0
-0.0384800 0.0648572 -0.0418213 255 0 0
-0.0361922 0.0648570 -0.0418245 255 0 0
-0.0338957 0.0648586 -0.0418315 255 0 0
-0.0316061 0.0648585 -0.0418377 255 0 0
-0.0293048 0.0648579 -0.0418434 255 0 0
-0.0270112 0.0648573 -0.0418484 255 0 0
-0.0247590 0.0648625 -0.0418619 255 0 0
-0.0224829 0.0648732 -0.0418792 255 0 0
-0.0201797 0.0648721 -0.0418887 255 0 0
-0.0178847 0.0648736 -0.0418970 255 0 0
-0.0155886 0.0648732 -0.0419092 255 0 0
-0.0132993 0.0648668 -0.0419242 255 0 0
-0.0110081 0.0648601 -0.0419448 255 0 0
-0.0087135 0.0648459 -0.0419757 255 0 0
-0.0750895 0.0671338 -0.0420087 255 0 0
-0.0727967 0.0671435 -0.0419765 255 0 0
-0.0705317 0.0671538 -0.0419398 255 0 0
-0.0682452 0.0671636 -0.0419153 255 0 0
-0.0659551 0.0671604 -0.0419052 255 0 0
-0.0636456 0.0671530 -0.0418797 255 0 0
-0.0613709 0.0671502 -0.0418711 255 0 0
-0.0590812 0.0671500 -0.0418635 255 0 0
-0.0567858 0.0671486 -0.0418525 255 0 0
-0.0544962 0.0671467 -0.0418326 255 0 0
-0.0522072 0.0671197 -0.0418202 255 0 0
-0.0499193 0.0671143 -0.0418067 255 0 0
-0.0476311 0.0671076 -0.0417869 255 0 0
-0.0453568 0.0671057 -0.0417538 255 0 0
-0.0430862 0.0671049 -0.0417406 255 0 0
-0.0407797 0.0671051 -0.0417415 255 0 0
-0.0384800 0.0671053 -0.0417440 255 0 0
-0.0361909 0.0671054 -0.0417481 255 0 0
-0.0338939 0.0671056 -0.0417578 255 0 0
-0.0315871 0.0671067 -0.0417818 255 0 0
-0.0293022 0.0671089 -0.0417961 255 0 0
-0.0270088 0.0671161 -0.0418194 255 0 0
-0.0247589 0.0671453 -0.0418500 255 0 0
-0.0224839 0.0671469 -0.0418669 255 0 0
-0.0201708 0.0671474 -0.0418709 255 0 0
-0.0178698 0.0671475 -0.0418761 255 0 0
-0.0155865 0.0671485 -0.0418859 255 0 0
-0.0132976 0.0671540 -0.0419145 255 0 0
-0.0110070 0.0671525 -0.0419337 255 0 0
-0.0087140 0.0671446 -0.0419590 255 0 0
-0.0773889 0.0694289 -0.0420194 255 0 0
-0.0750845 0.0694386 -0.0419868 255 0 0
-0.0727967 0.0694434 -0.0419573 255 0 0
-0.0705323 0.0694497 -0.0419295 255 0 0
-0.0682459 0.0694508 -0.0418943 255 0 0
-0.0659571 0.0694416 -0.0418818 255 0 0
-0.0636493 0.0694400 -0.0418758 255 0 0
-0.0613902 0.0694370 -0.0418626 255 0 0
-0.0591018 0.0694346 -0.0418407 255 0 0
-0.0568050 0.0694135 -0.0418256 255 0 0
-0.0544972 0.0693997 -0.0418121 255 0 0
-0.0522076 0.0693953 -0.0417890 255 0 0
-0.0499195 0.0693922 -0.0417663 255 0 0
-0.0476313 0.0693893 -0.0417516 255 0 0
-0.0453757 0.0693879 -0.0417112 255 0 0
-0.0431001 0.0693859 -0.0416819 255 0 0
-0.0407807 0.0693859 -0.0416822 255 0 0
-0.0384800 0.0693858 -0.0416876 255 0 0
-0.0361851 0.0693869 -0.0416954 255 0 0
-0.0338923 0.0693872 -0.0417154 255 0 0
-0.0315837 0.0693881 -0.0417385 255 0 0
-0.0292977 0.0693901 -0.0417622 255 0 0
-0.0269935 0.0693915 -0.0417868 255 0 0
-0.0247536 0.0694005 -0.0418214 255 0 0
-0.0224852 0.0694270 -0.0418438 255 0 0
-0.0201687 0.0694303 -0.0418585 255 0 0
-0.0178652 0.0694317 -0.0418693 255 0 0
-0.0155803 0.0694335 -0.0418795 255 0 0
-0.0132905 0.0694325 -0.0418901 255 0 0
-0.0110018 0.0694338 -0.0419088 255 0 0
-0.0087153 0.0694392 -0.0419414 255 0 0
-0.0064216 0.0694346 -0.0419728 255 0 0
-0.0773766 0.0717292 -0.0420021 255 0 0
-0.0750845 0.0717370 -0.0419714 255 0 0
-0.0727967 0.0717422 -0.0419450 255 0 0
-0.0705341 0.0717464 -0.0419198 255 0 0
-0.0682466 0.0717382 -0.0418855 255 0 0
-0.0659588 0.0717354 -0.0418764 255 0 0
-0.0636507 0.0717346 -0.0418681 255 0 0
-0.0613904 0.0717348 -0.0418454 255 0 0
-0.0591020 0.0717284 -0.0418280 255 0 0
-0.0568053 0.0717020 -0.0417982 255 0 0
-0.0544974 0.0716966 -0.0417715 255 0 0
-0.0522075 0.0716950 -0.0417495 255 0 0
-0.0499192 0.0716913 -0.0417214 255 0 0
-0.0476311 0.0716914 -0.0417074 255 0 0
-0.0453752 0.0716924 -0.0416814 255 0 0
-0.0431003 0.0716934 -0.0416735 255 0 0
-0.0407811 0.0716933 -0.0416751 255 0 0
-0.0384800 0.0716929 -0.0416768 255 0 0
-0.0361898 0.0716923 -0.0416787 255 0 0
-0.0338925 0.0716914 -0.0416861 255 0 0
-0.0315840 0.0716895 -0.0416994 255 0 0
-0.0292958 0.0716893 -0.0417201 255 0 0
-0.0269927 0.0716884 -0.0417439 255 0 0
-0.0247593 0.0716895 -0.0417870 255 0 0
-0.0224908 0.0716989 -0.0418260 255 0 0
-0.0201692 0.0717201 -0.0418376 255 0 0
-0.0178644 0.0717275 -0.0418489 255 0 0
-0.0155760 0.0717298 -0.0418689 255 0 0
-0.0132882 0.0717294 -0.0418827 255 0 0
-0.0109994 0.0717288 -0.0418960 255 0 0
-0.0087100 0.0717294 -0.0419194 255 0 0
-0.0064187 0.0717315 -0.0419547 255 0 0
-0.0041232 0.0717259 -0.0419890 255 0 0
-0.0796853 0.0740183 -0.0420182 255 0 0
-0.0773723 0.0740266 -0.0419855 255 0 0
-0.0750845 0.0740333 -0.0419560 255 0 0
-0.0727967 0.0740350 -0.0419358 255 0 0
-0.0705343 0.0740314 -0.0419015 255 0 0
-0.0682478 0.0740309 -0.0418790 255 0 0
-0.0659600 0.0740290 -0.0418695 255 0 0
-0.0636522 0.0740281 -0.0418481 255 0 0
-0.0613905 0.0740232 -0.0418314 255 0 0
-0.0591021 0.0740181 -0.0418004 255 0 0
-0.0568054 0.0739947 -0.0417678 255 0 0
-0.0544973 0.0739909 -0.0417385 255 0 0
-0.0522071 0.0739914 -0.0417152 255 0 0
-0.0499189 0.0739902 -0.0416891 255 0 0
-0.0476307 0.0739917 -0.0416763 255 0 0
-0.0453747 0.0739934 -0.0416677 255 0 0
-0.0431006 0.0739937 -0.0416638 255 0 0
-0.0407813 0.0739939 -0.0416671 255 0 0
-0.0384800 0.0739936 -0.0416689 255 0 0
-0.0361902 0.0739922 -0.0416690 255 0 0
-0.0338925 0.0739915 -0.0416711 255 0 0
-0.0315845 0.0739908 -0.0416768 255 0 0
-0.0292957 0.0739885 -0.0416879 255 0 0
-0.0269922 0.0739864 -0.0417079 255 0 0
-0.0247599 0.0739838 -0.0417523 255 0 0
-0.0225019 0.0739827 -0.0417890 255 0 0
-0.0201699 0.0739897 -0.0418038 255 0 0
-0.0178636 0.0740144 -0.0418254 255 0 0
-0.0155707 0.0740171 -0.0418467 255 0 0
-0.0132817 0.0740218 -0.0418704 255 0 0
-0.0109923 0.0740217 -0.0418872 255 0 0
-0.0087077 0.0740172 -0.0419015 255 0 0
-0.0064185 0.0740272 -0.0419281 255 0 0
-0.0041257 0.0740234 -0.0419665 255 0 0
-0.0018009 0.0740444 -0.0419547 255 0 0
-0.0796729 0.0763124 -0.0419951 255 0 0
-0.0773723 0.0763208 -0.0419686 255 0 0
-0.0750845 0.0763244 -0.0419459 255 0 0
-0.0727967 0.0763296 -0.0419270 255 0 0
-0.0705356 0.0763181 -0.0418885 255 0 0
-0.0682489 0.0763154 -0.0418697 255 0 0
-0.0659611 0.0763140 -0.0418591 255 0 0
-0.0636552 0.0763113 -0.0418349 255 0 0
-0.0613904 0.0763111 -0.0418002 255 0 0
-0.0591021 0.0763057 -0.0417648 255 0 0
-0.0568099 0.0763035 -0.0417302 255 0 0
-0.0544967 0.0763039 -0.0417084 255 0 0
-0.0522067 0.0763067 -0.0416863 255 0 0
-0.0499189 0.0763091 -0.0416762 255 0 0
-0.0476295 0.0763068 -0.0416663 255 0 0
-0.0453743 0.0763054 -0.0416556 255 0 0
-0.0431007 0.0763050 -0.0416503 255 0 0
-0.0407819 0.0763048 -0.0416562 255 0 0
-0.0384800 0.0763045 -0.0416591 255 0 0
-0.0361902 0.0763044 -0.0416591 255 0 0
-0.0338924 0.0763046 -0.0416613 255 0 0
-0.0315849 0.0763039 -0.0416665 255 0 0
-0.0292966 0.0763036 -0.0416738 255 0 0
-0.0269921 0.0763044 -0.0416824 255 0 0
-0.0247614 0.0762823 -0.0417100 255 0 0
-0.0225072 0.0762794 -0.0417300 255 0 0
-0.0201710 0.0762796 -0.0417613 255 0 0
-0.0178587 0.0762921 -0.0417940 255 0 0
-0.0155696 0.0763068 -0.0418216 255 0 0
-0.0132792 0.0763095 -0.0418485 255 0 0
-0.0109907 0.0763094 -0.0418740 255 0 0
-0.0087007 0.0763116 -0.0418906 255 0 0
-0.0064155 0.0763096 -0.0419101 255 0 0
-0.0041269 0.0763163 -0.0419464 255 0 0
-0.0018039 0.0763782 -0.0418952 255 0 0
-0.0819747 0.0785915 -0.0420148 255 0 0
-0.0796637 0.0786036 -0.0419791 255 0 0
-0.0773723 0.0786092 -0.0419544 255 0 0
-0.0750845 0.0786135 -0.0419337 255 0 0
-0.0727967 0.0786186 -0.0419184 255 0 0
-0.0705367 0.0786049 -0.0418802 255 0 0
-0.0682496 0.0786047 -0.0418580 255 0 0
-0.0659620 0.0786039 -0.0418377 255 0 0
-0.0636691 0.0786038 -0.0418085 255 0 0
-0.0613902 0.0785989 -0.0417681 255 0 0
-0.0591018 0.0785992 -0.0417331 255 0 0
-0.0568047 0.0786014 -0.0417029 255 0 0
-0.0544962 0.0786023 -0.0416834 255 0 0
-0.0522058 0.0786050 -0.0416712 255 0 0
-0.0499180 0.0786049 -0.0416607 255 0 0
-0.0476281 0.0786031 -0.0416527 255 0 0
-0.0453738 0.0786023 -0.0416468 255 0 0
-0.0431010 0.0786025 -0.0416441 255 0 0
-0.0407820 0.0786022 -0.0416471 255 0 0
-0.0384800 0.0786016 -0.0416489 255 0 0
-0.0361901 0.0786014 -0.0416490 255 0 0
-0.0338923 0.0786005 -0.0416502 255 0 0
-0.0315855 0.0786022 -0.0416520 255 0 0
-0.0292966 0.0786011 -0.0416561 255 0 0
-0.0269920 0.0785997 -0.0416665 255 0 0
-0.0247639 0.0785965 -0.0416792 255 0 0
-0.0225102 0.0785917 -0.0416951 255 0 0
-0.0201736 0.0785908 -0.0417251 255 0 0
-0.0178562 0.0785910 -0.0417554 255 0 0
-0.0155633 0.0785919 -0.0417937 255 0 0
-0.0132743 0.0785986 -0.0418280 255 0 0
-0.0109842 0.0785998 -0.0418514 255 0 0
-0.0086997 0.0785982 -0.0418771 255 0 0
-0.0064130 0.0785978 -0.0418944 255 0 0
-0.0041279 0.0786100 -0.0419222 255 0 0
-0.0018158 0.0786630 -0.0418807 255 0 0
0.0003376 0.0784125 -0.0421824 255 0 0
-0.0819754 0.0808852 -0.0419970 255 0 0
-0.0796601 0.0808960 -0.0419647 255 0 0
-0.0773723 0.0809003 -0.0419448 255 0 0
-0.0750845 0.0809039 -0.0419263 255 0 0
-0.0727967 0.0809048 -0.0419027 255 0 0
-0.0705372 0.0808911 -0.0418700 255 0 0
-0.0682504 0.0808914 -0.0418373 255 0 0
-0.0659628 0.0808902 -0.0418133 255 0 0
-0.0636752 0.0808897 -0.0417793 255 0 0
-0.0613898 0.0808897 -0.0417354 255 0 0
-0.0591014 0.0808894 -0.0417052 255 0 0
-0.0567999 0.0808925 -0.0416841 255 0 0
-0.0544957 0.0808929 -0.0416702 255 0 0
-0.0522047 0.0808939 -0.0416578 255 0 0
-0.0499171 0.0808940 -0.0416494 255 0 0
-0.0476240 0.0808958 -0.0416459 255 0 0
-0.0453688 0.0809006 -0.0416423 255 0 0
-0.0431008 0.0809017 -0.0416409 255 0 0
-0.0407825 0.0809014 -0.0416436 255 0 0
-0.0384800 0.0809010 -0.0416452 255 0 0
-0.0361903 0.0809004 -0.0416448 255 0 0
-0.0338921 0.0808992 -0.0416449 255 0 0
-0.0315859 0.0808959 -0.0416458 255 0 0
-0.0292967 0.0808933 -0.0416474 255 0 0
-0.0269921 0.0808915 -0.0416511 255 0 0
-0.0247671 0.0808881 -0.0416630 255 0 0
-0.0225147 0.0808836 -0.0416775 255 0 0
-0.0201838 0.0808819 -0.0416926 255 0 0
-0.0178592 0.0808815 -0.0417221 255 0 0
-0.0155630 0.0808819 -0.0417605 255 0 0
-0.0132716 0.0808816 -0.0418002 255 0 0
-0.0109829 0.0808856 -0.0418347 255 0 0
-0.0086949 0.0808882 -0.0418637 255 0 0
-0.0064098 0.0808883 -0.0418821 255 0 0
-0.0041268 0.0808897 -0.0419064 255 0 0
-0.0018298 0.0809277 -0.0418973 255 0 0
0.0003993 0.0808004 -0.0420678 255 0 0
-0.0842641 0.0831622 -0.0420188 255 0 0
-0.0819755 0.0831746 -0.0419794 255 0 0
-0.0796601 0.0831828 -0.0419516 255 0 0
-0.0773723 0.0831878 -0.0419304 255 0 0
-0.0750845 0.0831915 -0.0419163 255 0 0
-0.0727967 0.0831900 -0.0418908 255 0 0
-0.0705381 0.0831800 -0.0418584 255 0 0
-0.0682530 0.0831779 -0.0418203 255 0 0
-0.0659929 0.0831782 -0.0417868 255 0 0
-0.0637043 0.0831759 -0.0417484 255 0 0
-0.0613893 0.0831765 -0.0417092 255 0 0
-0.0591009 0.0831782 -0.0416824 255 0 0
-0.0567863 0.0831815 -0.0416666 255 0 0
-0.0544948 0.0831848 -0.0416518 255 0 0
-0.0522041 0.0831860 -0.0416457 255 0 0
-0.0499165 0.0831864 -0.0416386 255 0 0
-0.0476201 0.0831868 -0.0416363 255 0 0
-0.0453601 0.0831878 -0.0416329 255 0 0
-0.0431009 0.0831880 -0.0416321 255 0 0
-0.0407826 0.0831878 -0.0416347 255 0 0
-0.0384800 0.0831873 -0.0416360 255 0 0
-0.0361907 0.0831869 -0.0416358 255 0 0
-0.0338919 0.0831865 -0.0416355 255 0 0
-0.0315873 0.0831853 -0.0416359 255 0 0
-0.0293010 0.0831827 -0.0416369 255 0 0
-0.0269919 0.0831814 -0.0416397 255 0 0
-0.0247683 0.0831777 -0.0416439 255 0 0
-0.0225207 0.0831746 -0.0416539 255 0 0
-0.0201848 0.0831726 -0.0416705 255 0 0
-0.0178633 0.0831708 -0.0416902 255 0 0
-0.0155641 0.0831686 -0.0417221 255 0 0
-0.0132692 0.0831672 -0.0417620 255 0 0
-0.0109794 0.0831717 -0.0418043 255 0 0
-0.0086917 0.0831730 -0.0418374 255 0 0
-0.0064066 0.0831735 -0.0418654 255 0 0
-0.0041253 0.0831747 -0.0418852 255 0 0
-0.0018326 0.0831887 -0.0419009 255 0 0
0.0004166 0.0831397 -0.0419888 255 0 0
0.0026945 0.0831095 -0.0420307 255 0 0
-0.0842645 0.0854560 -0.0419923 255 0 0
-0.0819560 0.0854652 -0.0419565 255 0 0
-0.0796601 0.0854710 -0.0419328 255 0 0
-0.0773723 0.0854749 -0.0419179 255 0 0
-0.0750845 0.0854769 -0.0419013 255 0 0
-0.0727967 0.0854794 -0.0418792 255 0 0
-0.0705382 0.0854738 -0.0418344 255 0 0
-0.0682783 0.0854711 -0.0418023 255 0 0
-0.0659929 0.0854749 -0.0417559 255 0 0
-0.0637043 0.0854738 -0.0417189 255 0 0
-0.0613895 0.0854726 -0.0416798 255 0 0
-0.0591006 0.0854741 -0.0416589 255 0 0
-0.0567846 0.0854758 -0.0416438 255 0 0
-0.0544947 0.0854770 -0.0416370 255 0 0
-0.0521990 0.0854793 -0.0416313 255 0 0
-0.0499164 0.0854795 -0.0416276 255 0 0
-0.0476196 0.0854803 -0.0416226 255 0 0
-0.0453608 0.0854802 -0.0416194 255 0 0
-0.0431007 0.0854806 -0.0416178 255 0 0
-0.0407826 0.0854796 -0.0416220 255 0 0
-0.0384800 0.0854792 -0.0416237 255 0 0
-0.0361911 0.0854792 -0.0416228 255 0 0
-0.0338917 0.0854786 -0.0416227 255 0 0
-0.0315911 0.0854785 -0.0416226 255 0 0
-0.0293047 0.0854780 -0.0416231 255 0 0
-0.0269936 0.0854776 -0.0416248 255 0 0
-0.0247756 0.0854724 -0.0416272 255 0 0
-0.0225244 0.0854703 -0.0416352 255 0 0
-0.0201853 0.0854698 -0.0416442 255 0 0
-0.0178680 0.0854675 -0.0416663 255 0 0
