ply
format ascii 1.0
element vertex 1230
property float x
property float y
property float z
property uchar red
property uchar green
property uchar blue
end_header
-0.0429964 0.0923268 0.0132138 255 0 0
-0.0407648 0.0923270 0.0132138 255 0 0
-0.0384802 0.0923273 0.0132134 255 0 0
-0.0361928 0.0923275 0.0132127 255 0 0
-0.0339075 0.0923269 0.0132124 255 0 0
-0.0316450 0.0923271 0.0132126 255 0 0
-0.0293651 0.0923269 0.0132146 255 0 0
-0.0270972 0.0923258 0.0132214 255 0 0
-0.0247493 0.0923268 0.0132102 255 0 0
-0.0224241 0.0923268 0.0132025 255 0 0
-0.0201505 0.0923263 0.0132086 255 0 0
-0.0178779 0.0923255 0.0132112 255 0 0
-0.0155990 0.0923255 0.0132112 255 0 0
-0.0133197 0.0923256 0.0132111 255 0 0
-0.0110487 0.0923253 0.0132111 255 0 0
-0.0087752 0.0923252 0.0132107 255 0 0
-0.0064945 0.0923253 0.0132104 255 0 0
-0.0042069 0.0923255 0.0132113 255 0 0
-0.0019294 0.0923256 0.0132125 255 0 0
0.0004475 0.0923248 0.0132094 255 0 0
0.0027739 0.0923243 0.0132067 255 0 0
0.0050109 0.0923242 0.0132059 255 0 0
0.0072608 0.0923239 0.0132006 255 0 0
0.0095333 0.0923235 0.0131939 255 0 0
0.0118004 0.0923225 0.0131794 255 0 0
0.0140593 0.0923233 0.0131595 255 0 0
0.0163023 0.0923240 0.0131337 255 0 0
0.0185474 0.0923258 0.0130957 255 0 0
0.0207815 0.0923244 0.0130419 255 0 0
-0.1000765 0.0946217 0.0130976 255 0 0
-0.0978561 0.0946169 0.0131360 255 0 0
-0.0955709 0.0946153 0.0131768 255 0 0
-0.0933107 0.0946139 0.0132039 255 0 0
-0.0910823 0.0946132 0.0132014 255 0 0
-0.0888073 0.0946128 0.0132007 255 0 0
-0.0865234 0.0946129 0.0132069 255 0 0
-0.0842361 0.0946133 0.0132090 255 0 0
-0.0819488 0.0946132 0.0132106 255 0 0
-0.0796615 0.0946143 0.0132118 255 0 0
-0.0773745 0.0946151 0.0132122 255 0 0
-0.0750871 0.0946153 0.0132132 255 0 0
-0.0728612 0.0946152 0.0132144 255 0 0
-0.0705074 0.0946169 0.0132140 255 0 0
-0.0681189 0.0946177 0.0132127 255 0 0
-0.0659317 0.0946176 0.0132124 255 0 0
-0.0636463 0.0946167 0.0132113 255 0 0
-0.0613587 0.0946170 0.0132127 255 0 0
-0.0590714 0.0946171 0.0132142 255 0 0
-0.0567853 0.0946181 0.0132145 255 0 0
-0.0545009 0.0946184 0.0132144 255 0 0
-0.0522597 0.0946184 0.0132145 255 0 0
-0.0499677 0.0946186 0.0132155 255 0 0
-0.0476852 0.0946187 0.0132158 255 0 0
-0.0452927 0.0946183 0.0132159 255 0 0
-0.0430020 0.0946179 0.0132158 255 0 0
-0.0407657 0.0946178 0.0132163 255 0 0
-0.0384800 0.0946176 0.0132166 255 0 0
-0.0361924 0.0946175 0.0132155 255 0 0
-0.0339062 0.0946176 0.0132147 255 0 0
-0.0316424 0.0946176 0.0132144 255 0 0
-0.0293634 0.0946174 0.0132178 255 0 0
-0.0270973 0.0946167 0.0132239 255 0 0
-0.0247489 0.0946175 0.0132126 255 0 0
-0.0224231 0.0946180 0.0132059 255 0 0
-0.0201517 0.0946171 0.0132099 255 0 0
-0.0178775 0.0946169 0.0132141 255 0 0
-0.0155982 0.0946170 0.0132140 255 0 0
-0.0133187 0.0946170 0.0132140 255 0 0
-0.0110479 0.0946170 0.0132122 255 0 0
-0.0087725 0.0946170 0.0132113 255 0 0
-0.0064917 0.0946169 0.0132108 255 0 0
-0.0042054 0.0946169 0.0132117 255 0 0
-0.0019277 0.0946167 0.0132151 255 0 0
0.0004479 0.0946162 0.0132103 255 0 0
0.0027740 0.0946157 0.0132085 255 0 0
0.0050123 0.0946140 0.0132075 255 0 0
0.0072617 0.0946126 0.0132037 255 0 0
0.0095340 0.0946107 0.0131968 255 0 0
0.0118010 0.0946086 0.0131836 255 0 0
0.0140599 0.0946076 0.0131644 255 0 0
0.0163022 0.0946078 0.0131396 255 0 0
0.0185474 0.0946061 0.0131074 255 0 0
0.0207742 0.0945951 0.0130605 255 0 0
-0.1000909 0.0969084 0.0131156 255 0 0
-0.0978558 0.0969061 0.0131371 255 0 0
-0.0955706 0.0969041 0.0131784 255 0 0
-0.0933112 0.0969019 0.0132075 255 0 0
-0.0910839 0.0969002 0.0132040 255 0 0
-0.0888073 0.0968992 0.0132037 255 0 0
-0.0865235 0.0968994 0.0132084 255 0 0
-0.0842361 0.0968997 0.0132102 255 0 0
-0.0819486 0.0968999 0.0132112 255 0 0
-0.0796613 0.0969003 0.0132123 255 0 0
-0.0773741 0.0969002 0.0132136 255 0 0
-0.0750865 0.0969004 0.0132150 255 0 0
-0.0728571 0.0968997 0.0132163 255 0 0
-0.0705074 0.0969017 0.0132165 255 0 0
-0.0681176 0.0969024 0.0132152 255 0 0
-0.0659314 0.0969016 0.0132133 255 0 0
-0.0636458 0.0969016 0.0132124 255 0 0
-0.0613589 0.0969016 0.0132132 255 0 0
-0.0590713 0.0969018 0.0132137 255 0 0
-0.0567851 0.0969025 0.0132141 255 0 0
-0.0545015 0.0969030 0.0132148 255 0 0
-0.0522608 0.0969030 0.0132163 255 0 0
-0.0499698 0.0969032 0.0132170 255 0 0
-0.0476859 0.0969034 0.0132179 255 0 0
-0.0452922 0.0969030 0.0132185 255 0 0
-0.0430016 0.0969027 0.0132180 255 0 0
-0.0407661 0.0969029 0.0132181 255 0 0
-0.0384799 0.0969029 0.0132174 255 0 0
-0.0361923 0.0969029 0.0132168 255 0 0
-0.0339063 0.0969030 0.0132149 255 0 0
-0.0316433 0.0969029 0.0132141 255 0 0
-0.0293633 0.0969028 0.0132192 255 0 0
-0.0270974 0.0969021 0.0132246 255 0 0
-0.0247482 0.0969024 0.0132127 255 0 0
-0.0224229 0.0969027 0.0132068 255 0 0
-0.0201516 0.0969020 0.0132108 255 0 0
-0.0178772 0.0969021 0.0132157 255 0 0
-0.0155981 0.0969023 0.0132134 255 0 0
-0.0133184 0.0969024 0.0132127 255 0 0
-0.0110471 0.0969025 0.0132124 255 0 0
-0.0087734 0.0969026 0.0132120 255 0 0
-0.0064925 0.0969027 0.0132121 255 0 0
-0.0042059 0.0969026 0.0132131 255 0 0
-0.0019278 0.0969024 0.0132168 255 0 0
0.0004484 0.0969016 0.0132118 255 0 0
0.0027745 0.0969010 0.0132101 255 0 0
0.0050124 0.0969010 0.0132083 255 0 0
0.0072614 0.0968998 0.0132048 255 0 0
0.0095338 0.0968978 0.0131940 255 0 0
0.0118006 0.0968963 0.0131848 255 0 0
0.0140590 0.0968937 0.0131663 255 0 0
0.0163009 0.0968844 0.0131424 255 0 0
0.0185447 0.0968742 0.0131093 255 0 0
0.0207668 0.0968319 0.0130654 255 0 0
-0.1001024 0.0991950 0.0131255 255 0 0
-0.0978555 0.0991928 0.0131374 255 0 0
-0.0955698 0.0991902 0.0131793 255 0 0
-0.0933116 0.0991908 0.0132103 255 0 0
-0.0910688 0.0991892 0.0132061 255 0 0
-0.0888076 0.0991884 0.0132081 255 0 0
-0.0865230 0.0991892 0.0132103 255 0 0
-0.0842360 0.0991893 0.0132125 255 0 0
-0.0819486 0.0991890 0.0132135 255 0 0
-0.0796610 0.0991885 0.0132147 255 0 0
-0.0773735 0.0991884 0.0132161 255 0 0
-0.0750859 0.0991891 0.0132184 255 0 0
-0.0728520 0.0991896 0.0132193 255 0 0
-0.0705073 0.0991903 0.0132186 255 0 0
-0.0681168 0.0991916 0.0132172 255 0 0
-0.0659319 0.0991906 0.0132172 255 0 0
-0.0636452 0.0991904 0.0132148 255 0 0
-0.0613588 0.0991906 0.0132155 255 0 0
-0.0590711 0.0991908 0.0132164 255 0 0
-0.0567853 0.0991918 0.0132181 255 0 0
-0.0545013 0.0991920 0.0132181 255 0 0
-0.0522621 0.0991921 0.0132182 255 0 0
-0.0499709 0.0991922 0.0132191 255 0 0
-0.0476868 0.0991923 0.0132203 255 0 0
-0.0452916 0.0991921 0.0132205 255 0 0
-0.0430013 0.0991919 0.0132208 255 0 0
-0.0407665 0.0991917 0.0132197 255 0 0
-0.0384799 0.0991915 0.0132189 255 0 0
-0.0361922 0.0991915 0.0132184 255 0 0
-0.0339059 0.0991919 0.0132178 255 0 0
-0.0316438 0.0991924 0.0132168 255 0 0
-0.0293632 0.0991921 0.0132212 255 0 0
-0.0270976 0.0991915 0.0132263 255 0 0
-0.0247479 0.0991922 0.0132151 255 0 0
-0.0224199 0.0991923 0.0132086 255 0 0
-0.0201515 0.0991907 0.0132123 255 0 0
-0.0178772 0.0991901 0.0132174 255 0 0
-0.0155979 0.0991903 0.0132157 255 0 0
-0.0133186 0.0991904 0.0132145 255 0 0
-0.0110468 0.0991904 0.0132143 255 0 0
-0.0087745 0.0991904 0.0132141 255 0 0
-0.0064929 0.0991905 0.0132141 255 0 0
-0.0042061 0.0991903 0.0132154 255 0 0
-0.0019281 0.0991903 0.0132181 255 0 0
0.0004488 0.0991896 0.0132142 255 0 0
0.0027749 0.0991890 0.0132121 255 0 0
0.0050116 0.0991886 0.0132098 255 0 0
0.0072603 0.0991855 0.0132057 255 0 0
0.0095335 0.0991794 0.0131945 255 0 0
0.0117991 0.0991715 0.0131861 255 0 0
0.0140560 0.0991663 0.0131679 255 0 0
0.0162997 0.0991597 0.0131453 255 0 0
0.0185285 0.0991264 0.0131195 255 0 0
0.0207462 0.0990881 0.0130896 255 0 0
-0.1001083 0.1014650 0.0131223 255 0 0
-0.0978551 0.1014624 0.0131325 255 0 0
-0.0955692 0.1014655 0.0131801 255 0 0
-0.0933097 0.1014741 0.0132139 255 0 0
-0.0910548 0.1014751 0.0132078 255 0 0
-0.0888080 0.1014770 0.0132098 255 0 0
-0.0865231 0.1014775 0.0132124 255 0 0
-0.0842355 0.1014776 0.0132156 255 0 0
-0.0819484 0.1014775 0.0132186 255 0 0
-0.0796613 0.1014775 0.0132193 255 0 0
-0.0773736 0.1014775 0.0132201 255 0 0
-0.0750860 0.1014776 0.0132215 255 0 0
-0.0728426 0.1014771 0.0132232 255 0 0
-0.0705076 0.1014783 0.0132209 255 0 0
-0.0681159 0.1014791 0.0132196 255 0 0
-0.0659329 0.1014783 0.0132195 255 0 0
-0.0636455 0.1014781 0.0132194 255 0 0
-0.0613585 0.1014785 0.0132197 255 0 0
-0.0590708 0.1014795 0.0132200 255 0 0
-0.0567846 0.1014796 0.0132202 255 0 0
-0.0545013 0.1014797 0.0132203 255 0 0
-0.0522629 0.1014799 0.0132205 255 0 0
-0.0499720 0.1014799 0.0132216 255 0 0
-0.0476870 0.1014801 0.0132230 255 0 0
-0.0452906 0.1014801 0.0132226 255 0 0
-0.0430010 0.1014801 0.0132224 255 0 0
-0.0407671 0.1014803 0.0132218 255 0 0
-0.0384800 0.1014804 0.0132212 255 0 0
-0.0361922 0.1014802 0.0132207 255 0 0
-0.0339060 0.1014799 0.0132204 255 0 0
-0.0316440 0.1014800 0.0132207 255 0 0
-0.0293631 0.1014796 0.0132229 255 0 0
-0.0270977 0.1014785 0.0132282 255 0 0
-0.0247473 0.1014800 0.0132190 255 0 0
-0.0224190 0.1014805 0.0132110 255 0 0
-0.0201513 0.1014797 0.0132174 255 0 0
-0.0178770 0.1014791 0.0132193 255 0 0
-0.0155977 0.1014795 0.0132187 255 0 0
-0.0133187 0.1014797 0.0132185 255 0 0
-0.0110467 0.1014797 0.0132180 255 0 0
-0.0087748 0.1014797 0.0132169 255 0 0
-0.0064932 0.1014798 0.0132170 255 0 0
-0.0042062 0.1014799 0.0132194 255 0 0
-0.0019283 0.1014801 0.0132201 255 0 0
0.0004489 0.1014788 0.0132161 255 0 0
0.0027753 0.1014772 0.0132137 255 0 0
0.0050108 0.1014754 0.0132112 255 0 0
0.0072600 0.1014674 0.0132071 255 0 0
0.0095328 0.1014601 0.0131961 255 0 0
0.0117926 0.1014564 0.0131886 255 0 0
0.0140460 0.1014508 0.0131700 255 0 0
0.0162972 0.1014292 0.0131505 255 0 0
0.0185173 0.1013888 0.0131382 255 0 0
-0.1001059 0.1036775 0.0131150 255 0 0
-0.0978545 0.1036760 0.0131259 255 0 0
-0.0955683 0.1037342 0.0131756 255 0 0
-0.0932987 0.1037451 0.0132108 255 0 0
-0.0910178 0.1037463 0.0132071 255 0 0
-0.0888085 0.1037481 0.0132098 255 0 0
-0.0865232 0.1037486 0.0132122 255 0 0
-0.0842355 0.1037489 0.0132160 255 0 0
-0.0819478 0.1037509 0.0132188 255 0 0
-0.0796607 0.1037518 0.0132195 255 0 0
-0.0773736 0.1037538 0.0132201 255 0 0
-0.0750859 0.1037584 0.0132215 255 0 0
-0.0728397 0.1037623 0.0132236 255 0 0
-0.0705087 0.1037573 0.0132206 255 0 0
-0.0681145 0.1037543 0.0132195 255 0 0
-0.0659332 0.1037577 0.0132192 255 0 0
-0.0636456 0.1037596 0.0132193 255 0 0
-0.0613587 0.1037593 0.0132194 255 0 0
-0.0590711 0.1037595 0.0132196 255 0 0
-0.0567851 0.1037605 0.0132198 255 0 0
-0.0545008 0.1037621 0.0132202 255 0 0
-0.0522639 0.1037632 0.0132206 255 0 0
-0.0499736 0.1037636 0.0132215 255 0 0
-0.0476878 0.1037630 0.0132228 255 0 0
-0.0452902 0.1037638 0.0132219 255 0 0
-0.0430008 0.1037636 0.0132218 255 0 0
-0.0407675 0.1037615 0.0132208 255 0 0
-0.0384800 0.1037605 0.0132201 255 0 0
-0.0361922 0.1037601 0.0132199 255 0 0
-0.0339063 0.1037607 0.0132198 255 0 0
-0.0316433 0.1037618 0.0132203 255 0 0
-0.0293633 0.1037638 0.0132224 255 0 0
-0.0270977 0.1037661 0.0132280 255 0 0
-0.0247465 0.1037571 0.0132188 255 0 0
-0.0224188 0.1037538 0.0132109 255 0 0
-0.0201512 0.1037549 0.0132163 255 0 0
-0.0178768 0.1037552 0.0132193 255 0 0
-0.0155977 0.1037548 0.0132188 255 0 0
-0.0133188 0.1037544 0.0132168 255 0 0
-0.0110468 0.1037541 0.0132167 255 0 0
-0.0087750 0.1037541 0.0132166 255 0 0
-0.0064943 0.1037542 0.0132167 255 0 0
-0.0042063 0.1037541 0.0132190 255 0 0
-0.0019287 0.1037539 0.0132195 255 0 0
0.0004489 0.1037507 0.0132161 255 0 0
0.0027746 0.1037482 0.0132127 255 0 0
0.0050061 0.1037469 0.0132097 255 0 0
0.0072595 0.1037431 0.0132062 255 0 0
0.0095309 0.1037392 0.0131949 255 0 0
0.0117872 0.1037336 0.0131843 255 0 0
0.0140406 0.1036956 0.0131700 255 0 0
0.0162870 0.1036590 0.0131487 255 0 0
0.0185041 0.1036506 0.0131384 255 0 0
-0.1000989 0.1059451 0.0131029 255 0 0
-0.0978539 0.1059463 0.0131162 255 0 0
-0.0955676 0.1059522 0.0131678 255 0 0
-0.0932830 0.1059641 0.0132043 255 0 0
-0.0909954 0.1059676 0.0132036 255 0 0
-0.0888086 0.1059867 0.0132064 255 0 0
-0.0865233 0.1060286 0.0132097 255 0 0
-0.0842356 0.1060318 0.0132139 255 0 0
-0.0819478 0.1060329 0.0132163 255 0 0
-0.0796601 0.1060334 0.0132193 255 0 0
-0.0773729 0.1060338 0.0132205 255 0 0
-0.0750853 0.1060339 0.0132214 255 0 0
-0.0728372 0.1060338 0.0132230 255 0 0
-0.0705089 0.1060352 0.0132198 255 0 0
-0.0681131 0.1060363 0.0132182 255 0 0
-0.0659334 0.1060357 0.0132192 255 0 0
-0.0636456 0.1060356 0.0132184 255 0 0
-0.0613588 0.1060363 0.0132184 255 0 0
-0.0590712 0.1060366 0.0132194 255 0 0
-0.0567847 0.1060365 0.0132202 255 0 0
-0.0545006 0.1060366 0.0132203 255 0 0
-0.0522641 0.1060366 0.0132204 255 0 0
-0.0499747 0.1060366 0.0132206 255 0 0
-0.0476880 0.1060368 0.0132217 255 0 0
-0.0452898 0.1060365 0.0132212 255 0 0
-0.0430006 0.1060366 0.0132187 255 0 0
-0.0407676 0.1060368 0.0132184 255 0 0
-0.0384800 0.1060368 0.0132182 255 0 0
-0.0361923 0.1060367 0.0132176 255 0 0
-0.0339061 0.1060365 0.0132172 255 0 0
-0.0316435 0.1060365 0.0132170 255 0 0
-0.0293631 0.1060362 0.0132216 255 0 0
-0.0270978 0.1060357 0.0132260 255 0 0
-0.0247461 0.1060359 0.0132131 255 0 0
-0.0224185 0.1060367 0.0132065 255 0 0
-0.0201510 0.1060356 0.0132114 255 0 0
-0.0178766 0.1060350 0.0132144 255 0 0
-0.0155976 0.1060353 0.0132126 255 0 0
-0.0133194 0.1060354 0.0132119 255 0 0
-0.0110469 0.1060354 0.0132120 255 0 0
-0.0087750 0.1060354 0.0132122 255 0 0
-0.0064946 0.1060348 0.0132126 255 0 0
-0.0042065 0.1060338 0.0132141 255 0 0
-0.0019297 0.1060329 0.0132154 255 0 0
0.0004486 0.1060290 0.0132114 255 0 0
0.0027744 0.1060251 0.0132098 255 0 0
0.0050047 0.1060227 0.0132058 255 0 0
0.0072540 0.1059869 0.0131983 255 0 0
0.0095257 0.1059634 0.0131921 255 0 0
0.0117852 0.1059518 0.0131782 255 0 0
0.0140328 0.1059448 0.0131606 255 0 0
0.0162714 0.1059404 0.0131440 255 0 0
0.0184945 0.1059352 0.0131278 255 0 0
-0.1000912 0.1082198 0.0130882 255 0 0
-0.0978530 0.1082254 0.0131050 255 0 0
-0.0955663 0.1082271 0.0131593 255 0 0
-0.0932802 0.1082321 0.0131984 255 0 0
-0.0909926 0.1082482 0.0131979 255 0 0
-0.0888021 0.1082510 0.0131992 255 0 0
-0.0865232 0.1082553 0.0132038 255 0 0
-0.0842356 0.1082908 0.0132081 255 0 0
-0.0819478 0.1083170 0.0132089 255 0 0
-0.0796601 0.1083181 0.0132105 255 0 0
-0.0773723 0.1083199 0.0132123 255 0 0
-0.0750845 0.1083202 0.0132146 255 0 0
-0.0728378 0.1083204 0.0132171 255 0 0
-0.0705089 0.1083220 0.0132129 255 0 0
-0.0681124 0.1083233 0.0132111 255 0 0
-0.0659334 0.1083236 0.0132111 255 0 0
-0.0636456 0.1083237 0.0132110 255 0 0
-0.0613589 0.1083240 0.0132110 255 0 0
-0.0590715 0.1083242 0.0132112 255 0 0
-0.0567852 0.1083242 0.0132115 255 0 0
-0.0545002 0.1083243 0.0132119 255 0 0
-0.0522647 0.1083243 0.0132125 255 0 0
-0.0499764 0.1083243 0.0132134 255 0 0
-0.0476889 0.1083244 0.0132145 255 0 0
-0.0452894 0.1083226 0.0132132 255 0 0
-0.0430003 0.1083226 0.0132126 255 0 0
-0.0407676 0.1083228 0.0132111 255 0 0
-0.0384800 0.1083229 0.0132100 255 0 0
-0.0361923 0.1083231 0.0132098 255 0 0
-0.0339063 0.1083232 0.0132097 255 0 0
-0.0316446 0.1083234 0.0132099 255 0 0
-0.0293629 0.1083243 0.0132121 255 0 0
-0.0270979 0.1083235 0.0132175 255 0 0
-0.0247460 0.1083223 0.0132061 255 0 0
-0.0224182 0.1083222 0.0131977 255 0 0
-0.0201510 0.1083219 0.0132032 255 0 0
-0.0178767 0.1083215 0.0132067 255 0 0
-0.0155974 0.1083218 0.0132055 255 0 0
-0.0133207 0.1083216 0.0132028 255 0 0
-0.0110472 0.1083214 0.0132032 255 0 0
-0.0087752 0.1083212 0.0132036 255 0 0
-0.0064947 0.1083203 0.0132043 255 0 0
-0.0042068 0.1083196 0.0132069 255 0 0
-0.0019311 0.1083189 0.0132071 255 0 0
0.0004479 0.1083152 0.0132023 255 0 0
0.0027737 0.1082628 0.0131991 255 0 0
0.0050042 0.1082564 0.0131970 255 0 0
0.0072499 0.1082513 0.0131879 255 0 0
0.0095135 0.1082398 0.0131806 255 0 0
0.0117719 0.1082345 0.0131665 255 0 0
0.0140232 0.1082316 0.0131550 255 0 0
0.0162593 0.1082277 0.0131378 255 0 0
0.0184724 0.1082189 0.0131317 255 0 0
-0.0978575 0.1104927 0.0131056 255 0 0
-0.0955659 0.1105068 0.0131494 255 0 0
-0.0932790 0.1105095 0.0131918 255 0 0
-0.0909916 0.1105143 0.0131928 255 0 0
-0.0887972 0.1105235 0.0131919 255 0 0
-0.0865230 0.1105344 0.0131983 255 0 0
-0.0842355 0.1105382 0.0131995 255 0 0
-0.0819478 0.1105395 0.0132029 255 0 0
-0.0796601 0.1105410 0.0132062 255 0 0
-0.0773723 0.1105424 0.0132103 255 0 0
-0.0750845 0.1105442 0.0132130 255 0 0
-0.0728355 0.1105627 0.0132147 255 0 0
-0.0705089 0.1105786 0.0132099 255 0 0
-0.0681118 0.1105961 0.0132065 255 0 0
-0.0659334 0.1105963 0.0132069 255 0 0
-0.0636456 0.1105963 0.0132053 255 0 0
-0.0613592 0.1105955 0.0132046 255 0 0
-0.0590722 0.1105939 0.0132047 255 0 0
-0.0567852 0.1105931 0.0132056 255 0 0
-0.0545003 0.1105944 0.0132061 255 0 0
-0.0522652 0.1105968 0.0132072 255 0 0
-0.0499768 0.1105976 0.0132090 255 0 0
-0.0476890 0.1105984 0.0132088 255 0 0
-0.0452893 0.1105778 0.0132084 255 0 0
-0.0430002 0.1105700 0.0132071 255 0 0
-0.0407679 0.1105680 0.0132046 255 0 0
-0.0384802 0.1105642 0.0132035 255 0 0
-0.0361925 0.1105620 0.0132033 255 0 0
-0.0339065 0.1105585 0.0132032 255 0 0
-0.0316446 0.1105576 0.0132034 255 0 0
-0.0293613 0.1105563 0.0132054 255 0 0
-0.0270978 0.1105542 0.0132137 255 0 0
-0.0247458 0.1105522 0.0131987 255 0 0
-0.0224168 0.1105513 0.0131903 255 0 0
-0.0201508 0.1105512 0.0131967 255 0 0
-0.0178766 0.1105509 0.0131988 255 0 0
-0.0155973 0.1105507 0.0131973 255 0 0
-0.0133212 0.1105505 0.0131969 255 0 0
-0.0110466 0.1105503 0.0131969 255 0 0
-0.0087752 0.1105501 0.0131972 255 0 0
-0.0064947 0.1105497 0.0131977 255 0 0
-0.0042068 0.1105461 0.0131984 255 0 0
-0.0019318 0.1105452 0.0131987 255 0 0
0.0004471 0.1105408 0.0131952 255 0 0
0.0027722 0.1105303 0.0131898 255 0 0
0.0050023 0.1105246 0.0131859 255 0 0
0.0072446 0.1105203 0.0131800 255 0 0
0.0095123 0.1105188 0.0131710 255 0 0
0.0117697 0.1105158 0.0131608 255 0 0
0.0140097 0.1105118 0.0131487 255 0 0
0.0162329 0.1105077 0.0131480 255 0 0
-0.0977992 0.1128364 0.0130525 255 0 0
-0.0955613 0.1128646 0.0131161 255 0 0
-0.0932757 0.1128902 0.0131543 255 0 0
-0.0909890 0.1129211 0.0131632 255 0 0
-0.0887029 0.1129273 0.0131690 255 0 0
-0.0865226 0.1129308 0.0131721 255 0 0
-0.0842352 0.1129326 0.0131756 255 0 0
-0.0819478 0.1129341 0.0131806 255 0 0
-0.0796601 0.1129351 0.0131822 255 0 0
-0.0773723 0.1129370 0.0131835 255 0 0
-0.0750845 0.1129375 0.0131857 255 0 0
-0.0728350 0.1129374 0.0131900 255 0 0
-0.0705089 0.1129393 0.0131846 255 0 0
-0.0681106 0.1129397 0.0131796 255 0 0
-0.0659334 0.1129399 0.0131803 255 0 0
-0.0636456 0.1129401 0.0131806 255 0 0
-0.0613594 0.1129405 0.0131805 255 0 0
-0.0590729 0.1129410 0.0131807 255 0 0
-0.0567856 0.1129416 0.0131809 255 0 0
-0.0545005 0.1129419 0.0131810 255 0 0
-0.0522657 0.1129422 0.0131810 255 0 0
-0.0499775 0.1129425 0.0131810 255 0 0
-0.0476896 0.1129429 0.0131809 255 0 0
-0.0452890 0.1129424 0.0131814 255 0 0
-0.0430000 0.1129419 0.0131809 255 0 0
-0.0407681 0.1129421 0.0131777 255 0 0
-0.0384807 0.1129424 0.0131759 255 0 0
-0.0361930 0.1129437 0.0131741 255 0 0
-0.0339070 0.1129443 0.0131718 255 0 0
-0.0316275 0.1129446 0.0131709 255 0 0
-0.0293607 0.1129442 0.0131742 255 0 0
-0.0270979 0.1129433 0.0131806 255 0 0
-0.0247456 0.1129467 0.0131635 255 0 0
-0.0224162 0.1129485 0.0131488 255 0 0
-0.0201504 0.1129472 0.0131605 255 0 0
-0.0178758 0.1129466 0.0131662 255 0 0
-0.0155985 0.1129473 0.0131642 255 0 0
-0.0133218 0.1129476 0.0131628 255 0 0
-0.0110478 0.1129477 0.0131637 255 0 0
-0.0087754 0.1129478 0.0131642 255 0 0
-0.0064950 0.1129478 0.0131648 255 0 0
-0.0042093 0.1129472 0.0131660 255 0 0
-0.0019355 0.1129468 0.0131661 255 0 0
0.0004413 0.1129454 0.0131608 255 0 0
0.0027635 0.1129438 0.0131554 255 0 0
0.0049899 0.1129417 0.0131505 255 0 0
0.0072303 0.1129401 0.0131396 255 0 0
0.0094905 0.1129331 0.0131306 255 0 0
0.0117404 0.1129081 0.0131127 255 0 0
0.0139785 0.1128980 0.0130920 255 0 0
0.0161998 0.1128758 0.0130635 255 0 0
-0.0955590 0.1151530 0.0130946 255 0 0
-0.0932750 0.1151943 0.0131295 255 0 0
-0.0909874 0.1152166 0.0131409 255 0 0
-0.0887007 0.1152245 0.0131513 255 0 0
-0.0865222 0.1152274 0.0131543 255 0 0
-0.0842351 0.1152301 0.0131578 255 0 0
-0.0819475 0.1152320 0.0131633 255 0 0
-0.0796600 0.1152348 0.0131649 255 0 0
-0.0773724 0.1152362 0.0131666 255 0 0
-0.0750846 0.1152370 0.0131689 255 0 0
-0.0728080 0.1152374 0.0131739 255 0 0
-0.0705089 0.1152400 0.0131666 255 0 0
-0.0681102 0.1152421 0.0131620 255 0 0
-0.0659334 0.1152419 0.0131629 255 0 0
-0.0636456 0.1152422 0.0131634 255 0 0
-0.0613603 0.1152429 0.0131633 255 0 0
-0.0590733 0.1152435 0.0131633 255 0 0
-0.0567857 0.1152442 0.0131635 255 0 0
-0.0544992 0.1152447 0.0131635 255 0 0
-0.0522658 0.1152447 0.0131633 255 0 0
-0.0499773 0.1152452 0.0131632 255 0 0
-0.0476898 0.1152457 0.0131630 255 0 0
-0.0452891 0.1152462 0.0131634 255 0 0
-0.0430002 0.1152467 0.0131630 255 0 0
-0.0407684 0.1152470 0.0131601 255 0 0
-0.0384809 0.1152471 0.0131560 255 0 0
-0.0361932 0.1152473 0.0131545 255 0 0
-0.0339071 0.1152477 0.0131525 255 0 0
-0.0316256 0.1152480 0.0131517 255 0 0
-0.0293599 0.1152479 0.0131544 255 0 0
-0.0270979 0.1152475 0.0131622 255 0 0
-0.0247453 0.1152524 0.0131390 255 0 0
-0.0224139 0.1152536 0.0131254 255 0 0
-0.0201500 0.1152544 0.0131378 255 0 0
-0.0178761 0.1152541 0.0131436 255 0 0
-0.0155984 0.1152551 0.0131419 255 0 0
-0.0133222 0.1152556 0.0131419 255 0 0
-0.0110475 0.1152560 0.0131431 255 0 0
-0.0087753 0.1152554 0.0131437 255 0 0
-0.0064951 0.1152536 0.0131440 255 0 0
-0.0042109 0.1152521 0.0131440 255 0 0
-0.0019366 0.1152514 0.0131440 255 0 0
0.0004365 0.1152483 0.0131382 255 0 0
0.0027563 0.1152454 0.0131321 255 0 0
0.0049802 0.1152454 0.0131269 255 0 0
0.0072178 0.1152428 0.0131187 255 0 0
0.0094735 0.1152382 0.0131047 255 0 0
0.0117236 0.1152119 0.0130834 255 0 0
0.0139558 0.1151960 0.0130583 255 0 0
0.0161814 0.1151801 0.0130146 255 0 0
-0.0955567 0.1173592 0.0130905 255 0 0
-0.0932741 0.1173742 0.0131170 255 0 0
-0.0909870 0.1174018 0.0131316 255 0 0
-0.0887003 0.1174193 0.0131420 255 0 0
-0.0865218 0.1174804 0.0131467 255 0 0
-0.0842350 0.1174871 0.0131526 255 0 0
-0.0819475 0.1175155 0.0131552 255 0 0
-0.0796599 0.1175196 0.0131579 255 0 0
-0.0773724 0.1175210 0.0131602 255 0 0
-0.0750846 0.1175233 0.0131635 255 0 0
-0.0727995 0.1175240 0.0131668 255 0 0
-0.0705089 0.1175239 0.0131618 255 0 0
-0.0681102 0.1175259 0.0131543 255 0 0
-0.0659334 0.1175263 0.0131580 255 0 0
-0.0636456 0.1175266 0.0131591 255 0 0
-0.0613595 0.1175264 0.0131591 255 0 0
-0.0590729 0.1175271 0.0131592 255 0 0
-0.0567854 0.1175277 0.0131597 255 0 0
-0.0544986 0.1175283 0.0131599 255 0 0
-0.0522652 0.1175289 0.0131602 255 0 0
-0.0499714 0.1175297 0.0131604 255 0 0
-0.0476895 0.1175303 0.0131604 255 0 0
-0.0452894 0.1175314 0.0131612 255 0 0
-0.0430000 0.1175333 0.0131594 255 0 0
-0.0407684 0.1175330 0.0131572 255 0 0
-0.0384807 0.1175336 0.0131559 255 0 0
-0.0361930 0.1175338 0.0131554 255 0 0
-0.0339069 0.1175339 0.0131534 255 0 0
-0.0316258 0.1175338 0.0131514 255 0 0
-0.0293593 0.1175337 0.0131562 255 0 0
-0.0270977 0.1175327 0.0131619 255 0 0
-0.0247458 0.1175360 0.0131439 255 0 0
-0.0224151 0.1175373 0.0131314 255 0 0
-0.0201502 0.1175364 0.0131425 255 0 0
-0.0178762 0.1175352 0.0131467 255 0 0
-0.0156003 0.1175355 0.0131460 255 0 0
-0.0133228 0.1175362 0.0131463 255 0 0
-0.0110462 0.1175369 0.0131470 255 0 0
-0.0087746 0.1175372 0.0131474 255 0 0
-0.0064940 0.1175374 0.0131476 255 0 0
-0.0042101 0.1175361 0.0131475 255 0 0
-0.0019342 0.1175347 0.0131469 255 0 0
0.0004335 0.1175070 0.0131397 255 0 0
0.0027504 0.1175031 0.0131334 255 0 0
0.0049764 0.1174973 0.0131275 255 0 0
0.0072145 0.1174815 0.0131178 255 0 0
0.0094724 0.1174053 0.0131020 255 0 0
0.0117140 0.1173968 0.0130836 255 0 0
0.0139500 0.1173862 0.0130606 255 0 0
-0.0932734 0.1196490 0.0131111 255 0 0
-0.0909861 0.1196642 0.0131244 255 0 0
-0.0886997 0.1196746 0.0131330 255 0 0
-0.0864591 0.1196977 0.0131390 255 0 0
-0.0842346 0.1197055 0.0131433 255 0 0
-0.0819474 0.1197125 0.0131480 255 0 0
-0.0796598 0.1197715 0.0131519 255 0 0
-0.0773723 0.1197758 0.0131533 255 0 0
-0.0750846 0.1197797 0.0131551 255 0 0
-0.0727983 0.1197822 0.0131591 255 0 0
-0.0705089 0.1197852 0.0131539 255 0 0
-0.0681103 0.1197868 0.0131479 255 0 0
-0.0659334 0.1197868 0.0131498 255 0 0
-0.0636456 0.1197875 0.0131517 255 0 0
-0.0613592 0.1197886 0.0131521 255 0 0
-0.0590722 0.1197898 0.0131526 255 0 0
-0.0567852 0.1197904 0.0131534 255 0 0
-0.0544979 0.1197911 0.0131539 255 0 0
-0.0522644 0.1197917 0.0131542 255 0 0
-0.0499545 0.1197927 0.0131546 255 0 0
-0.0476674 0.1197936 0.0131546 255 0 0
-0.0453100 0.1197948 0.0131557 255 0 0
-0.0429996 0.1197955 0.0131565 255 0 0
-0.0407682 0.1197958 0.0131543 255 0 0
-0.0384807 0.1197962 0.0131535 255 0 0
-0.0361929 0.1197966 0.0131530 255 0 0
-0.0339062 0.1197968 0.0131525 255 0 0
-0.0316257 0.1197960 0.0131522 255 0 0
-0.0293589 0.1197961 0.0131534 255 0 0
-0.0270935 0.1197962 0.0131629 255 0 0
-0.0247389 0.1197952 0.0131436 255 0 0
-0.0224122 0.1197947 0.0131320 255 0 0
-0.0201503 0.1197943 0.0131424 255 0 0
-0.0178803 0.1197946 0.0131451 255 0 0
-0.0156004 0.1197946 0.0131455 255 0 0
-0.0133241 0.1197950 0.0131436 255 0 0
-0.0110433 0.1197951 0.0131441 255 0 0
-0.0087741 0.1197938 0.0131442 255 0 0
-0.0064909 0.1197928 0.0131439 255 0 0
-0.0042063 0.1197906 0.0131431 255 0 0
-0.0019313 0.1197873 0.0131422 255 0 0
0.0004303 0.1197168 0.0131347 255 0 0
0.0027441 0.1197046 0.0131261 255 0 0
0.0049714 0.1196989 0.0131230 255 0 0
0.0072106 0.1196923 0.0131164 255 0 0
0.0094628 0.1196846 0.0131018 255 0 0
0.0117099 0.1196735 0.0130843 255 0 0
-0.0909854 0.1219444 0.0131152 255 0 0
-0.0886989 0.1219598 0.0131177 255 0 0
-0.0864486 0.1219688 0.0131253 255 0 0
-0.0842342 0.1219749 0.0131331 255 0 0
-0.0819471 0.1219803 0.0131382 255 0 0
-0.0796596 0.1219938 0.0131420 255 0 0
-0.0773722 0.1220086 0.0131448 255 0 0
-0.0750846 0.1220671 0.0131474 255 0 0
-0.0727969 0.1220715 0.0131517 255 0 0
-0.0705088 0.1220771 0.0131439 255 0 0
-0.0681105 0.1220798 0.0131420 255 0 0
-0.0659334 0.1220801 0.0131452 255 0 0
-0.0636456 0.1220806 0.0131460 255 0 0
-0.0613588 0.1220813 0.0131467 255 0 0
-0.0590712 0.1220825 0.0131482 255 0 0
-0.0567842 0.1220834 0.0131494 255 0 0
-0.0544972 0.1220845 0.0131502 255 0 0
-0.0522425 0.1220851 0.0131509 255 0 0
-0.0499529 0.1220851 0.0131520 255 0 0
-0.0476655 0.1220851 0.0131523 255 0 0
-0.0453107 0.1220876 0.0131531 255 0 0
-0.0429996 0.1220884 0.0131529 255 0 0
-0.0407679 0.1220883 0.0131518 255 0 0
-0.0384803 0.1220880 0.0131509 255 0 0
-0.0361926 0.1220885 0.0131508 255 0 0
-0.0339050 0.1220889 0.0131503 255 0 0
-0.0316193 0.1220889 0.0131501 255 0 0
-0.0293585 0.1220888 0.0131515 255 0 0
-0.0270889 0.1220892 0.0131561 255 0 0
-0.0247368 0.1220865 0.0131418 255 0 0
-0.0224114 0.1220788 0.0131331 255 0 0
-0.0201503 0.1220861 0.0131387 255 0 0
-0.0178840 0.1220877 0.0131394 255 0 0
-0.0156032 0.1220881 0.0131393 255 0 0
-0.0133256 0.1220881 0.0131394 255 0 0
-0.0110419 0.1220877 0.0131396 255 0 0
-0.0087685 0.1220867 0.0131399 255 0 0
-0.0064880 0.1220843 0.0131396 255 0 0
-0.0042008 0.1220739 0.0131390 255 0 0
-0.0019286 0.1220646 0.0131382 255 0 0
0.0004262 0.1220040 0.0131263 255 0 0
0.0027360 0.1219923 0.0131181 255 0 0
0.0049668 0.1219871 0.0131126 255 0 0
0.0072040 0.1219800 0.0131077 255 0 0
0.0094567 0.1219702 0.0131027 255 0 0
-0.0909847 0.1241664 0.0131074 255 0 0
-0.0886979 0.1242411 0.0131119 255 0 0
-0.0864305 0.1242524 0.0131222 255 0 0
-0.0842338 0.1242619 0.0131299 255 0 0
-0.0819468 0.1242667 0.0131361 255 0 0
-0.0796594 0.1242720 0.0131404 255 0 0
-0.0773719 0.1242768 0.0131425 255 0 0
-0.0750844 0.1242823 0.0131430 255 0 0
-0.0727968 0.1242861 0.0131439 255 0 0
-0.0705087 0.1243330 0.0131396 255 0 0
-0.0681331 0.1243634 0.0131384 255 0 0
-0.0659333 0.1243677 0.0131399 255 0 0
-0.0636456 0.1243707 0.0131414 255 0 0
-0.0613585 0.1243734 0.0131425 255 0 0
-0.0590708 0.1243754 0.0131440 255 0 0
-0.0567836 0.1243761 0.0131454 255 0 0
-0.0544965 0.1243758 0.0131474 255 0 0
-0.0522405 0.1243736 0.0131504 255 0 0
-0.0499206 0.1243582 0.0131511 255 0 0
-0.0476536 0.1243564 0.0131513 255 0 0
-0.0453179 0.1243675 0.0131547 255 0 0
-0.0430001 0.1243772 0.0131558 255 0 0
-0.0407678 0.1243720 0.0131544 255 0 0
-0.0384801 0.1243711 0.0131530 255 0 0
-0.0361923 0.1243767 0.0131525 255 0 0
-0.0339045 0.1243787 0.0131457 255 0 0
-0.0316174 0.1243798 0.0131449 255 0 0
-0.0293581 0.1243818 0.0131461 255 0 0
-0.0270802 0.1243839 0.0131525 255 0 0
-0.0247396 0.1243804 0.0131395 255 0 0
-0.0224167 0.1243772 0.0131323 255 0 0
-0.0201504 0.1243829 0.0131389 255 0 0
-0.0178851 0.1243844 0.0131398 255 0 0
-0.0156030 0.1243842 0.0131359 255 0 0
-0.0133253 0.1243833 0.0131349 255 0 0
-0.0110413 0.1243813 0.0131352 255 0 0
-0.0087629 0.1243769 0.0131351 255 0 0
-0.0064841 0.1243603 0.0131345 255 0 0
-0.0041968 0.1243127 0.0131342 255 0 0
-0.0019264 0.1243063 0.0131323 255 0 0
0.0004247 0.1242935 0.0131159 255 0 0
0.0027320 0.1242814 0.0131079 255 0 0
0.0049616 0.1242756 0.0131068 255 0 0
0.0071994 0.1242691 0.0131071 255 0 0
-0.0886968 0.1264635 0.0131145 255 0 0
-0.0864221 0.1264778 0.0131238 255 0 0
-0.0842309 0.1264864 0.0131322 255 0 0
-0.0819464 0.1265390 0.0131399 255 0 0
-0.0796589 0.1266248 0.0131432 255 0 0
-0.0773712 0.1266876 0.0131435 255 0 0
-0.0750840 0.1266941 0.0131408 255 0 0
-0.0727967 0.1266956 0.0131384 255 0 0
-0.0705087 0.1267018 0.0131364 255 0 0
-0.0681556 0.1267063 0.0131332 255 0 0
-0.0659333 0.1267062 0.0131339 255 0 0
-0.0636456 0.1267066 0.0131355 255 0 0
-0.0613583 0.1267076 0.0131432 255 0 0
-0.0590704 0.1267084 0.0131444 255 0 0
-0.0567827 0.1267084 0.0131461 255 0 0
-0.0544954 0.1267086 0.0131482 255 0 0
-0.0522079 0.1267091 0.0131502 255 0 0
-0.0499194 0.1267096 0.0131512 255 0 0
-0.0476316 0.1267084 0.0131512 255 0 0
-0.0453435 0.1267118 0.0131555 255 0 0
-0.0430083 0.1267132 0.0131571 255 0 0
-0.0407679 0.1267136 0.0131554 255 0 0
-0.0384801 0.1267138 0.0131535 255 0 0
-0.0361923 0.1267139 0.0131513 255 0 0
-0.0339045 0.1267142 0.0131505 255 0 0
-0.0316168 0.1267142 0.0131468 255 0 0
-0.0293575 0.1267149 0.0131454 255 0 0
-0.0270769 0.1267147 0.0131494 255 0 0
-0.0247449 0.1267179 0.0131378 255 0 0
-0.0224256 0.1267197 0.0131344 255 0 0
-0.0201577 0.1267188 0.0131359 255 0 0
-0.0178903 0.1267187 0.0131361 255 0 0
-0.0156032 0.1267184 0.0131344 255 0 0
-0.0133234 0.1267177 0.0131338 255 0 0
-0.0110411 0.1267162 0.0131338 255 0 0
-0.0087611 0.1267150 0.0131323 255 0 0
-0.0064792 0.1267132 0.0131311 255 0 0
-0.0041949 0.1267112 0.0131291 255 0 0
-0.0019244 0.1267058 0.0131289 255 0 0
0.0004262 0.1265493 0.0131070 255 0 0
0.0027326 0.1265168 0.0131008 255 0 0
0.0049574 0.1265119 0.0131064 255 0 0
-0.0842308 0.1287741 0.0131450 255 0 0
-0.0819448 0.1287861 0.0131620 255 0 0
-0.0796570 0.1288050 0.0131589 255 0 0
-0.0773694 0.1289790 0.0131548 255 0 0
-0.0750828 0.1289831 0.0131393 255 0 0
-0.0727963 0.1289852 0.0131239 255 0 0
-0.0705086 0.1289951 0.0131261 255 0 0
-0.0681571 0.1290006 0.0131297 255 0 0
-0.0659333 0.1290008 0.0131303 255 0 0
-0.0636456 0.1290034 0.0131319 255 0 0
-0.0613580 0.1290043 0.0131352 255 0 0
-0.0590703 0.1290045 0.0131378 255 0 0
-0.0567825 0.1290046 0.0131403 255 0 0
-0.0544948 0.1290052 0.0131461 255 0 0
-0.0522069 0.1290055 0.0131522 255 0 0
-0.0499194 0.1290013 0.0131532 255 0 0
-0.0476319 0.1289938 0.0131520 255 0 0
-0.0453441 0.1289975 0.0131641 255 0 0
-0.0430243 0.1290026 0.0131673 255 0 0
-0.0407683 0.1290059 0.0131635 255 0 0
-0.0384804 0.1290058 0.0131598 255 0 0
-0.0361925 0.1290088 0.0131560 255 0 0
-0.0339046 0.1290098 0.0131526 255 0 0
-0.0316168 0.1290104 0.0131503 255 0 0
-0.0293495 0.1290124 0.0131477 255 0 0
-0.0270718 0.1290119 0.0131483 255 0 0
-0.0247453 0.1290179 0.0131379 255 0 0
-0.0224289 0.1290198 0.0131319 255 0 0
-0.0201666 0.1290196 0.0131332 255 0 0
-0.0178905 0.1290191 0.0131320 255 0 0
-0.0156040 0.1290170 0.0131306 255 0 0
-0.0133236 0.1290183 0.0131318 255 0 0
-0.0110421 0.1290151 0.0131331 255 0 0
-0.0087560 0.1290087 0.0131324 255 0 0
-0.0064729 0.1290041 0.0131308 255 0 0
-0.0041896 0.1289991 0.0131287 255 0 0
-0.0019251 0.1290000 0.0131319 255 0 0
0.0004329 0.1288251 0.0131065 255 0 0
-0.0819437 0.1310678 0.0132039 255 0 0
-0.0796649 0.1311723 0.0132241 255 0 0
-0.0773466 0.1312488 0.0131077 255 0 0
-0.0750556 0.1312471 0.0131210 255 0 0
-0.0727902 0.1312497 0.0131381 255 0 0
-0.0705062 0.1313062 0.0131352 255 0 0
-0.0682131 0.1313175 0.0131294 255 0 0
-0.0659337 0.1313150 0.0131302 255 0 0
-0.0636459 0.1313145 0.0131360 255 0 0
-0.0613595 0.1313234 0.0131414 255 0 0
-0.0590723 0.1313178 0.0131426 255 0 0
-0.0567865 0.1313119 0.0131465 255 0 0
-0.0545098 0.1312966 0.0131433 255 0 0
-0.0522269 0.1312853 0.0131295 255 0 0
-0.0499381 0.1312612 0.0131383 255 0 0
-0.0476540 0.1312495 0.0130772 255 0 0
-0.0453477 0.1312497 0.0131231 255 0 0
-0.0430556 0.1312748 0.0132106 255 0 0
-0.0407690 0.1312929 0.0131579 255 0 0
-0.0384811 0.1313034 0.0131414 255 0 0
-0.0361933 0.1312921 0.0131418 255 0 0
-0.0339050 0.1312861 0.0131439 255 0 0
-0.0316170 0.1312874 0.0131436 255 0 0
-0.0293441 0.1313062 0.0131398 255 0 0
-0.0270685 0.1313180 0.0131424 255 0 0
-0.0247473 0.1313272 0.0131372 255 0 0
-0.0224415 0.1313523 0.0131319 255 0 0
-0.0201662 0.1313537 0.0131310 255 0 0
-0.0178867 0.1313425 0.0131299 255 0 0
-0.0156028 0.1313385 0.0131288 255 0 0
-0.0133233 0.1313201 0.0131280 255 0 0
-0.0110400 0.1312925 0.0131321 255 0 0
-0.0088336 0.1312485 0.0131237 255 0 0
-0.0065419 0.1312708 0.0131293 255 0 0
-0.0042817 0.1313077 0.0131207 255 0 0
-0.0751317 0.1336271 0.0131322 255 0 0
-0.0728085 0.1335665 0.0129957 255 0 0
-0.0705122 0.1334612 0.0130613 255 0 0
-0.0682024 0.1334264 0.0131042 255 0 0
-0.0658964 0.1334299 0.0131081 255 0 0
-0.0636313 0.1334315 0.0131131 255 0 0
-0.0613565 0.1333943 0.0131217 255 0 0
-0.0590688 0.1334262 0.0131283 255 0 0
-0.0568098 0.1334120 0.0131333 255 0 0
-0.0545180 0.1334430 0.0131498 255 0 0
-0.0522148 0.1335825 0.0131850 255 0 0
-0.0499038 0.1335648 0.0132810 255 0 0
-0.0476249 0.1335249 0.0133701 255 0 0
-0.0339048 0.1335405 0.0131857 255 0 0
-0.0316173 0.1335418 0.0131809 255 0 0
-0.0293446 0.1336104 0.0131696 255 0 0
-0.0270550 0.1336172 0.0131626 255 0 0
-0.0247256 0.1336026 0.0131413 255 0 0
-0.0224310 0.1335411 0.0131283 255 0 0
-0.0201740 0.1335627 0.0131296 255 0 0
-0.0179048 0.1335802 0.0131281 255 0 0
-0.0156236 0.1335578 0.0131270 255 0 0
-0.0133374 0.1335026 0.0131219 255 0 0
-0.0110736 0.1335846 0.0130893 255 0 0
-0.0247422 0.0329495 0.0155765 255 0 0
-0.0224342 0.0329381 0.0155558 255 0 0
-0.0201789 0.0329618 0.0155629 255 0 0
-0.0612945 0.0352172 0.0155588 255 0 0
-0.0590263 0.0352141 0.0155874 255 0 0
-0.0567402 0.0352095 0.0156200 255 0 0
-0.0544963 0.0352046 0.0156440 255 0 0
-0.0522089 0.0352016 0.0156641 255 0 0
-0.0499215 0.0351985 0.0156767 255 0 0
-0.0476769 0.0351922 0.0156829 255 0 0
-0.0453007 0.0351994 0.0156838 255 0 0
-0.0430117 0.0352032 0.0156816 255 0 0
-0.0407688 0.0352036 0.0156771 255 0 0
-0.0384819 0.0352051 0.0156697 255 0 0
-0.0361951 0.0352075 0.0156628 255 0 0
-0.0339277 0.0352086 0.0156544 255 0 0
-0.0316602 0.0352087 0.0156484 255 0 0
-0.0293557 0.0352094 0.0156396 255 0 0
-0.0270788 0.0352099 0.0156296 255 0 0
-0.0247433 0.0352085 0.0156082 255 0 0
-0.0224331 0.0352095 0.0155928 255 0 0
-0.0201788 0.0352106 0.0155947 255 0 0
-0.0179144 0.0352127 0.0155914 255 0 0
-0.0156590 0.0352150 0.0155812 255 0 0
-0.0134036 0.0352172 0.0155729 255 0 0
-0.0658447 0.0374831 0.0155344 255 0 0
-0.0635578 0.0374648 0.0155667 255 0 0
-0.0613139 0.0374557 0.0155884 255 0 0
-0.0590273 0.0374528 0.0156116 255 0 0
-0.0567518 0.0374492 0.0156343 255 0 0
-0.0544964 0.0374460 0.0156500 255 0 0
-0.0522091 0.0374379 0.0156659 255 0 0
-0.0499217 0.0374259 0.0156748 255 0 0
-0.0476769 0.0374189 0.0156797 255 0 0
-0.0453004 0.0374280 0.0156815 255 0 0
-0.0430116 0.0374357 0.0156820 255 0 0
-0.0407685 0.0374362 0.0156799 255 0 0
-0.0384818 0.0374394 0.0156769 255 0 0
-0.0361943 0.0374445 0.0156716 255 0 0
-0.0339199 0.0374469 0.0156669 255 0 0
-0.0316524 0.0374480 0.0156613 255 0 0
-0.0293564 0.0374484 0.0156524 255 0 0
-0.0270834 0.0374492 0.0156468 255 0 0
-0.0247430 0.0374492 0.0156350 255 0 0
-0.0224347 0.0374498 0.0156266 255 0 0
-0.0201758 0.0374499 0.0156244 255 0 0
-0.0179093 0.0374513 0.0156189 255 0 0
-0.0156499 0.0374531 0.0156092 255 0 0
-0.0133894 0.0374564 0.0155996 255 0 0
-0.0111316 0.0374621 0.0155884 255 0 0
-0.0088764 0.0374750 0.0155786 255 0 0
-0.0704197 0.0397547 0.0154847 255 0 0
-0.0681320 0.0397498 0.0155345 255 0 0
-0.0658451 0.0397322 0.0155716 255 0 0
-0.0635583 0.0396973 0.0155970 255 0 0
-0.0613144 0.0396949 0.0156145 255 0 0
-0.0590283 0.0396923 0.0156304 255 0 0
-0.0567840 0.0396903 0.0156436 255 0 0
-0.0544965 0.0396883 0.0156562 255 0 0
-0.0522094 0.0396741 0.0156641 255 0 0
-0.0499221 0.0396665 0.0156704 255 0 0
-0.0476769 0.0396630 0.0156736 255 0 0
-0.0453002 0.0396668 0.0156764 255 0 0
-0.0430115 0.0396678 0.0156787 255 0 0
-0.0407683 0.0396677 0.0156778 255 0 0
-0.0384818 0.0396710 0.0156754 255 0 0
-0.0361941 0.0396765 0.0156731 255 0 0
-0.0339079 0.0396811 0.0156714 255 0 0
-0.0316469 0.0396840 0.0156696 255 0 0
-0.0293561 0.0396869 0.0156642 255 0 0
-0.0270840 0.0396900 0.0156555 255 0 0
-0.0247435 0.0396897 0.0156552 255 0 0
-0.0224327 0.0396900 0.0156514 255 0 0
-0.0201664 0.0396904 0.0156461 255 0 0
-0.0179023 0.0396917 0.0156390 255 0 0
-0.0156344 0.0396928 0.0156297 255 0 0
-0.0133763 0.0396962 0.0156186 255 0 0
-0.0111145 0.0397061 0.0156027 255 0 0
-0.0088568 0.0397327 0.0155913 255 0 0
-0.0066052 0.0397450 0.0155840 255 0 0
-0.0727083 0.0420468 0.0154751 255 0 0
-0.0704195 0.0420365 0.0155484 255 0 0
-0.0681316 0.0420281 0.0156051 255 0 0
-0.0658454 0.0420240 0.0156220 255 0 0
-0.0636315 0.0420204 0.0156379 255 0 0
-0.0613164 0.0420076 0.0156504 255 0 0
-0.0590719 0.0419781 0.0156654 255 0 0
-0.0567845 0.0419765 0.0156722 255 0 0
-0.0544973 0.0419754 0.0156780 255 0 0
-0.0522517 0.0419746 0.0156831 255 0 0
-0.0499626 0.0419744 0.0156906 255 0 0
-0.0476776 0.0419739 0.0156954 255 0 0
-0.0452995 0.0419752 0.0156925 255 0 0
-0.0430109 0.0419758 0.0156908 255 0 0
-0.0407667 0.0419758 0.0156918 255 0 0
-0.0384818 0.0419758 0.0156911 255 0 0
-0.0361946 0.0419759 0.0156883 255 0 0
-0.0339083 0.0419759 0.0156862 255 0 0
-0.0316437 0.0419758 0.0156835 255 0 0
-0.0293602 0.0419758 0.0156807 255 0 0
-0.0270835 0.0419767 0.0156764 255 0 0
-0.0247421 0.0419759 0.0156782 255 0 0
-0.0224245 0.0419756 0.0156780 255 0 0
-0.0201560 0.0419757 0.0156743 255 0 0
-0.0178913 0.0419766 0.0156700 255 0 0
-0.0156217 0.0419778 0.0156637 255 0 0
-0.0133525 0.0420127 0.0156532 255 0 0
-0.0110915 0.0420209 0.0156419 255 0 0
-0.0088298 0.0420237 0.0156258 255 0 0
-0.0065798 0.0420249 0.0156065 255 0 0
-0.0043360 0.0420219 0.0155804 255 0 0
-0.0749944 0.0443576 0.0154927 255 0 0
-0.0727290 0.0443370 0.0155261 255 0 0
-0.0704194 0.0443177 0.0155995 255 0 0
-0.0681314 0.0443084 0.0156507 255 0 0
-0.0658490 0.0443072 0.0156552 255 0 0
-0.0636456 0.0443047 0.0156677 255 0 0
-0.0613598 0.0442994 0.0156761 255 0 0
-0.0590724 0.0442758 0.0156825 255 0 0
-0.0567849 0.0442621 0.0156866 255 0 0
-0.0544988 0.0442607 0.0156951 255 0 0
-0.0522537 0.0442601 0.0157006 255 0 0
-0.0499658 0.0442598 0.0157019 255 0 0
-0.0476783 0.0442598 0.0157029 255 0 0
-0.0452993 0.0442602 0.0157027 255 0 0
-0.0430095 0.0442605 0.0156974 255 0 0
-0.0407520 0.0442603 0.0157000 255 0 0
-0.0384815 0.0442604 0.0157012 255 0 0
-0.0361941 0.0442604 0.0156995 255 0 0
-0.0339078 0.0442604 0.0156988 255 0 0
-0.0316438 0.0442604 0.0156980 255 0 0
-0.0293638 0.0442606 0.0156956 255 0 0
-0.0270851 0.0442610 0.0156900 255 0 0
-0.0247426 0.0442596 0.0156968 255 0 0
-0.0224231 0.0442599 0.0156932 255 0 0
-0.0201555 0.0442609 0.0156890 255 0 0
-0.0178816 0.0442622 0.0156854 255 0 0
-0.0156103 0.0442916 0.0156827 255 0 0
-0.0133410 0.0442993 0.0156778 255 0 0
-0.0110683 0.0443028 0.0156669 255 0 0
-0.0088107 0.0443050 0.0156507 255 0 0
-0.0065588 0.0443048 0.0156258 255 0 0
-0.0043158 0.0442924 0.0155909 255 0 0
-0.0021184 0.0442574 0.0155840 255 0 0
-0.0772804 0.0466317 0.0155200 255 0 0
-0.0749946 0.0466131 0.0155498 255 0 0
-0.0727963 0.0466090 0.0155753 255 0 0
-0.0704193 0.0465756 0.0156227 255 0 0
-0.0681309 0.0465534 0.0156546 255 0 0
-0.0658819 0.0465525 0.0156621 255 0 0
-0.0636456 0.0465508 0.0156683 255 0 0
-0.0613597 0.0465494 0.0156743 255 0 0
-0.0590722 0.0465478 0.0156785 255 0 0
-0.0567849 0.0465466 0.0156807 255 0 0
-0.0544994 0.0465442 0.0156847 255 0 0
-0.0522537 0.0465406 0.0156890 255 0 0
-0.0499655 0.0465309 0.0156934 255 0 0
-0.0476782 0.0465179 0.0156943 255 0 0
-0.0452988 0.0465296 0.0156933 255 0 0
-0.0430094 0.0465303 0.0156914 255 0 0
-0.0407606 0.0465304 0.0156930 255 0 0
-0.0384818 0.0465299 0.0156935 255 0 0
-0.0361943 0.0465293 0.0156919 255 0 0
-0.0339079 0.0465305 0.0156909 255 0 0
-0.0316435 0.0465312 0.0156897 255 0 0
-0.0293574 0.0465335 0.0156880 255 0 0
-0.0270838 0.0465383 0.0156849 255 0 0
-0.0247420 0.0465406 0.0156883 255 0 0
-0.0224258 0.0465428 0.0156865 255 0 0
-0.0201553 0.0465451 0.0156842 255 0 0
-0.0178815 0.0465472 0.0156804 255 0 0
-0.0156098 0.0465475 0.0156793 255 0 0
-0.0133394 0.0465488 0.0156759 255 0 0
-0.0110656 0.0465495 0.0156704 255 0 0
-0.0088072 0.0465496 0.0156565 255 0 0
-0.0065458 0.0465503 0.0156423 255 0 0
-0.0042913 0.0465757 0.0156171 255 0 0
-0.0020563 0.0465673 0.0155707 255 0 0
-0.0795663 0.0489084 0.0155390 255 0 0
-0.0772805 0.0488999 0.0155667 255 0 0
-0.0750070 0.0488922 0.0155916 255 0 0
-0.0727963 0.0488849 0.0156114 255 0 0
-0.0704192 0.0488408 0.0156428 255 0 0
-0.0681302 0.0488326 0.0156668 255 0 0
-0.0659147 0.0487987 0.0156688 255 0 0
-0.0636456 0.0487974 0.0156715 255 0 0
-0.0613600 0.0487957 0.0156756 255 0 0
-0.0590725 0.0487951 0.0156778 255 0 0
-0.0567854 0.0487946 0.0156790 255 0 0
-0.0545004 0.0487945 0.0156822 255 0 0
-0.0522541 0.0487944 0.0156849 255 0 0
-0.0499653 0.0487943 0.0156872 255 0 0
-0.0476787 0.0487943 0.0156898 255 0 0
-0.0452987 0.0487944 0.0156899 255 0 0
-0.0430090 0.0487943 0.0156901 255 0 0
-0.0407584 0.0487942 0.0156912 255 0 0
-0.0384815 0.0487942 0.0156912 255 0 0
-0.0361941 0.0487942 0.0156901 255 0 0
-0.0339078 0.0487942 0.0156886 255 0 0
-0.0316443 0.0487943 0.0156874 255 0 0
-0.0293578 0.0487944 0.0156865 255 0 0
-0.0270841 0.0487952 0.0156843 255 0 0
-0.0247420 0.0487935 0.0156866 255 0 0
-0.0224257 0.0487933 0.0156866 255 0 0
-0.0201550 0.0487930 0.0156842 255 0 0
-0.0178809 0.0487937 0.0156806 255 0 0
-0.0156088 0.0487939 0.0156791 255 0 0
-0.0133338 0.0487941 0.0156776 255 0 0
-0.0110635 0.0487947 0.0156738 255 0 0
-0.0087971 0.0488315 0.0156656 255 0 0
-0.0065347 0.0488330 0.0156556 255 0 0
-0.0042697 0.0488355 0.0156366 255 0 0
-0.0020206 0.0488332 0.0156005 255 0 0
0.0003406 0.0490307 0.0156409 255 0 0
-0.0795663 0.0511853 0.0155628 255 0 0
-0.0772808 0.0511738 0.0155893 255 0 0
-0.0750824 0.0511355 0.0156143 255 0 0
-0.0727980 0.0511303 0.0156347 255 0 0
-0.0704191 0.0511203 0.0156595 255 0 0
-0.0681297 0.0510825 0.0156763 255 0 0
-0.0659321 0.0510821 0.0156773 255 0 0
-0.0636456 0.0510819 0.0156786 255 0 0
-0.0613600 0.0510814 0.0156807 255 0 0
-0.0590725 0.0510812 0.0156843 255 0 0
-0.0567854 0.0510809 0.0156881 255 0 0
-0.0545220 0.0510806 0.0156906 255 0 0
-0.0522538 0.0510805 0.0156930 255 0 0
-0.0499650 0.0510804 0.0156942 255 0 0
-0.0476784 0.0510804 0.0156946 255 0 0
-0.0452985 0.0510805 0.0156944 255 0 0
-0.0430083 0.0510805 0.0156937 255 0 0
-0.0407498 0.0510804 0.0156948 255 0 0
-0.0384818 0.0510804 0.0156950 255 0 0
-0.0361944 0.0510804 0.0156946 255 0 0
-0.0339084 0.0510806 0.0156940 255 0 0
-0.0316439 0.0510809 0.0156931 255 0 0
-0.0293581 0.0510810 0.0156925 255 0 0
-0.0270841 0.0510816 0.0156890 255 0 0
-0.0247421 0.0510797 0.0156947 255 0 0
-0.0224255 0.0510786 0.0156960 255 0 0
-0.0201549 0.0510797 0.0156925 255 0 0
-0.0178802 0.0510805 0.0156900 255 0 0
-0.0156049 0.0510799 0.0156870 255 0 0
-0.0133290 0.0510795 0.0156830 255 0 0
-0.0110538 0.0510800 0.0156806 255 0 0
-0.0087928 0.0510810 0.0156772 255 0 0
-0.0065228 0.0510833 0.0156692 255 0 0
-0.0042495 0.0511205 0.0156540 255 0 0
-0.0019936 0.0511066 0.0156329 255 0 0
0.0003479 0.0512249 0.0156266 255 0 0
0.0026406 0.0512774 0.0156150 255 0 0
-0.0818519 0.0534716 0.0155445 255 0 0
-0.0795665 0.0534416 0.0155837 255 0 0
-0.0772841 0.0534220 0.0156117 255 0 0
-0.0750835 0.0534167 0.0156359 255 0 0
-0.0727993 0.0534101 0.0156532 255 0 0
-0.0704199 0.0533699 0.0156736 255 0 0
-0.0681291 0.0533662 0.0156835 255 0 0
-0.0659324 0.0533664 0.0156844 255 0 0
-0.0636456 0.0533664 0.0156861 255 0 0
-0.0613602 0.0533661 0.0156899 255 0 0
-0.0590728 0.0533660 0.0156927 255 0 0
-0.0567860 0.0533661 0.0156949 255 0 0
-0.0545281 0.0533661 0.0156963 255 0 0
-0.0522540 0.0533661 0.0156966 255 0 0
-0.0499655 0.0533659 0.0156968 255 0 0
-0.0476785 0.0533658 0.0156971 255 0 0
-0.0452983 0.0533660 0.0156971 255 0 0
-0.0430076 0.0533661 0.0156969 255 0 0
-0.0407464 0.0533662 0.0156975 255 0 0
-0.0384815 0.0533661 0.0156977 255 0 0
-0.0361942 0.0533659 0.0156977 255 0 0
-0.0339086 0.0533658 0.0156976 255 0 0
-0.0316446 0.0533657 0.0156972 255 0 0
-0.0293585 0.0533659 0.0156960 255 0 0
-0.0270843 0.0533661 0.0156929 255 0 0
-0.0247421 0.0533647 0.0156981 255 0 0
-0.0224259 0.0533627 0.0157015 255 0 0
-0.0201547 0.0533645 0.0156981 255 0 0
-0.0178783 0.0533647 0.0156956 255 0 0
-0.0156039 0.0533646 0.0156955 255 0 0
-0.0133283 0.0533644 0.0156930 255 0 0
-0.0110524 0.0533648 0.0156881 255 0 0
-0.0087789 0.0533647 0.0156835 255 0 0
-0.0065119 0.0533666 0.0156800 255 0 0
-0.0042376 0.0533759 0.0156682 255 0 0
-0.0019738 0.0534028 0.0156560 255 0 0
0.0003540 0.0534467 0.0156273 255 0 0
0.0026401 0.0534914 0.0156090 255 0 0
-0.0841181 0.0557527 0.0155244 255 0 0
-0.0818527 0.0557164 0.0155718 255 0 0
-0.0795671 0.0557083 0.0156065 255 0 0
-0.0773683 0.0557021 0.0156315 255 0 0
-0.0750844 0.0556952 0.0156527 255 0 0
-0.0728007 0.0556588 0.0156714 255 0 0
-0.0704212 0.0556560 0.0156808 255 0 0
-0.0681284 0.0556534 0.0156936 255 0 0
-0.0659323 0.0556536 0.0156940 255 0 0
-0.0636456 0.0556534 0.0156947 255 0 0
-0.0613599 0.0556527 0.0156957 255 0 0
-0.0590727 0.0556523 0.0156980 255 0 0
-0.0567858 0.0556522 0.0156984 255 0 0
-0.0545286 0.0556523 0.0156987 255 0 0
-0.0522540 0.0556522 0.0156990 255 0 0
-0.0499655 0.0556523 0.0156993 255 0 0
-0.0476783 0.0556524 0.0156996 255 0 0
-0.0452979 0.0556522 0.0156992 255 0 0
-0.0430069 0.0556522 0.0156990 255 0 0
-0.0407450 0.0556521 0.0156995 255 0 0
-0.0384819 0.0556520 0.0156998 255 0 0
-0.0361946 0.0556520 0.0156997 255 0 0
-0.0339087 0.0556519 0.0156996 255 0 0
-0.0316447 0.0556521 0.0156994 255 0 0
-0.0293589 0.0556524 0.0156983 255 0 0
-0.0270847 0.0556527 0.0156952 255 0 0
-0.0247427 0.0556516 0.0157014 255 0 0
-0.0224254 0.0556498 0.0157044 255 0 0
-0.0201546 0.0556514 0.0157014 255 0 0
-0.0178778 0.0556517 0.0156991 255 0 0
-0.0156009 0.0556516 0.0156996 255 0 0
-0.0133280 0.0556516 0.0156989 255 0 0
-0.0110517 0.0556519 0.0156965 255 0 0
-0.0087770 0.0556522 0.0156922 255 0 0
-0.0065060 0.0556524 0.0156869 255 0 0
-0.0042282 0.0556547 0.0156810 255 0 0
-0.0019604 0.0556873 0.0156746 255 0 0
0.0003675 0.0557069 0.0156489 255 0 0
0.0026528 0.0557413 0.0156332 255 0 0
0.0048638 0.0557497 0.0156231 255 0 0
-0.0841277 0.0580095 0.0155528 255 0 0
-0.0818531 0.0579937 0.0155954 255 0 0
-0.0795685 0.0579865 0.0156259 255 0 0
-0.0773705 0.0579814 0.0156484 255 0 0
-0.0750861 0.0579457 0.0156677 255 0 0
-0.0728012 0.0579423 0.0156805 255 0 0
-0.0704583 0.0579407 0.0156893 255 0 0
-0.0681278 0.0579395 0.0156986 255 0 0
-0.0659322 0.0579393 0.0156992 255 0 0
-0.0636456 0.0579393 0.0156997 255 0 0
-0.0613601 0.0579393 0.0157003 255 0 0
-0.0590731 0.0579391 0.0157007 255 0 0
-0.0567861 0.0579388 0.0157011 255 0 0
-0.0545296 0.0579388 0.0157014 255 0 0
-0.0522543 0.0579388 0.0157016 255 0 0
-0.0499659 0.0579390 0.0157019 255 0 0
-0.0476789 0.0579390 0.0157023 255 0 0
-0.0452976 0.0579390 0.0157017 255 0 0
-0.0430062 0.0579390 0.0157016 255 0 0
-0.0407407 0.0579388 0.0157021 255 0 0
-0.0384816 0.0579387 0.0157024 255 0 0
-0.0361947 0.0579386 0.0157023 255 0 0
